ply
format ascii 1.0
comment PCL generated
element vertex 1107
property float x
property float y
property float z
property uchar red
property uchar green
property uchar blue
element face 0
element camera 0
property float view_px
property float view_py
property float view_pz
property float x_axisx
property float x_axisy
property float x_axisz
property float y_axisx
property float y_axisy
property float y_axisz
property float z_axisx
property float z_axisy
property float z_axisz
property float focal
property float scalex
property float scaley
property float centerx
property float centery
property int viewportx
property int viewporty
property float k1
property float k2
end_header
-30.143923 -5.232059 -4.0237293 93 96 67
-30.244781 -5.02246 -4.0566311 60 69 38
-29.961157 -5.0529385 -4.0428481 76 83 52
-32.715866 -4.9667821 -4.0623035 155 152 117
-31.560656 -4.9342446 -4.0419216 92 100 63
-30.119713 -4.8161235 -4.057982 74 76 42
-32.595131 -4.5002761 -4.0403714 107 107 79
-31.881788 -4.3214221 -4.0030618 112 125 72
-30.643887 -4.3030224 -4.008698 82 88 54
-31.328926 -3.6126876 -4.1375856 80 91 48
-31.821194 -3.5817542 -4.0089273 135 143 87
-41.340141 -16.64658 -3.8573031 74 90 26
-41.413795 -16.568998 -3.857856 75 91 28
-41.298721 -16.535696 -3.8298819 65 86 19
-40.100136 -16.172142 -3.8070078 68 86 29
-42.680836 -15.107199 -3.9399672 65 80 23
-42.593582 -14.931242 -3.8166926 61 79 20
-42.607426 -14.754992 -3.8011003 62 81 26
-42.514847 -14.774032 -3.8184907 81 102 43
-38.554806 -14.10113 -3.9110723 86 100 41
-40.370728 -13.688045 -3.8366685 68 83 28
-38.62616 -13.222848 -3.8212237 83 102 48
-38.400177 -13.299345 -3.8705196 77 101 53
-38.336498 -13.312404 -3.8374698 62 90 39
-40.079021 -13.142643 -3.8069348 118 111 97
-39.858047 -13.020845 -3.8063393 184 173 162
-38.649055 -13.028512 -3.8632264 73 98 43
-38.475838 -13.124873 -3.8110957 69 93 45
-38.077988 -13.125973 -3.8440304 58 81 31
-39.940105 -12.970448 -3.8148243 137 128 121
-39.7519 -12.904957 -3.8223443 188 180 169
-38.505005 -12.918896 -3.8194129 89 98 51
-38.398151 -12.899726 -3.9703412 76 98 49
-38.100163 -12.876429 -3.9197888 74 95 40
-37.890987 -12.896768 -3.8315046 56 84 35
-39.650829 -12.732424 -3.8445361 88 82 68
-39.215328 -12.670004 -3.9069538 115 108 79
-38.837681 -12.655558 -3.8283105 83 90 49
-38.653976 -12.609026 -3.8502316 72 88 36
-38.488045 -12.612237 -3.846539 89 116 65
-38.286018 -12.690948 -3.882879 80 94 50
-38.074532 -12.724648 -3.8724861 64 85 40
-37.904263 -12.733737 -3.924289 76 87 46
-37.749569 -12.683512 -3.9129195 71 78 42
-37.441326 -12.630584 -3.8960147 122 119 84
-39.312881 -12.465864 -3.874378 126 114 102
-39.158722 -12.471481 -3.8727777 114 103 84
-38.869362 -12.401332 -3.8260083 108 103 74
-38.442898 -12.457425 -3.8385711 178 154 150
-38.346256 -12.47853 -3.8617439 147 134 120
-38.086441 -12.521792 -3.944195 108 109 81
-37.876545 -12.501028 -3.918726 81 91 55
-37.672554 -12.484258 -3.9075456 83 95 56
-37.475674 -12.472667 -3.9215643 84 83 54
-37.253326 -12.418247 -3.9597526 81 69 40
-39.436798 -12.35167 -3.820725 125 114 111
-39.261551 -12.284256 -3.8768992 134 121 115
-39.101231 -12.242187 -3.8328838 164 149 142
-38.202496 -12.240959 -3.8194005 125 117 106
-38.143318 -12.308414 -3.916878 126 116 107
-37.876678 -12.299164 -3.9422803 113 112 91
-37.663265 -12.253769 -3.9298675 93 99 74
-37.542439 -12.288821 -3.8635321 75 86 53
-37.32983 -12.298685 -3.9217663 88 85 53
-39.341354 -12.139553 -3.8143511 143 132 129
-38.023346 -12.149924 -3.9078383 126 117 106
-37.902042 -12.105054 -3.9017935 121 115 103
-37.749119 -12.147685 -3.894738 111 111 94
-37.536217 -12.065734 -3.9838426 110 107 84
-37.321449 -12.092271 -3.8950508 85 90 63
-37.07901 -12.097777 -3.8690479 86 88 56
-36.916748 -12.059117 -3.9345224 78 79 50
-36.771866 -12.01881 -3.9486108 80 80 50
-37.959923 -11.992596 -3.8798256 146 138 125
-37.714684 -11.88073 -3.8586211 131 121 111
-37.493134 -11.923904 -3.9018414 105 108 83
-37.312145 -11.873832 -3.8326626 72 81 55
-37.114429 -11.918281 -3.9680521 88 85 62
-36.881596 -11.869642 -3.972712 67 74 41
-37.65583 -11.670198 -3.850955 143 135 125
-37.527134 -11.755683 -3.8893692 129 116 104
-37.332127 -11.67036 -3.9305642 121 118 104
-36.809593 -11.673326 -3.8678315 67 78 45
-37.713974 -11.574422 -3.8163335 139 137 130
-37.482117 -11.519477 -3.8814805 137 134 126
-37.322132 -11.470591 -3.9509654 134 129 120
-37.048992 -11.470043 -3.9200141 108 107 93
-36.922112 -11.53833 -3.9711826 89 87 70
-36.754761 -11.471845 -3.8934529 79 86 54
-36.544876 -11.587164 -3.8693838 59 75 35
-36.154919 -11.437967 -3.8058128 80 95 49
-34.647774 -11.46023 -3.8544626 60 76 41
-37.420307 -11.286217 -3.8184009 147 152 151
-37.272064 -11.361338 -3.8551583 137 130 120
-37.103905 -11.274907 -3.9273343 130 124 114
-36.884743 -11.291802 -3.9906611 120 115 100
-36.752132 -11.340858 -3.853668 120 108 92
-36.524429 -11.314896 -3.9080265 83 86 54
-36.026512 -11.302279 -3.8442941 72 89 42
-34.602356 -11.366354 -3.8362157 74 88 55
-37.258541 -11.153895 -3.813345 139 144 144
-37.077641 -11.113266 -3.8707485 127 123 117
-36.923 -11.106921 -3.9007657 140 127 119
-36.735546 -11.15826 -3.9938951 128 110 99
-36.467743 -11.11739 -3.8742156 79 85 53
-35.955414 -11.164031 -3.8063765 76 85 38
-35.296158 -11.054895 -3.8235765 92 101 59
-35.095234 -11.049214 -3.8470516 98 109 64
-34.9468 -11.067934 -3.813725 108 119 73
-34.18111 -11.111883 -3.8814359 80 96 55
-33.934612 -11.004336 -3.8782105 76 91 47
-36.841255 -10.983531 -3.8568342 148 139 136
-36.7467 -10.860912 -3.800662 127 122 113
-36.566208 -10.974674 -3.8820353 88 90 65
-35.868347 -10.944842 -3.8518553 75 87 43
-35.335236 -10.918056 -3.8249109 83 92 51
-35.071098 -10.84443 -3.8103967 85 100 59
-34.291794 -10.921572 -3.8611946 88 97 58
-34.125519 -10.848747 -3.8263073 78 89 50
-36.703659 -10.714561 -3.8255336 84 88 66
-36.550186 -10.76262 -3.8103986 95 106 65
-35.694763 -10.620554 -3.8025291 67 71 36
-35.147873 -10.669068 -3.8595858 88 97 56
-34.893585 -10.731427 -3.8556364 75 85 50
-34.678062 -10.621822 -3.8455181 76 83 49
-34.549187 -10.711412 -3.8804176 99 106 73
-34.304749 -10.685092 -3.8290215 87 93 53
-34.09016 -10.670997 -3.8657982 93 102 64
-33.924149 -10.797475 -3.8050413 80 92 48
-36.834343 -10.439403 -3.8271909 126 119 114
-36.78524 -10.481857 -3.8295305 79 80 65
-35.739449 -10.574188 -3.8032832 104 110 72
-35.530094 -10.538304 -3.8562844 82 87 50
-35.318165 -10.546823 -3.8742998 74 84 46
-35.077915 -10.567872 -3.895731 68 79 43
-34.853668 -10.434141 -3.9025311 73 81 47
-34.688641 -10.492915 -3.8639507 77 87 50
-34.467636 -10.523935 -3.8736811 75 86 49
-34.292374 -10.470081 -3.9024153 77 87 49
-34.199093 -10.532162 -3.8465161 82 91 57
-36.855816 -10.271829 -3.8560047 99 97 89
-36.712994 -10.317295 -3.8764191 94 95 78
-36.470169 -10.267631 -3.8613155 92 86 63
-35.736542 -10.314114 -3.8420043 105 115 69
-35.518833 -10.248996 -3.8551681 84 102 56
-35.307365 -10.380863 -3.8441846 71 88 45
-35.044144 -10.350248 -3.8102791 86 100 60
-34.88826 -10.242852 -3.8698218 65 78 39
-34.705685 -10.286809 -3.8555021 70 82 44
-34.492569 -10.311818 -3.8873823 74 88 52
-34.262207 -10.335938 -3.8465469 79 88 52
-34.139191 -10.298319 -3.8658037 88 100 61
-36.898067 -10.126718 -3.8712771 109 102 101
-36.726952 -10.088645 -3.9019432 101 98 96
-36.407753 -10.031776 -3.9188108 84 80 71
-36.33271 -10.091829 -3.9114873 113 109 93
-36.101063 -10.056264 -3.8523796 114 115 88
-35.850651 -10.052944 -3.8627138 113 117 69
-35.724606 -10.084766 -3.8529215 104 116 68
-35.52121 -10.077013 -3.8246889 97 110 62
-35.31543 -10.126955 -3.8520265 84 95 53
-35.094246 -10.157868 -3.8514051 85 97 56
-34.907139 -10.11715 -3.8540812 73 84 42
-34.670742 -10.099689 -3.8897769 74 85 46
-34.527653 -10.115441 -3.9101985 73 85 47
-32.956886 -10.081055 -3.8025322 100 102 55
-37.055492 -9.8698845 -3.8786595 103 94 91
-36.822285 -9.8975782 -3.9073873 105 100 99
-36.460854 -9.8751898 -3.8485467 113 107 106
-36.285519 -9.9100056 -3.8414032 110 103 93
-36.124714 -9.8731298 -3.854892 106 100 84
-35.884094 -9.9296951 -3.8826993 115 122 77
-35.699581 -9.9098635 -3.8539116 112 121 72
-35.487926 -9.9085703 -3.8553019 102 115 68
-35.272133 -9.8562918 -3.8569188 86 101 60
-35.043373 -9.9115715 -3.8610978 90 102 59
-34.911926 -9.8699598 -3.8708549 78 90 51
-34.725681 -9.9358931 -3.8614368 76 89 48
-34.509468 -9.9224777 -3.8356719 87 96 58
-34.39521 -9.8315878 -3.8581963 79 92 48
-33.91666 -9.867836 -3.8294787 104 120 77
-33.606762 -9.9333572 -3.8421447 99 109 59
-33.066238 -9.913249 -3.8413777 85 91 48
-37.078259 -9.6869507 -3.8206873 94 92 92
-36.862392 -9.6928873 -3.8393459 116 113 115
-36.737659 -9.6959219 -3.8311827 119 113 115
-36.488914 -9.7181454 -3.8257558 112 107 113
-36.281528 -9.6908045 -3.8454838 129 125 128
-36.096519 -9.71416 -3.9293869 117 115 104
-35.831551 -9.7781239 -3.9728234 132 131 97
-35.638031 -9.7419529 -3.8695388 125 134 88
-35.554409 -9.7044106 -3.8596497 107 112 71
-35.130413 -9.6156139 -3.8039212 93 104 65
-34.931145 -9.7215328 -3.862987 82 95 57
-34.694344 -9.7779732 -3.8578861 76 88 49
-34.519932 -9.7028484 -3.8610234 80 89 51
-34.267159 -9.6811237 -3.8597589 79 86 48
-33.964909 -9.7642097 -3.8232388 82 100 58
-33.697155 -9.762064 -3.8651283 98 106 64
-33.507618 -9.7546825 -3.8497097 81 88 46
-33.351154 -9.6441469 -3.8352582 84 95 51
-33.172821 -9.7072954 -3.8526287 95 104 63
-32.435524 -9.6826935 -3.8481863 89 90 48
-32.326141 -9.6601391 -3.9525251 85 88 51
-36.953918 -9.4856501 -3.8517361 92 91 94
-36.699818 -9.4633436 -3.8344834 124 122 127
-36.487469 -9.5135651 -3.8366532 109 109 111
-36.279369 -9.5257082 -3.8301098 117 112 120
-36.084896 -9.5096912 -3.8953013 133 130 135
-35.898235 -9.4516487 -3.8760481 148 143 138
-35.650051 -9.4527531 -3.8657582 129 128 104
-35.516602 -9.4548597 -3.9180322 116 114 93
-35.239799 -9.4511051 -3.8654137 102 109 70
-34.884495 -9.5709219 -3.8574269 85 94 54
-34.510979 -9.4998178 -3.8862634 89 107 67
-34.136051 -9.586524 -3.8036172 99 115 76
-33.471989 -9.4579773 -3.873986 90 95 55
-33.230408 -9.5646477 -3.8165994 79 88 49
-33.018917 -9.4668627 -3.8169899 114 116 66
-32.96006 -9.5353327 -3.8563342 84 85 41
-32.3284 -9.4488468 -3.8415327 97 99 63
-36.862698 -9.3166018 -3.8273056 162 163 167
-36.742081 -9.2685976 -3.8782053 122 122 127
-36.509254 -9.280838 -3.8850784 105 107 111
-36.322666 -9.3417635 -3.8412178 113 114 116
-36.064907 -9.206131 -3.9001637 132 137 142
-35.895344 -9.3347969 -3.8868332 117 111 112
-35.714466 -9.27707 -3.8757005 154 145 156
-35.492496 -9.2987185 -3.902596 135 129 128
-35.34547 -9.2650013 -3.8834414 104 100 88
-35.178181 -9.3543463 -3.9000218 84 93 50
-32.545311 -9.3083973 -3.8417363 96 98 59
-32.337334 -9.3267527 -3.8837042 88 97 58
-32.094784 -9.2337885 -3.8246646 110 112 70
-36.875065 -9.1646719 -3.8342929 133 136 144
-36.672539 -9.1802788 -3.8319435 111 113 119
-36.360382 -9.1276169 -3.8347893 106 102 111
-36.145992 -9.1352291 -3.8901253 116 118 123
-35.853207 -9.089921 -3.8657601 157 153 164
-35.695351 -9.0927372 -3.8542194 192 187 202
-35.491566 -9.1082382 -3.8655329 198 189 205
-35.289719 -9.0739841 -3.8807755 107 102 96
-32.659397 -9.1428757 -3.8422985 90 92 54
-32.541355 -9.0949125 -3.8615603 102 104 62
-32.170345 -9.1853695 -3.8382745 80 78 40
-36.84285 -8.8985357 -3.849612 76 84 88
-36.784031 -8.8415918 -3.8869121 85 94 96
-36.576233 -8.8432674 -3.8117514 151 151 163
-36.370667 -8.879014 -3.8047359 105 110 112
-36.092796 -8.9127331 -3.8601165 107 109 115
-35.841373 -8.9324198 -3.8785942 129 130 138
-35.752686 -8.9400282 -3.8750269 121 122 130
-35.484936 -8.9193172 -3.8762836 133 124 129
-35.313633 -8.9042492 -3.8864396 121 114 116
-35.138592 -8.8756027 -3.897717 100 97 91
-33.889557 -8.9122496 -3.8207595 53 64 24
-33.644352 -8.8311214 -3.8519032 81 95 53
-33.564362 -8.8876629 -3.8457465 94 110 66
-32.282372 -8.9754562 -3.8203731 90 92 55
-31.682646 -8.8297253 -3.856039 103 104 67
-36.748539 -8.7474051 -3.8395412 70 75 81
-36.28722 -8.7418423 -3.8122463 144 149 156
-36.110023 -8.6212635 -3.8187222 129 134 140
-35.891636 -8.684804 -3.8599796 104 107 111
-35.684158 -8.7743511 -3.9528828 106 108 111
-35.469028 -8.7055807 -3.9717271 101 104 101
-35.27729 -8.6739874 -3.8955181 139 130 134
-35.109127 -8.7079973 -3.8914599 115 113 100
-34.971844 -8.6188965 -3.8215184 104 97 86
-33.704807 -8.7049608 -3.8363845 72 79 44
-33.490192 -8.6690054 -3.8259754 80 87 49
-33.298569 -8.6873035 -3.8602989 80 85 48
-33.114548 -8.6396904 -3.837007 108 114 77
-32.509621 -8.7164679 -3.9130368 111 114 73
-32.30846 -8.7421026 -3.8066776 77 81 48
-32.017696 -8.6942778 -3.802145 123 126 83
-31.697962 -8.7275352 -3.8558092 96 98 62
-31.498623 -8.6980658 -3.9719901 77 79 49
-36.790054 -8.517664 -3.8341367 51 50 56
-36.23732 -8.4558392 -3.823236 112 117 122
-35.957294 -8.4823885 -3.8479671 113 115 124
-35.686977 -8.4580917 -3.9028747 118 124 128
-35.463257 -8.4920444 -3.8770072 112 111 115
-35.328957 -8.512639 -3.8579643 125 117 122
-35.111683 -8.5192213 -3.8520534 99 99 80
-34.97319 -8.5353622 -3.8920572 103 101 83
-34.065281 -8.412653 -3.8018067 71 80 38
-33.889904 -8.4621849 -3.8507128 105 105 67
-33.683208 -8.5138159 -3.8474529 84 87 51
-33.476318 -8.4372654 -3.8494036 99 102 63
-33.336063 -8.5020952 -3.8312747 88 93 56
-33.002773 -8.4134855 -3.8129709 82 78 40
-32.933784 -8.4428997 -3.8403625 123 119 81
-32.791492 -8.4030037 -3.8629913 96 99 70
-32.481842 -8.5288811 -3.8136756 84 90 51
-32.283089 -8.4495163 -3.8193436 94 99 54
-32.038864 -8.4941177 -3.8118784 103 110 68
-31.654282 -8.4786062 -3.8211977 110 114 80
-31.34679 -8.5276508 -3.9287775 85 92 57
-36.299294 -8.3475208 -3.8585348 136 140 144
-35.831196 -8.3359423 -3.8663912 133 137 142
-35.791061 -8.2967768 -3.8770013 100 106 111
-35.504345 -8.3371019 -3.8998411 119 118 124
-35.325241 -8.301115 -3.8774841 119 116 118
-35.126896 -8.3318691 -3.8869843 108 109 93
-34.847363 -8.2340422 -3.8083189 107 119 71
-34.700195 -8.3520632 -3.8160896 100 117 68
-34.478611 -8.2204466 -3.8113546 106 115 75
-34.312119 -8.265151 -3.8519819 87 97 59
-34.167538 -8.3110371 -3.8244805 71 77 42
-33.861824 -8.331872 -3.8164597 96 98 56
-33.710075 -8.3002491 -3.8277228 95 99 57
-33.500736 -8.2894793 -3.8418994 90 92 58
-33.322441 -8.2967873 -3.8351309 86 88 54
-33.072124 -8.238781 -3.8115952 92 97 62
-32.858654 -8.2637672 -3.8435311 93 97 63
-32.675442 -8.2946587 -3.886734 87 94 60
-32.500469 -8.334197 -3.8382556 89 94 57
-32.083977 -8.3029318 -3.8068361 121 125 81
-31.691757 -8.3085709 -3.9081821 100 103 65
-31.561203 -8.3258219 -3.9474239 102 105 68
-31.247631 -8.3907013 -3.9583859 92 96 62
-31.104933 -8.2640781 -3.9506807 87 91 60
-35.804279 -8.0312634 -3.8380868 134 140 145
-35.658478 -8.1788816 -3.8868053 122 125 130
-35.499935 -8.0867653 -3.8242052 103 102 107
-35.346786 -8.1444817 -3.8135042 117 119 114
-35.069691 -8.0575771 -3.8495662 97 98 80
-34.86731 -8.185235 -3.8072109 94 98 61
-34.43454 -8.0979195 -3.8111377 81 91 50
-34.319283 -8.0414734 -3.8248887 90 98 59
-33.73291 -8.1100359 -3.8309171 97 102 63
-33.532776 -8.0700712 -3.8472142 96 99 63
-33.284519 -8.1043224 -3.8208895 86 90 57
-33.024673 -8.1396303 -3.8644302 92 94 57
-32.925358 -8.0810156 -3.836724 86 89 55
-32.664017 -8.1450272 -3.82897 100 105 70
-32.08289 -8.0625505 -3.8618124 84 92 58
-31.837006 -8.0966368 -3.9047205 78 82 50
-31.668081 -8.0732145 -3.9199677 94 99 67
-31.513504 -8.0747595 -3.9058921 86 89 58
-31.298214 -8.0826225 -3.920855 97 101 66
-31.057556 -8.1090202 -3.9709101 111 116 84
-30.962591 -8.0855703 -3.9128587 96 100 68
-35.657558 -7.90063 -3.8366351 109 114 106
-35.449516 -7.9450626 -3.8281877 124 126 122
-35.303406 -7.9457402 -3.809927 165 155 168
-35.143692 -7.9508009 -3.8620331 120 113 118
-34.959332 -7.963501 -3.8162296 123 116 108
-34.291134 -7.8838539 -3.8172131 80 86 49
-34.1703 -7.8752518 -3.8210497 86 95 60
-33.875084 -7.8983283 -3.823513 89 95 55
-33.726311 -7.9119883 -3.8282914 95 98 59
-33.486145 -7.9017668 -3.8428848 99 103 64
-33.29068 -7.9015293 -3.8515549 93 94 62
-33.103458 -7.9301643 -3.8520148 92 95 63
-32.885349 -7.8856668 -3.8225458 88 92 56
-32.736942 -7.964684 -3.8311369 96 101 66
-32.503578 -7.8855443 -3.836746 99 107 70
-32.282017 -7.8959236 -3.8673007 103 107 72
-32.094139 -7.8947511 -3.908541 82 86 58
-31.926041 -7.8590093 -3.892494 67 74 47
-31.715454 -7.9011426 -3.8966312 94 101 70
-31.47946 -7.8821235 -3.8751507 91 97 62
-31.339226 -7.880012 -3.8471537 93 96 65
-31.091595 -7.9425125 -3.8351996 81 86 52
-30.899654 -7.8786726 -3.8381319 90 94 58
-35.449009 -7.7936106 -3.8129482 133 125 134
-34.226082 -7.6635156 -3.8225336 92 97 55
-34.064701 -7.6848521 -3.8330555 106 111 68
-33.869358 -7.7197609 -3.8383307 103 108 65
-33.701996 -7.6775513 -3.8447635 87 87 45
-33.492565 -7.7056661 -3.8196762 103 104 61
-33.301952 -7.65169 -3.8711071 99 99 58
-33.076366 -7.6673717 -3.8467205 97 100 65
-32.901932 -7.7252731 -3.8505628 91 94 57
-32.654297 -7.6722217 -3.8561795 96 99 61
-32.491821 -7.7150931 -3.8990328 88 93 60
-32.270592 -7.6831646 -3.9061363 83 86 57
-32.112064 -7.685215 -3.8760078 83 94 60
-31.883772 -7.6910214 -3.9416926 89 97 66
-31.692093 -7.663969 -3.9186451 84 91 60
-31.568998 -7.6740017 -3.9192286 77 84 51
-31.389168 -7.7790456 -3.8022246 98 99 62
-31.091093 -7.7148356 -3.8218656 85 88 58
-30.822575 -7.7879095 -3.8348701 101 102 69
-30.699423 -7.7862635 -3.8158164 82 82 52
-34.805614 -7.4211254 -3.8047347 102 108 70
-34.455666 -7.4262514 -3.8080885 103 99 60
-34.287758 -7.4770594 -3.8250709 98 99 60
-34.084595 -7.5002246 -3.8434951 94 98 58
-33.886822 -7.4678903 -3.8211672 101 105 61
-33.709629 -7.4528823 -3.8538511 113 112 66
-33.510788 -7.5273981 -3.8578517 107 106 66
-33.302189 -7.4896111 -3.8806145 94 99 60
-33.118031 -7.4885697 -3.8933113 89 92 56
-32.895256 -7.5020595 -3.8553193 91 94 61
-32.701958 -7.489428 -3.8812425 102 108 77
-32.493351 -7.5248146 -3.9070046 87 93 62
-32.300095 -7.5096717 -3.8675919 88 94 62
-32.074883 -7.5214782 -3.8538604 95 102 70
-31.878225 -7.5038948 -3.8636241 95 102 69
-31.69281 -7.5006738 -3.8833454 81 88 56
-31.531219 -7.5275755 -3.8469226 77 83 50
-31.28756 -7.4803257 -3.8478954 99 100 69
-31.08094 -7.4753528 -3.8222167 123 121 91
-30.887793 -7.5410695 -3.8374012 85 90 58
-30.701107 -7.4896793 -3.8383017 78 83 54
-30.4573 -7.5299888 -3.8384335 64 72 44
-34.667816 -7.286088 -3.8049355 103 106 66
-34.297562 -7.2917423 -3.8416085 106 106 69
-34.114056 -7.2881093 -3.8400719 97 104 63
-33.899872 -7.2834387 -3.8363881 105 112 69
-33.737484 -7.2713761 -3.8284645 104 113 68
-33.481426 -7.3237095 -3.824789 104 110 68
-33.27354 -7.3008647 -3.9013097 93 98 62
-33.084042 -7.2959609 -3.9016645 86 92 58
-32.912827 -7.3103108 -3.9092951 88 94 61
-32.698887 -7.2835426 -3.8707387 93 98 66
-32.516468 -7.3038211 -3.8496268 98 101 66
-32.279835 -7.356133 -3.8424337 96 99 65
-32.021774 -7.2612681 -3.8263841 116 120 83
-31.83806 -7.2327695 -3.8063774 100 102 68
-31.734415 -7.3169465 -3.8393972 86 92 59
-31.508453 -7.2900586 -3.8728936 83 87 57
-31.320658 -7.3030319 -3.9007432 83 85 56
-31.093418 -7.2785306 -3.8513401 85 87 57
-30.905529 -7.2993984 -3.8693275 84 88 59
-30.716816 -7.3208985 -3.8461502 85 88 59
-30.55674 -7.2992711 -3.8609476 84 86 54
-30.374926 -7.2542939 -3.88622 85 85 56
-34.410702 -7.1561508 -3.8041184 117 110 81
-34.266537 -7.111444 -3.8260095 114 111 74
-34.107628 -7.1093593 -3.8342936 102 106 67
-33.907036 -7.1061606 -3.8399844 97 101 65
-33.732601 -7.0705428 -3.8396499 92 97 63
-33.505169 -7.098834 -3.8236532 97 103 66
-33.320885 -7.1005945 -3.8722801 94 99 64
-33.079948 -7.0881515 -3.8746858 94 100 64
-32.884621 -7.1010756 -3.8624122 99 103 69
-32.709309 -7.1093445 -3.8436522 99 102 67
-32.582397 -7.1138153 -3.8598802 110 123 77
-32.095211 -7.0754414 -3.8927822 98 102 68
-31.890383 -7.1069484 -3.8463807 83 88 56
-31.686443 -7.1108904 -3.8575339 81 87 55
-31.539879 -7.1320229 -3.8731565 87 90 61
-31.354462 -7.1486988 -3.8806627 85 88 57
-31.118851 -7.1058388 -3.8705075 78 83 51
-30.858685 -7.1153412 -3.8618221 88 91 61
-30.677773 -7.1020107 -3.8622515 85 86 58
-30.503201 -7.0966721 -3.8824253 86 89 57
-30.300512 -7.0482531 -3.8570626 81 85 54
-30.136517 -7.1071091 -3.842145 83 84 55
-29.950893 -7.0640507 -3.9065976 96 105 71
-34.678223 -6.8896904 -3.8188348 139 134 97
-34.405346 -6.8379726 -3.8127151 127 123 86
-34.259109 -6.9072876 -3.8323441 110 108 71
-34.102947 -6.9192839 -3.8421769 108 109 69
-33.895546 -6.9049649 -3.829865 105 107 69
-33.696301 -6.8949313 -3.8620012 97 102 65
-33.505974 -6.9236488 -3.8843226 94 101 64
-33.303482 -6.9010067 -3.8728921 97 102 66
-33.10791 -6.8933411 -3.8603892 100 105 69
-32.969635 -6.8915606 -3.8553143 124 132 90
-32.737122 -6.9804373 -3.8246672 102 102 65
-32.461052 -6.8287387 -3.8444273 99 105 68
-32.373043 -6.8652344 -3.8323045 84 88 53
-32.041744 -6.9252234 -3.8349252 100 110 71
-31.46843 -6.8310633 -3.8228092 90 99 66
-31.322626 -6.8209405 -3.8387783 104 115 77
-31.036186 -6.914639 -3.8083296 71 76 46
-30.872652 -6.9114537 -3.8782752 79 82 53
-30.69788 -6.9047751 -3.8661423 89 91 59
-30.53104 -6.8985562 -3.8588393 87 91 60
-30.250166 -6.8007488 -3.8084946 98 101 68
-29.941193 -6.9741039 -3.8193393 81 82 54
-34.508846 -6.7161903 -3.8239427 126 123 86
-34.26054 -6.6995549 -3.8211474 126 125 86
-34.075859 -6.7076206 -3.8376281 119 116 78
-33.889549 -6.7129598 -3.8323731 116 117 77
-33.708538 -6.683866 -3.8460956 107 111 71
-33.503571 -6.6936913 -3.8472047 108 116 74
-33.287834 -6.7199473 -3.8497374 92 99 62
-33.104836 -6.704658 -3.8570912 97 101 65
-32.922333 -6.6299911 -3.8605537 109 116 76
-32.4837 -6.6868539 -3.837239 112 117 78
-32.227592 -6.7179098 -3.8269734 87 91 54
-32.135727 -6.6452689 -3.8566029 90 98 60
-31.472504 -6.7034802 -3.8672962 84 91 59
-31.320686 -6.7335968 -3.8525212 79 84 56
-30.904556 -6.7241821 -3.8605614 95 104 72
-30.715401 -6.6775756 -3.859092 80 85 58
-30.510071 -6.699892 -3.8485935 79 83 53
-30.332794 -6.6911445 -3.8648994 87 90 60
-34.549431 -6.5515924 -3.8170505 111 105 69
-34.310043 -6.548203 -3.831955 115 115 78
-34.098827 -6.5017672 -3.8454835 119 113 85
-33.889145 -6.5010509 -3.8465457 104 103 71
-33.694347 -6.5128312 -3.8481719 107 110 72
-33.523186 -6.4938717 -3.8399603 109 112 74
-33.297962 -6.491694 -3.8604918 99 103 66
-33.083527 -6.4971175 -3.8571255 95 101 63
-32.900955 -6.502563 -3.8553276 101 107 68
-32.66045 -6.4205537 -3.8786149 93 97 63
-32.477924 -6.4741206 -3.8687856 90 96 57
-32.27972 -6.4807196 -3.8506699 91 100 61
-32.156548 -6.4834795 -3.8244781 78 92 53
-31.854086 -6.4277453 -3.8398478 115 128 93
-31.631493 -6.4791265 -3.8381686 75 90 51
-31.457907 -6.470655 -3.8280232 91 101 70
-31.313599 -6.4536819 -3.8853021 79 90 59
-31.078699 -6.4793205 -3.8578987 82 95 64
-30.911236 -6.4630556 -3.8202424 90 99 69
-30.783775 -6.5650229 -3.8311448 79 90 57
-30.505674 -6.4890938 -3.8814187 78 84 53
-30.308899 -6.496604 -3.8658299 75 80 51
-30.12771 -6.479887 -3.8915195 83 88 56
-29.853369 -6.5417981 -3.8383794 69 69 41
-29.733223 -6.4797478 -3.8348095 73 75 47
-29.468082 -6.5026817 -3.9142749 77 77 54
-34.331516 -6.2400322 -3.8114161 120 109 79
-34.077477 -6.3172698 -3.8371334 118 114 87
-33.907921 -6.2998481 -3.837194 112 109 79
-33.716988 -6.29248 -3.8272462 120 118 82
-33.491161 -6.3217626 -3.848212 114 115 78
-33.300072 -6.3046064 -3.8705773 99 102 67
-33.099407 -6.2991934 -3.8702185 94 100 63
-32.899525 -6.3023715 -3.8572845 99 105 67
-32.694641 -6.3194842 -3.8727093 92 96 60
-32.524086 -6.2984285 -3.8434079 92 98 60
-32.301067 -6.3135915 -3.823519 100 112 69
-32.064095 -6.3509207 -3.8402615 93 110 66
-31.944 -6.30795 -3.8345997 91 107 67
-31.716087 -6.2433715 -3.8453767 74 85 47
-31.510027 -6.3602982 -3.8638573 80 89 57
-31.316742 -6.3530021 -3.8706071 85 94 59
-31.078001 -6.3725324 -3.8254232 97 102 79
-30.456717 -6.3181233 -3.8318405 75 80 52
-30.31336 -6.321722 -3.8678715 73 78 51
-30.086016 -6.2713599 -3.8610561 78 84 55
-29.890873 -6.2935901 -3.8739643 82 86 55
-29.706806 -6.2051291 -3.9499903 79 87 55
-29.4111 -6.2304773 -3.9508972 88 95 64
-29.34527 -6.2740622 -3.8438096 89 89 65
-34.208939 -6.160728 -3.8399863 114 106 80
-34.07077 -6.0877781 -3.8403244 119 112 83
-33.88747 -6.1202612 -3.8378935 123 118 91
-33.691917 -6.0978932 -3.8443887 119 117 83
-33.509232 -6.1153388 -3.8162487 119 118 82
-33.270798 -6.12005 -3.8619521 104 108 73
-33.126461 -6.0952954 -3.854836 93 100 63
-32.90147 -6.0902314 -3.8638351 91 98 59
-32.681995 -6.0905309 -3.8886249 88 94 57
-32.545784 -6.0375662 -3.8546898 89 95 57
-32.343254 -6.1182842 -3.8535485 93 101 63
-32.143856 -6.0973816 -3.8068771 113 124 82
-31.855759 -6.0182848 -3.8186445 105 124 82
-31.67684 -6.0697079 -3.8609414 89 99 60
-31.516104 -6.1614895 -3.8467796 97 101 65
-31.361547 -6.0089388 -3.805573 85 94 59
-30.062592 -6.1297183 -3.8686612 73 75 47
-29.889584 -6.1051311 -3.9052024 67 69 43
-29.754902 -6.1447315 -3.8960247 76 82 53
-29.519897 -6.1140733 -3.8793752 86 91 60
-29.244894 -6.1307578 -3.8198147 75 75 51
-29.082111 -6.1210146 -3.8969607 77 80 55
-28.89423 -6.0057325 -3.9921803 63 68 38
-34.0177 -5.9832287 -3.8636587 128 123 94
-33.842655 -5.904232 -3.8314991 124 120 91
-33.682823 -5.9059162 -3.8515477 124 120 88
-33.503822 -5.9022264 -3.8539963 118 118 82
-33.298004 -5.9112544 -3.859992 113 116 77
-33.083538 -5.8981314 -3.8808017 100 106 69
-32.925777 -5.9038291 -3.8823133 97 103 67
-32.689751 -5.8972754 -3.8613148 81 89 51
-32.498657 -5.9144344 -3.8748612 74 82 46
-32.299866 -5.9042163 -3.8711557 100 106 65
-32.121407 -5.8831563 -3.8302147 91 97 59
-31.914545 -5.9574733 -3.8600609 84 96 59
-31.739885 -5.8956394 -3.8530941 90 105 66
-31.53413 -5.8381977 -3.8011858 93 109 69
-31.30776 -5.9076214 -3.8258002 92 108 68
-31.150793 -5.903235 -3.8349504 94 114 73
-30.753147 -5.9362025 -3.8031247 119 123 90
-30.429567 -5.8629417 -3.8049936 86 87 59
-30.293951 -5.8897185 -3.8433616 78 80 53
-30.068811 -5.9225283 -3.8856721 78 78 54
-29.878925 -5.8844552 -3.8795695 76 78 54
-29.672665 -5.8926959 -3.8601537 90 93 65
-29.471973 -5.8785715 -3.8210716 87 87 60
-29.29911 -5.9379544 -3.8434019 81 83 56
-29.148161 -5.9818497 -3.8772235 72 73 48
-33.688267 -5.6877809 -3.8156681 116 111 87
-33.527229 -5.6951947 -3.8360896 115 113 84
-33.303749 -5.7013135 -3.8664081 107 112 73
-33.083824 -5.6926169 -3.8761313 98 104 70
-32.911392 -5.6738734 -3.8608241 94 104 68
-32.671177 -5.7271547 -3.8638916 86 95 54
-32.520992 -5.6871562 -3.8700881 89 99 60
-32.296841 -5.7028365 -3.8727992 88 96 57
-32.150928 -5.6823745 -3.8254814 91 103 65
-31.678198 -5.7323751 -3.8530006 88 102 62
-31.477737 -5.7745419 -3.8450496 95 107 70
-31.395395 -5.7565107 -3.807003 109 120 76
-30.257179 -5.7496738 -3.8729458 74 78 49
-30.164217 -5.7259388 -3.8799791 80 83 57
-29.940327 -5.6743369 -3.886976 86 89 62
-29.72415 -5.7022247 -3.875103 81 85 59
-29.506977 -5.6095743 -3.9154325 65 70 41
-29.340506 -5.773118 -3.834533 76 76 50
-29.18189 -5.7324667 -3.9026775 73 76 45
-33.667725 -5.5083098 -3.8114579 122 118 91
-33.487156 -5.5289207 -3.829716 115 111 82
-33.273937 -5.5107293 -3.8350198 101 102 72
-33.105709 -5.4904208 -3.8613894 94 100 67
-32.887424 -5.5063763 -3.8681648 90 99 62
-32.678738 -5.5054116 -3.8970571 87 99 59
-32.530506 -5.4881473 -3.8657649 92 102 63
-32.328793 -5.490561 -3.8724775 80 89 54
-32.108616 -5.5038166 -3.8688993 80 92 56
-31.964092 -5.4772139 -3.8574083 77 90 57
-30.303713 -5.5755014 -3.8217454 80 84 54
-30.107199 -5.4885702 -3.8976834 82 88 59
-29.90731 -5.4525704 -3.8841064 83 92 60
-29.692148 -5.4774346 -3.8823628 87 89 63
-29.543673 -5.5605369 -3.9093359 78 84 56
-33.529655 -5.2945495 -3.8185997 116 112 86
-33.305019 -5.3147278 -3.834259 109 109 79
-33.073399 -5.2932129 -3.8546593 101 105 71
-32.896633 -5.3005285 -3.8715241 100 106 68
-32.691757 -5.3064771 -3.8641844 100 106 70
-32.495365 -5.2969842 -3.8827341 92 99 65
-32.288567 -5.3005772 -3.8546379 84 93 56
-32.118942 -5.2768216 -3.8541598 89 99 60
-31.910992 -5.3003354 -3.8608313 94 101 65
-31.772867 -5.2575049 -3.8267777 103 109 70
-30.610596 -5.2530489 -3.8185818 68 73 43
-30.512478 -5.2059298 -3.8850517 83 85 59
-30.306999 -5.3165951 -3.865186 91 95 67
-30.066906 -5.288497 -3.902343 86 93 61
-29.872131 -5.2778478 -3.8686306 81 91 58
-29.711948 -5.3321419 -3.8110924 68 77 42
-33.802711 -5.1698947 -3.8011179 125 126 99
-33.457878 -5.0634131 -3.8143737 104 106 78
-33.316505 -5.0827875 -3.8241665 108 109 78
-33.125359 -5.1194148 -3.8486865 109 111 79
-32.884628 -5.0777974 -3.8771286 116 119 81
-32.713943 -5.0874982 -3.8554678 116 118 81
-32.500771 -5.1052966 -3.8510513 102 107 70
-32.26683 -5.1221871 -3.852777 95 104 65
-32.083336 -5.0620079 -3.8485196 90 99 61
-31.933943 -5.1008282 -3.8765285 93 100 63
-31.703882 -5.1143389 -3.87571 97 103 66
-31.514299 -5.0723338 -3.8604424 101 107 71
-31.346581 -5.0505538 -3.8757138 97 104 63
-31.018391 -5.0130959 -3.8328795 92 91 60
-30.611099 -5.069736 -3.8048997 74 71 47
-30.4548 -5.1744785 -3.907371 74 76 50
-30.272121 -5.0882616 -3.8941243 71 79 48
-30.112072 -5.1102276 -3.8845909 79 85 54
-29.967428 -5.1131749 -3.8996093 85 94 62
-29.705633 -5.1742949 -3.9264166 75 86 52
-33.486107 -4.8718338 -3.8080595 116 117 93
-33.298534 -4.9522095 -3.8365622 112 113 87
-33.115536 -4.9012933 -3.8066635 132 128 104
-32.863304 -4.8933625 -3.8482959 119 120 87
-32.692955 -4.8871408 -3.868077 111 113 79
-32.500584 -4.8698521 -3.8608189 108 114 73
-32.306396 -4.9001231 -3.871887 104 112 72
-32.106407 -4.9062662 -3.8787408 95 105 65
-31.895864 -4.8953152 -3.8830867 98 107 66
-31.702621 -4.8776064 -3.862711 104 111 71
-31.474665 -4.8730149 -3.8378799 106 111 73
-31.327896 -4.9010611 -3.870959 110 115 75
-31.118946 -4.806756 -3.8792491 111 118 71
-30.839165 -4.8758593 -3.8650119 96 96 65
-30.668215 -4.9129982 -3.8337231 74 75 47
-30.482405 -4.9214392 -3.8179617 65 71 39
-30.292953 -4.8692884 -3.9268584 74 75 41
-30.117376 -4.9324536 -3.8415837 68 75 44
-33.510628 -4.7654052 -3.8144324 119 118 97
-33.09145 -4.6961665 -3.8288586 115 115 85
-32.886684 -4.6784205 -3.8495455 117 120 84
-32.676613 -4.7091479 -3.8625703 113 113 82
-32.493481 -4.7076344 -3.877106 110 113 77
-32.305496 -4.7136326 -3.8680046 102 109 72
-32.080036 -4.6874404 -3.8848062 94 107 66
-31.893875 -4.7119141 -3.8899555 93 104 65
-31.721672 -4.679245 -3.85586 102 111 69
-31.530964 -4.6619549 -3.8493538 108 117 76
-31.304192 -4.700995 -3.890687 109 115 72
-31.12505 -4.7063141 -3.9764926 113 119 78
-30.505255 -4.7137694 -3.8881075 68 72 41
-30.273552 -4.6959987 -3.9254916 72 75 45
-32.865894 -4.5269351 -3.8346622 112 114 85
-32.69862 -4.5111127 -3.8587117 106 108 81
-32.499828 -4.5138526 -3.8756979 110 111 81
-32.283321 -4.5237007 -3.8906198 95 104 69
-32.109463 -4.4761949 -3.8867867 91 103 63
-31.917278 -4.5036054 -3.891118 98 110 68
-31.715204 -4.4967742 -3.8637497 108 119 73
-31.531824 -4.4901862 -3.8494852 103 112 70
-31.344477 -4.5283203 -3.8621738 101 110 66
-31.095827 -4.5224981 -3.8624983 106 109 70
-30.676739 -4.4072809 -3.8282471 74 84 49
-30.509018 -4.4650016 -3.8679059 73 78 46
-30.310808 -4.5867615 -3.9087706 71 78 47
-32.777653 -4.3815494 -3.8316379 98 105 73
-32.545654 -4.3423657 -3.8536441 114 113 84
-32.279949 -4.314611 -3.8339169 100 105 70
-32.091846 -4.3281207 -3.8678119 100 109 70
-31.888681 -4.309628 -3.8844097 102 113 68
-31.669508 -4.2808952 -3.8741837 106 117 71
-31.50474 -4.360086 -3.8512008 104 112 70
-31.311279 -4.2955637 -3.8941414 104 112 66
-31.100948 -4.2846799 -3.8989406 96 108 66
-30.908035 -4.2278366 -3.9066436 94 108 68
-30.557821 -4.2963877 -3.9412618 70 82 44
-32.522095 -4.0591497 -3.8638988 130 129 92
-32.094334 -4.0923843 -3.8681793 96 101 65
-31.902765 -4.1290503 -3.8856099 108 117 73
-31.740076 -4.0875845 -3.8290906 104 111 68
-31.51042 -4.122273 -3.8499603 99 110 69
-31.287743 -4.1149564 -3.8768988 100 112 65
-31.179132 -4.1363363 -3.9467235 106 118 70
-30.969854 -4.1004033 -3.9259403 88 102 61
-30.783875 -4.132266 -3.9259453 96 110 66
-32.518612 -3.9035766 -3.8073614 114 118 78
-31.90855 -3.9344587 -3.8553479 112 118 72
-31.7092 -3.8754075 -3.8323193 113 121 73
-31.517883 -3.8162529 -3.8506916 109 120 74
-31.391203 -3.9623466 -3.8145199 111 120 76
-31.116121 -3.9013755 -3.9148684 91 105 58
-30.875618 -3.978946 -3.9739921 99 111 68
-31.906134 -3.6598155 -3.851506 119 127 78
-31.704744 -3.6514735 -3.8747525 110 120 71
-31.469482 -3.7235107 -3.9540577 94 105 58
-31.311098 -3.7180724 -3.8561859 100 113 66
-31.826006 -3.5600798 -3.8580933 111 121 73
-31.550224 -3.5438766 -3.8957591 115 124 77
-32.010284 -3.3869681 -3.814899 105 124 72
-41.308266 -16.452127 -3.732935 78 97 31
-41.466965 -16.345669 -3.7633371 87 101 36
-41.295719 -16.311132 -3.6955111 74 91 27
-40.684593 -16.231039 -3.6105075 97 120 52
-41.666801 -16.06473 -3.7185967 81 100 40
-41.457443 -16.077543 -3.6374321 84 100 37
-41.281944 -16.128855 -3.623179 78 95 31
-40.096573 -16.161512 -3.6441603 91 108 48
-39.984509 -16.104298 -3.7011063 70 88 30
-41.771873 -15.915186 -3.7062187 84 98 39
-41.520851 -15.923391 -3.6090121 95 113 51
-41.302505 -15.909051 -3.6109121 76 97 27
-40.103119 -15.948394 -3.6374903 75 89 31
-39.92469 -15.879787 -3.63834 80 94 40
-39.783035 -15.800033 -3.6190901 82 94 44
-42.043598 -15.617371 -3.6849053 75 95 44
-41.594013 -15.67595 -3.6216097 98 113 50
-39.975449 -15.726743 -3.6207008 93 110 56
-40.001698 -15.500006 -3.6260357 96 112 53
-39.909103 -15.53639 -3.6823847 88 102 46
-39.586567 -15.424321 -3.6454167 105 109 59
-39.823856 -15.384452 -3.6286452 74 91 36
-39.579353 -15.38544 -3.6030805 111 116 66
-42.547932 -15.04473 -3.6631269 83 98 41
-42.34306 -15.091067 -3.7025633 55 75 12
-42.461945 -14.827045 -3.6500537 79 98 33
-40.203671 -14.925781 -3.6803777 79 97 35
-40.158817 -14.904317 -3.6999288 101 115 53
-39.906593 -14.884098 -3.6464419 112 126 73
-38.86763 -14.90921 -3.6562021 82 98 48
-42.78006 -14.660441 -3.7267728 65 84 29
-42.532227 -14.634785 -3.7208209 75 94 36
-40.471577 -14.612288 -3.6424079 98 112 50
-38.837646 -14.71431 -3.6589913 91 100 50
-38.721359 -14.788336 -3.6611652 66 75 30
-42.909019 -14.5249 -3.6037874 94 109 51
-42.663509 -14.489379 -3.7005916 104 125 65
-42.475071 -14.54573 -3.6473012 81 98 38
-41.896294 -14.401258 -3.6132088 77 97 34
-38.850029 -14.547756 -3.6203356 87 98 45
-38.739979 -14.572296 -3.763618 84 93 41
-42.913517 -14.244823 -3.6284647 99 112 56
-42.568554 -14.399878 -3.6515589 76 97 35
-41.984035 -14.397133 -3.6400988 89 113 50
-39.60231 -14.366539 -3.6107838 107 116 59
-38.663998 -14.256472 -3.7385426 110 114 63
-42.837791 -14.175484 -3.6191359 110 124 61
-38.199341 -14.198339 -3.6551282 103 113 63
-43.401421 -13.931952 -3.6500275 101 116 59
-38.544487 -13.876822 -3.6797206 134 145 96
-41.198978 -13.630478 -3.6966751 130 127 134
-40.921799 -13.705091 -3.6321602 75 86 48
-41.284344 -13.485005 -3.6554935 136 137 142
-40.393742 -13.557216 -3.7710452 75 84 37
-38.353947 -13.426776 -3.614706 74 91 40
-37.982185 -13.527347 -3.6127086 83 103 48
-37.78484 -13.411197 -3.6122007 79 90 42
-40.416046 -13.338276 -3.651814 89 91 67
-40.072762 -13.207671 -3.6091535 72 82 50
-38.440571 -13.25843 -3.6615627 78 94 44
-38.299126 -13.349813 -3.7028651 72 92 41
-38.075066 -13.351707 -3.6330004 71 91 37
-37.952744 -13.262112 -3.6202638 83 96 46
-40.690128 -13.051415 -3.6375735 122 131 130
-40.591824 -13.15828 -3.645081 92 96 87
-40.374863 -13.174301 -3.6057599 98 100 87
-40.107391 -13.10285 -3.7048564 114 110 98
-39.912621 -13.08757 -3.6629002 83 90 64
-39.744579 -13.077282 -3.712703 116 123 107
-39.157898 -13.049603 -3.6923919 74 90 41
-38.472427 -13.10891 -3.6330988 79 93 42
-38.287479 -13.10609 -3.6490364 67 86 35
-38.126926 -13.070488 -3.6610479 65 83 31
-37.875874 -13.18923 -3.6166935 82 97 45
-40.227879 -12.821326 -3.6606016 67 68 70
-40.077019 -12.908977 -3.6995728 103 98 92
-39.897442 -12.882584 -3.7055051 108 105 101
-39.705708 -12.87593 -3.6889081 140 139 129
-39.356598 -12.851248 -3.6096034 106 111 55
-39.130642 -12.972169 -3.6262939 71 88 36
-38.696053 -12.882095 -3.6817002 77 90 37
-38.489258 -12.904718 -3.6801224 83 98 47
-38.280216 -12.917014 -3.6709492 62 82 31
-38.095737 -12.902917 -3.6596696 63 82 30
-37.903946 -12.880483 -3.6762977 62 85 32
-37.723274 -12.85494 -3.6763363 66 89 42
-37.367519 -12.865436 -3.641192 64 75 33
-40.072136 -12.71393 -3.6423001 122 123 122
-39.923222 -12.709731 -3.6897802 119 114 112
-39.706192 -12.673343 -3.6966352 105 104 96
-39.548111 -12.721412 -3.6734746 88 97 77
-39.305199 -12.677464 -3.639972 112 107 71
-39.119743 -12.620531 -3.6354191 107 105 69
-38.899979 -12.737846 -3.6983442 95 104 59
-38.661079 -12.743759 -3.6791375 75 96 48
-38.517651 -12.697243 -3.6926858 87 103 51
-38.290352 -12.717704 -3.7120106 80 98 47
-38.078148 -12.685205 -3.7165806 67 83 36
-37.90556 -12.695095 -3.7339046 53 78 28
-37.732891 -12.720064 -3.6690342 63 85 38
-37.552391 -12.679377 -3.6599076 57 78 33
-40.076508 -12.537607 -3.6002121 142 134 135
-39.856464 -12.468654 -3.6363375 118 110 111
-39.665211 -12.505757 -3.6681051 104 106 103
-39.490471 -12.51498 -3.698489 118 114 105
-39.282013 -12.540724 -3.711123 110 103 79
-39.049461 -12.487155 -3.7278023 109 105 79
-38.9203 -12.526376 -3.6853504 97 104 66
-38.722935 -12.547207 -3.6993744 86 100 55
-38.49276 -12.521438 -3.7125337 97 112 68
-38.318222 -12.488564 -3.7134061 87 101 59
-38.106422 -12.494304 -3.6900783 68 84 42
-37.890396 -12.501801 -3.6844766 57 79 34
-37.685482 -12.513927 -3.6844928 53 74 28
-37.479404 -12.487163 -3.6822269 78 90 48
-37.362816 -12.487126 -3.7090855 71 84 44
-37.19669 -12.457856 -3.6892815 62 83 40
-39.893711 -12.275356 -3.6198781 120 114 115
-39.686172 -12.326481 -3.6348684 142 136 139
-39.529736 -12.234523 -3.692441 167 158 159
-39.309914 -12.241388 -3.7837987 105 94 87
-38.942608 -12.309907 -3.7256224 121 114 92
-38.653542 -12.232273 -3.6337025 188 168 160
-38.511677 -12.291252 -3.6658933 166 151 138
-38.279041 -12.300983 -3.685441 107 109 94
-38.08551 -12.286192 -3.6640728 85 92 68
-37.916492 -12.300248 -3.6870492 68 87 50
-37.676922 -12.288376 -3.6791406 59 81 38
-37.505817 -12.29734 -3.6917691 69 83 42
-37.326065 -12.287889 -3.6706276 63 76 37
-37.166008 -12.323295 -3.7115607 70 76 43
-39.932304 -12.117071 -3.6041479 121 119 121
-39.697483 -12.072955 -3.6272018 101 97 97
-39.438473 -12.107417 -3.699297 123 115 116
-39.118179 -12.104825 -3.6681435 149 134 127
-38.589787 -12.174015 -3.622488 196 177 179
-38.265614 -12.111743 -3.6551864 130 128 120
-38.131187 -12.131048 -3.6324589 108 107 96
-37.91016 -12.119803 -3.6515994 90 100 75
-37.711555 -12.097122 -3.6915636 79 94 62
-37.509834 -12.10295 -3.7129455 70 86 50
-37.312023 -12.091236 -3.660331 68 79 47
-37.113838 -12.152155 -3.6768844 79 85 52
-36.867237 -12.092669 -3.6661961 67 81 46
-36.660973 -12.079779 -3.7289619 67 77 45
-39.682739 -11.868207 -3.629174 130 121 125
-39.487576 -11.9157 -3.6642866 123 116 118
-39.290577 -11.916066 -3.6808636 115 109 108
-38.272461 -11.877817 -3.6383514 149 156 162
-38.087582 -11.941479 -3.7006121 134 133 125
-37.892437 -11.915363 -3.7067435 117 115 105
-37.685246 -11.916698 -3.6538939 88 97 74
-37.514347 -11.90765 -3.7139962 83 94 65
-37.297649 -11.901495 -3.7030442 76 85 57
-37.103962 -11.87626 -3.6932352 68 80 48
-36.906773 -11.905917 -3.651144 68 82 46
-36.780396 -11.84302 -3.7410727 70 81 47
-34.767262 -11.826021 -3.6177773 71 89 46
-39.502037 -11.718659 -3.6416295 101 90 96
-39.353485 -11.744081 -3.6009541 115 109 114
-38.1441 -11.697323 -3.6508813 154 168 183
-37.839268 -11.739537 -3.7229111 126 125 118
-37.634941 -11.724355 -3.6241262 120 119 109
-37.455067 -11.724448 -3.668489 89 99 74
-37.30114 -11.691833 -3.7038014 85 93 70
-37.091366 -11.692685 -3.6935911 72 80 58
-36.933002 -11.723071 -3.6499128 70 80 51
-36.700066 -11.714021 -3.70437 70 81 47
-36.468704 -11.707504 -3.7039406 66 84 44
-36.333351 -11.697781 -3.6869593 82 100 57
-36.142357 -11.655405 -3.6570768 93 109 68
-35.013935 -11.632373 -3.6992893 71 92 41
-34.942848 -11.703148 -3.6429996 67 87 45
-34.698875 -11.710768 -3.672996 69 84 42
-38.030506 -11.53082 -3.6463194 152 169 192
-37.890129 -11.511243 -3.6991072 148 161 174
-37.765556 -11.502677 -3.7384677 150 156 162
-37.513741 -11.479801 -3.6528232 118 117 110
-37.277454 -11.52242 -3.6583743 100 102 84
-37.09404 -11.499119 -3.6721585 95 97 83
-36.926208 -11.475484 -3.6806593 77 83 60
-36.706429 -11.422123 -3.751884 71 80 43
-36.479782 -11.515058 -3.6853778 74 93 48
-36.304447 -11.541552 -3.7408454 78 97 53
-36.057224 -11.509328 -3.7178922 74 89 48
-35.898716 -11.493102 -3.6729288 68 87 46
-35.764771 -11.508714 -3.7504435 74 90 54
-35.052624 -11.48704 -3.6408625 71 96 46
-34.880543 -11.456469 -3.7069485 65 78 37
-34.735134 -11.400215 -3.760911 54 71 33
-34.57291 -11.54574 -3.6983387 67 81 40
-34.334049 -11.499571 -3.7156973 68 81 43
-37.885353 -11.367323 -3.6567881 157 176 199
-37.66888 -11.280655 -3.7207656 152 169 190
-37.41877 -11.269749 -3.7853661 142 148 150
-37.300804 -11.290081 -3.6511364 119 118 111
-37.080471 -11.312078 -3.6754293 112 112 102
-36.917244 -11.292622 -3.667341 96 98 84
-36.733459 -11.308937 -3.6716294 70 79 51
-36.472221 -11.386555 -3.7102611 77 95 46
-36.274372 -11.320079 -3.7477906 84 98 51
-35.965298 -11.252652 -3.6399441 78 95 51
-35.151276 -11.217801 -3.7375405 90 105 62
-34.901863 -11.32102 -3.6899025 74 86 45
-34.686123 -11.294785 -3.7644987 84 96 62
-34.53054 -11.300983 -3.7514157 73 86 51
-34.316372 -11.212144 -3.724195 90 101 62
-34.194355 -11.383324 -3.7244086 83 91 52
-37.669563 -11.124547 -3.6513419 153 175 198
-37.525299 -11.12823 -3.7139924 146 166 189
-37.270073 -11.094862 -3.7427065 141 148 153
-37.089527 -11.144501 -3.6348045 121 118 111
-36.896606 -11.121776 -3.6461694 118 117 109
-36.725086 -11.065672 -3.6598871 93 93 75
-36.402855 -11.019734 -3.7714338 75 86 42
-36.329338 -11.121359 -3.7201529 88 101 55
-36.092403 -11.131333 -3.7286961 81 95 48
-35.93203 -11.114008 -3.7070572 76 91 46
-35.725994 -11.063472 -3.7158997 77 94 51
-35.50573 -11.091407 -3.745429 87 102 59
-35.260025 -11.128114 -3.6881077 86 100 58
-35.119106 -11.073536 -3.6825464 87 103 58
-34.947819 -11.148926 -3.6578286 91 104 58
-34.744282 -11.102843 -3.6720157 79 91 53
-34.517559 -11.088319 -3.7084541 80 90 52
-34.117344 -11.142494 -3.6949198 84 99 54
-33.943268 -11.09643 -3.6967707 91 108 60
-37.472172 -10.938487 -3.6709652 148 172 197
-37.298607 -10.90827 -3.7353911 153 174 197
-37.125435 -10.926106 -3.7115173 141 156 166
-36.95512 -10.892108 -3.7056384 142 145 146
-36.698963 -10.910808 -3.6905999 96 98 75
-36.457897 -10.890214 -3.7415109 79 89 46
-36.290783 -10.923145 -3.6845329 84 98 49
-36.089134 -10.903899 -3.6367455 95 110 58
-35.913483 -10.916629 -3.6799326 88 106 57
-35.753071 -10.957137 -3.6538148 78 105 54
-35.53688 -10.901764 -3.722106 89 96 55
-35.243332 -10.89074 -3.6978588 81 92 51
-35.068218 -10.945864 -3.7524035 89 101 54
-34.923618 -10.916679 -3.6834004 91 102 59
-34.725056 -10.902589 -3.6825325 101 109 69
-34.452576 -10.933585 -3.64538 80 91 51
-34.346252 -10.943578 -3.7462375 82 92 51
-33.834225 -10.901651 -3.7631459 78 90 45
-33.778595 -10.876918 -3.610817 85 99 56
-37.315701 -10.723538 -3.6191492 154 178 205
-37.114189 -10.70284 -3.6530864 160 175 194
-36.865402 -10.712106 -3.7303879 149 143 138
-36.66407 -10.605287 -3.6218054 93 101 64
-36.504627 -10.672938 -3.6637638 99 105 62
-36.293297 -10.782882 -3.6110764 67 84 37
-35.903778 -10.719854 -3.6428494 103 112 70
-35.700287 -10.735157 -3.7011864 90 101 58
-35.526157 -10.684566 -3.7347529 88 95 56
-35.290371 -10.730451 -3.6939924 82 94 51
-35.113613 -10.738692 -3.6717908 82 96 52
-34.923355 -10.690172 -3.6815376 83 95 51
-34.757725 -10.772955 -3.6032588 98 106 64
-34.506615 -10.737844 -3.6862838 95 106 61
-34.329571 -10.703126 -3.693538 87 95 55
-34.0485 -10.646933 -3.766145 77 88 47
-33.816208 -10.652911 -3.7589183 86 99 53
-33.694504 -10.716421 -3.6100011 99 108 61
-33.483265 -10.640872 -3.6632469 101 117 59
-37.026588 -10.484778 -3.6470582 181 171 176
-36.951775 -10.56077 -3.6477234 156 150 150
-36.746414 -10.490972 -3.6565995 82 91 63
-36.532658 -10.480317 -3.6383896 106 109 67
-35.82399 -10.578646 -3.7025673 92 104 61
-35.707058 -10.468919 -3.6876094 97 109 65
-35.560524 -10.413769 -3.6113441 101 114 69
-35.318203 -10.467627 -3.6623666 82 94 53
-35.068455 -10.48225 -3.6962001 84 95 54
-34.915047 -10.486241 -3.7058148 80 92 50
-34.724308 -10.498572 -3.713012 86 98 58
-34.513023 -10.483065 -3.7092206 82 94 53
-34.13805 -10.575977 -3.7769608 86 95 55
-33.938831 -10.472176 -3.7146606 92 104 57
-33.634407 -10.499545 -3.6046934 117 120 69
-37.020584 -10.256086 -3.7157567 134 133 141
-36.856323 -10.270864 -3.6863847 138 140 142
-36.71479 -10.299903 -3.6890247 105 109 101
-36.486351 -10.267756 -3.663084 112 115 84
-36.066849 -10.292461 -3.6629019 130 139 80
-35.857075 -10.303203 -3.7057784 106 115 67
-35.704693 -10.395225 -3.6229305 68 84 39
-35.487217 -10.314086 -3.652765 80 93 51
-35.341827 -10.309444 -3.6467943 77 90 48
-35.055908 -10.294109 -3.6777549 78 91 50
-34.891621 -10.276887 -3.6776292 77 91 51
-34.688675 -10.304952 -3.7478824 75 88 48
-34.488895 -10.280546 -3.6739526 87 100 61
-34.353806 -10.282572 -3.7524393 91 101 63
-34.078407 -10.320047 -3.6997666 93 100 65
-33.871105 -10.285344 -3.7021585 99 106 60
-33.764328 -10.280273 -3.6331151 95 101 51
-33.553143 -10.335866 -3.6722686 133 137 86
-33.219891 -10.303575 -3.6039124 133 141 75
-33.085289 -10.203888 -3.7371058 97 104 57
-37.049503 -10.077152 -3.6728837 152 155 162
-36.906952 -10.105098 -3.7040749 124 125 124
-36.713871 -10.112116 -3.6783361 89 89 77
-36.554195 -10.120981 -3.6294651 74 79 67
-36.287479 -10.076813 -3.6400423 96 98 62
-36.136311 -10.101644 -3.7067835 105 110 67
-35.902641 -10.081372 -3.6755805 107 114 67
-35.696445 -10.078775 -3.6930966 105 115 70
-35.49036 -10.057482 -3.6923244 95 109 64
-35.324989 -10.085915 -3.6815991 88 101 57
-35.191166 -10.169815 -3.7491384 87 102 59
-34.900249 -10.077051 -3.7184744 80 93 53
-34.720821 -10.12292 -3.7520347 72 85 46
-34.506622 -10.118798 -3.6988456 78 89 52
-34.294884 -10.138254 -3.7053976 79 90 53
-34.119102 -10.096801 -3.6887743 84 94 57
-33.866173 -10.106045 -3.7222919 86 97 56
-33.691593 -10.072663 -3.6869004 118 125 76
-33.528851 -10.035242 -3.6877306 122 130 75
-33.223545 -10.119691 -3.6620774 131 133 82
-33.074356 -10.039332 -3.7465861 120 124 79
-37.070522 -9.9418602 -3.6239805 130 136 131
-36.904522 -9.8868713 -3.650285 116 116 110
-36.702358 -9.8883162 -3.6408675 111 105 102
-36.493233 -9.8991776 -3.6935763 104 98 93
-36.297215 -9.9237556 -3.6892202 104 99 83
-36.101002 -9.9036894 -3.6767316 101 101 73
-35.91774 -9.8933725 -3.6582651 106 113 71
-35.69038 -9.899992 -3.700484 107 119 71
-35.489281 -9.9009418 -3.6864238 96 110 62
-35.334305 -9.8737411 -3.6193678 97 112 64
-35.074028 -9.9110069 -3.663456 90 103 60
-34.892986 -9.9342537 -3.7404966 83 98 55
-34.729576 -9.8837566 -3.7366002 75 87 46
-34.507233 -9.9092054 -3.7181449 83 94 57
-34.291077 -9.8567543 -3.7046146 85 96 57
-34.092197 -9.888176 -3.6588082 94 107 66
-33.918076 -9.8613997 -3.7195854 93 107 64
-33.706448 -9.8826685 -3.7278163 96 106 58
-33.493233 -9.8559065 -3.6758113 93 103 51
-33.354733 -9.9438152 -3.6592774 107 117 60
-32.898838 -9.8774757 -3.6705739 111 112 67
-37.478912 -9.611084 -3.6430683 163 173 188
-37.294083 -9.6824532 -3.6518154 136 142 148
-37.090805 -9.7043114 -3.6550941 112 112 107
-36.889904 -9.7133427 -3.6896837 114 110 109
-36.713238 -9.6807146 -3.6839199 116 111 116
-36.519882 -9.6935139 -3.7303798 110 104 108
-36.28878 -9.6838436 -3.7200248 120 113 116
-36.075382 -9.7262268 -3.6870432 113 106 99
-35.894943 -9.7175093 -3.6523445 100 100 78
-35.679367 -9.7086105 -3.6695039 122 131 82
-35.484524 -9.7095652 -3.6897855 106 115 68
-35.311821 -9.7015896 -3.6772122 105 117 70
-35.099865 -9.6596889 -3.6648526 91 103 59
-34.878799 -9.7033005 -3.7023301 81 94 51
-34.692524 -9.7123337 -3.7129455 86 98 57
-34.488628 -9.6876278 -3.7199867 77 87 47
-34.317135 -9.6925592 -3.6887372 80 94 53
-34.097313 -9.6904755 -3.6961486 86 104 61
-33.898621 -9.6940613 -3.7102768 83 95 53
-33.686134 -9.6447306 -3.7433803 76 83 44
-33.497051 -9.6965132 -3.7091472 81 90 42
-33.315945 -9.7088509 -3.6951535 95 103 59
-33.113407 -9.6835127 -3.7307842 96 100 60
-32.848141 -9.6688099 -3.6359181 122 124 77
