ply
format ascii 1.0
comment PCL generated
element vertex 1100
property float x
property float y
property float z
property uchar red
property uchar green
property uchar blue
element face 0
element camera 0
property float view_px
property float view_py
property float view_pz
property float x_axisx
property float x_axisy
property float x_axisz
property float y_axisx
property float y_axisy
property float y_axisz
property float z_axisx
property float z_axisy
property float z_axisz
property float focal
property float scalex
property float scaley
property float centerx
property float centery
property int viewportx
property int viewporty
property float k1
property float k2
end_header
-95.492836 -46.105267 24.9049 123 126 120
-95.290764 -46.086109 24.905188 125 126 122
-95.087021 -46.052803 24.894049 132 133 128
-94.913109 -46.037144 24.911182 124 127 121
-94.699265 -46.066196 24.902817 113 119 115
-94.490173 -46.089081 24.871841 121 124 121
-94.345444 -46.048866 24.883667 151 152 149
-94.086784 -46.151112 24.810331 98 101 118
-93.870041 -46.055237 24.867619 140 138 151
-93.669067 -46.076893 24.865976 108 112 121
-90.472725 -46.13332 24.950754 136 139 141
-90.290237 -46.173847 24.910404 111 114 118
-90.081726 -46.132252 24.907509 96 100 110
-89.879494 -46.106339 24.886419 85 89 98
-89.698837 -46.143082 24.875776 102 106 111
-89.475327 -46.077751 24.869478 94 97 103
-89.317764 -46.169193 24.914076 73 72 79
-89.167542 -46.152889 24.865063 65 68 72
-88.807838 -46.054192 24.875317 107 105 110
-88.646042 -46.12838 24.896023 96 104 104
-101.90516 -45.973869 24.808033 177 159 157
-100.12522 -45.876251 24.88324 76 86 75
-99.911491 -45.976917 24.947062 83 95 85
-99.694427 -45.90641 24.904053 113 120 112
-99.49971 -45.918617 24.907032 97 101 95
-99.312752 -45.901096 24.896181 96 101 97
-99.11734 -45.899166 24.928478 109 112 108
-98.845901 -45.871155 24.917404 88 95 91
-98.726364 -45.944996 24.911232 74 84 77
-97.298996 -45.927483 24.865538 91 94 90
-97.084877 -45.936565 24.914278 90 104 91
-96.892654 -45.937904 24.921085 126 129 123
-96.618912 -45.9212 24.996597 76 86 77
-96.552948 -45.817944 24.878082 73 83 75
-96.208542 -45.928879 24.822729 124 134 121
-96.068611 -45.945267 24.87158 99 107 97
-95.910576 -45.905102 24.912334 109 116 107
-95.701118 -45.932446 24.918705 97 101 96
-95.494499 -45.923477 24.957695 110 111 107
-95.304047 -45.969429 24.915724 122 127 122
-95.107498 -45.961609 24.902596 122 127 116
-94.878067 -45.950626 24.920582 117 121 115
-94.692245 -45.919571 24.917673 116 119 114
-94.518089 -45.939789 24.898867 130 134 130
-94.288574 -45.914986 24.882952 137 139 135
-94.17659 -45.981731 24.918293 151 160 159
-93.917366 -45.850365 24.827305 123 128 137
-93.759178 -45.924572 24.827534 145 152 158
-93.540405 -45.948505 24.881357 115 124 130
-93.242897 -45.826645 24.917816 56 54 67
-90.054077 -45.870609 24.853428 104 105 117
-89.897552 -45.905506 24.848253 115 117 131
-89.668785 -45.913933 24.904409 108 113 118
-89.514679 -45.926418 24.896156 96 99 106
-89.051216 -45.80196 24.919422 113 118 122
-100.68924 -45.674446 24.928425 110 105 103
-100.0752 -45.650013 24.941719 101 104 97
-99.85482 -45.665619 24.887344 86 94 87
-99.683571 -45.685562 24.927881 101 108 103
-99.496796 -45.71941 24.957573 103 111 105
-99.32 -45.752781 24.877377 94 100 94
-99.118248 -45.694057 24.915236 102 111 106
-98.915649 -45.731251 24.892874 95 104 97
-98.695602 -45.695843 24.885569 103 106 107
-98.415184 -45.629383 24.810249 128 133 127
-97.627792 -45.649193 24.88485 59 65 64
-97.489349 -45.733604 24.907589 102 104 106
-97.287766 -45.693985 24.905504 60 68 64
-96.604965 -45.72393 24.818497 72 84 78
-95.886993 -45.703205 24.904778 108 118 108
-95.67971 -45.703781 24.913818 109 114 107
-95.541954 -45.685795 24.970945 92 94 84
-95.322548 -45.669834 24.923576 123 115 127
-95.117027 -45.666229 24.937878 122 107 114
-94.861031 -45.731655 24.947653 103 109 104
-94.761536 -45.734467 24.925915 94 101 94
-94.134705 -45.718094 24.96804 160 169 174
-93.525833 -45.692486 24.968729 115 118 123
-90.427307 -45.63855 24.899084 123 122 134
-90.307755 -45.660282 24.859966 124 123 134
-90.074913 -45.687458 24.849258 104 108 117
-89.911827 -45.694981 24.815481 110 110 123
-89.608299 -45.793808 24.803215 105 113 116
-89.516556 -45.712067 24.937067 94 95 102
-89.302017 -45.774055 24.81929 126 129 132
-89.127724 -45.703918 24.876329 68 67 83
-102.15606 -45.486809 24.972157 50 66 53
-101.035 -45.545544 24.844236 110 112 101
-100.8606 -45.521683 24.93487 108 108 100
-100.10043 -45.512356 24.888208 119 124 116
-99.908401 -45.508476 24.871134 110 118 110
-99.7248 -45.528645 24.91674 102 108 103
-99.476456 -45.438061 24.892349 91 96 90
-99.321136 -45.521461 24.899399 92 98 93
-99.124397 -45.476692 24.87771 93 99 92
-98.901917 -45.487591 24.921082 123 128 128
-98.681084 -45.49596 24.89406 117 119 119
-98.542328 -45.472294 24.875256 77 82 85
-97.665085 -45.545563 24.894653 84 89 87
-97.449402 -45.486511 24.949657 78 84 80
-97.327782 -45.512321 24.935097 72 78 74
-96.890381 -45.516663 24.888885 77 85 83
-95.692497 -45.586308 24.860331 104 113 102
-95.303871 -45.493973 24.952484 108 111 108
-94.597038 -45.406853 24.823925 116 124 134
-94.139191 -45.5653 24.927273 53 60 53
-90.439529 -45.523594 24.926001 118 123 127
-90.325096 -45.510612 24.881592 125 127 126
-90.114296 -45.505733 24.894838 119 120 125
-89.918732 -45.478439 24.867979 102 107 109
-89.696251 -45.491852 24.855326 87 91 99
-89.326332 -45.403259 24.925812 133 143 145
-101.42018 -45.325962 24.951124 182 171 167
-100.56718 -45.365673 24.889122 114 114 114
-100.28416 -45.244415 24.86981 101 110 98
-100.06418 -45.276573 24.924751 87 95 84
-99.929901 -45.300835 24.923149 114 118 111
-99.637329 -45.256702 24.877466 111 119 115
-99.484077 -45.307308 24.890118 114 117 110
-99.33226 -45.256512 24.879482 121 124 118
-99.102875 -45.274311 24.880213 116 119 116
-98.89183 -45.324364 24.919167 103 107 104
-98.673256 -45.312923 24.903292 95 100 100
-98.572212 -45.256512 24.92597 123 124 126
-97.202141 -45.228378 24.963583 86 99 89
-97.109016 -45.287849 24.900646 75 88 78
-96.948112 -45.337032 24.874533 73 85 76
-95.467896 -45.37286 24.950548 143 136 145
-94.675537 -45.264526 24.897915 123 133 146
-94.570595 -45.342926 24.930115 103 109 119
-90.274124 -45.310032 24.912918 109 116 114
-90.121826 -45.307312 24.863871 118 126 124
-89.97007 -45.316761 24.956434 119 123 119
-100.48346 -45.066559 24.898569 109 115 105
-100.30299 -45.108036 24.870665 94 104 92
-100.09716 -45.148857 24.889225 69 79 69
-99.928345 -45.125175 24.882938 92 94 88
-99.687927 -45.069511 24.88176 122 124 116
-99.512283 -45.091465 24.881157 115 119 109
-99.346252 -45.084663 24.884563 105 113 107
-99.119568 -45.055099 24.890938 108 115 107
-98.874832 -45.097282 24.937057 97 103 99
-98.698891 -45.086548 24.868305 112 115 113
-98.568016 -45.085499 24.907806 143 141 143
-98.328773 -45.13522 24.869896 59 71 71
-97.146484 -45.155308 24.977539 75 91 82
-96.944328 -45.138786 24.875584 101 118 111
-96.31662 -45.086216 24.909592 128 122 132
-96.110008 -45.035358 24.918268 95 95 96
-95.976883 -45.020668 24.991932 65 70 68
-95.377998 -45.19643 24.992321 81 82 76
-94.760582 -45.152763 24.885071 163 165 160
-90.285904 -45.105209 24.888737 86 92 96
-90.163513 -45.087746 24.883057 85 87 94
-89.874039 -45.093079 24.872137 124 123 122
-101.71473 -44.935589 24.953846 192 186 186
-100.45493 -44.865906 24.926304 96 100 91
-100.24807 -44.914875 24.901079 131 134 124
-100.08186 -44.897633 24.873373 96 97 89
-99.89135 -44.887794 24.891523 119 118 111
-99.686089 -44.89204 24.908098 138 136 127
-99.49514 -44.899715 24.905987 125 127 118
-99.353767 -44.882118 24.905087 128 131 122
-99.133133 -44.97303 24.938221 113 116 110
-98.89576 -44.89888 24.850681 112 118 113
-98.710449 -44.944672 24.904528 142 145 142
-98.50087 -44.922028 24.949131 84 94 94
-96.226791 -44.885616 24.903641 105 100 106
-96.107971 -44.887794 24.961205 94 89 93
-95.963562 -44.874199 24.914715 71 73 75
-95.60363 -44.800976 24.92762 118 120 130
-95.450287 -44.83345 24.972149 48 57 62
-95.107941 -44.870003 24.9599 97 98 103
-94.816132 -44.938652 24.810232 98 107 106
-94.761528 -44.903446 24.947464 107 116 115
-91.991081 -44.888069 24.855408 37 52 47
-90.644966 -44.939732 24.834555 99 106 116
-90.400169 -44.819599 24.870026 90 104 104
-90.308868 -44.974545 24.865051 107 113 120
-90.045578 -44.978928 24.883099 98 100 96
-89.991188 -44.857052 24.813269 136 131 128
-101.51849 -44.718483 24.916494 131 128 130
-101.2634 -44.64045 24.950491 61 55 55
-100.65106 -44.756073 24.836477 59 56 47
-100.27921 -44.710308 24.838055 73 79 71
-100.06567 -44.72216 24.875013 111 113 106
-99.881599 -44.691093 24.898142 138 136 127
-99.722595 -44.720875 24.914244 145 141 132
-99.498016 -44.712708 24.902761 138 136 128
-99.342598 -44.7005 24.916775 143 140 135
-99.05764 -44.641907 24.889389 119 121 112
-98.877441 -44.759949 24.840603 132 140 136
-98.792717 -44.784439 24.87554 82 87 90
-98.379532 -44.68914 24.918808 83 90 80
-97.844788 -44.720276 24.854797 105 114 113
-97.675507 -44.639679 24.890888 127 125 130
-96.407257 -44.75082 24.964664 120 118 131
-96.342995 -44.708176 24.893227 104 104 106
-96.064346 -44.785831 24.8545 99 101 100
-95.67234 -44.700703 24.968878 111 116 123
-95.300781 -44.612198 24.845898 104 110 106
-95.170982 -44.738197 24.842484 130 133 140
-94.756393 -44.797359 24.862259 90 96 92
-90.666328 -44.667091 24.903059 76 75 76
-90.550774 -44.723106 24.878307 79 79 83
-90.350647 -44.751163 24.806992 51 52 54
-101.16068 -44.402885 24.991947 90 91 86
-100.25219 -44.479832 24.835501 84 88 79
-100.09224 -44.480343 24.904737 102 102 93
-99.892769 -44.485893 24.92539 149 143 135
-99.715073 -44.521465 24.950809 163 158 151
-99.486542 -44.508938 24.909117 155 149 143
-99.316551 -44.49535 24.91272 148 143 138
-99.139282 -44.477791 24.920347 132 134 129
-98.893829 -44.489941 24.876554 143 146 147
-98.488342 -44.432163 24.920437 132 133 131
-98.064003 -44.42585 24.847761 97 107 108
-97.879684 -44.458202 24.898281 113 118 116
-97.712471 -44.473003 24.933058 129 133 133
-97.481247 -44.451237 24.909304 133 140 146
-97.38253 -44.425369 24.981974 126 135 139
-97.186905 -44.478737 24.870945 68 74 72
-96.836159 -44.455204 24.986406 103 103 105
-96.701797 -44.491867 24.8678 108 106 110
-96.504539 -44.443604 24.876419 102 100 102
-96.394531 -44.430607 24.952269 113 110 109
-95.768967 -44.416962 24.950338 66 66 76
-90.692093 -44.516788 24.919231 121 124 114
-90.501701 -44.586029 24.9571 150 139 130
-90.353615 -44.516369 24.830963 163 162 145
-101.19276 -44.260803 24.933292 94 96 95
-100.61071 -44.258022 24.929102 46 58 48
-100.43311 -44.3936 24.821102 62 63 54
-100.25784 -44.325153 24.862703 77 81 70
-100.08784 -44.317181 24.896597 129 125 117
-99.893753 -44.289661 24.908934 168 157 148
-99.711487 -44.294838 24.922035 159 148 142
-99.497902 -44.313416 24.902525 132 127 123
-99.313805 -44.299397 24.880093 133 132 128
-99.185165 -44.295891 24.900896 119 117 109
-98.974014 -44.212128 24.923449 144 147 142
-98.700073 -44.282207 24.853956 144 143 136
-98.505775 -44.287849 24.91493 155 154 149
-98.050163 -44.349449 24.808689 99 101 100
-97.880241 -44.30191 24.867043 109 115 114
-97.706749 -44.297657 24.883642 131 134 136
-97.506645 -44.271446 24.897993 130 135 136
-97.293098 -44.298874 24.885187 122 127 123
-97.102005 -44.287384 24.874805 114 117 114
-96.887215 -44.278736 24.890358 111 116 115
-96.701385 -44.276775 24.890087 94 96 95
-96.502464 -44.30217 24.917349 119 116 117
-96.316856 -44.249329 24.866804 120 117 118
-96.13797 -44.227409 24.906101 110 115 115
-95.609619 -44.213951 24.946899 133 138 135
-95.461548 -44.256214 24.971031 125 128 125
-90.962402 -44.265461 24.875614 86 89 86
-90.703918 -44.351517 24.904947 170 171 168
-101.27995 -44.185688 24.897411 110 118 120
-100.23162 -44.101582 24.851471 94 100 91
-100.07697 -44.095131 24.890097 130 128 121
-99.876633 -44.110119 24.891169 174 163 156
-99.731522 -44.11245 24.911396 170 158 151
-99.493866 -44.099262 24.9151 181 169 163
-99.339813 -44.135494 24.867249 154 151 147
-99.067299 -44.135147 24.877623 128 130 122
-98.932976 -44.10088 24.884611 138 138 129
-98.482292 -44.066662 24.874353 88 94 89
-98.125565 -44.11179 24.913322 187 183 174
-97.854538 -44.145149 24.852516 117 119 121
-97.686264 -44.117485 24.899473 151 153 155
-97.491302 -44.094154 24.884449 137 137 140
-97.306015 -44.065689 24.89398 138 137 140
-97.065453 -44.08849 24.871647 129 131 132
-96.916901 -44.084999 24.880463 127 129 127
-96.736076 -44.105026 24.90271 123 121 123
-96.478905 -44.089214 24.890905 131 128 128
-96.331528 -44.105888 24.85869 120 119 120
-96.087402 -44.097321 24.881712 112 114 113
-95.928177 -44.066811 24.888634 119 120 123
-95.7295 -44.082264 24.90737 157 155 157
-95.576401 -44.060673 24.899315 155 156 149
-91.07058 -44.09531 24.850973 112 118 113
-90.869225 -44.176281 24.852818 178 170 150
-90.751122 -44.19294 24.866354 115 121 109
-100.24667 -43.911762 24.848488 81 82 75
-100.1009 -43.900955 24.88925 126 124 120
-99.908279 -43.907715 24.892866 158 149 147
-99.716591 -43.931278 24.885443 163 155 152
-99.528221 -43.898655 24.884754 181 172 167
-99.391747 -43.885525 24.873798 161 152 147
-97.86998 -43.880085 24.842829 80 83 82
-97.656944 -43.887112 24.889132 144 144 143
-97.462341 -43.897961 24.884102 143 142 143
-97.306 -43.897629 24.886877 138 140 142
-97.095505 -43.88002 24.91564 155 154 159
-96.942688 -43.895489 24.934065 159 154 154
-96.732872 -43.855473 24.890779 122 119 121
-96.458122 -43.875626 24.91687 153 150 150
-96.31826 -43.876572 24.893551 155 155 155
-96.100838 -43.885612 24.902361 138 142 141
-95.893013 -43.881924 24.909979 145 143 144
-95.762054 -43.911465 24.886984 170 167 169
-91.087463 -43.836891 24.935127 115 127 118
-100.25095 -43.710201 24.856161 50 55 46
-100.09103 -43.711285 24.85025 92 94 87
-99.929138 -43.735798 24.858082 124 125 121
-99.700554 -43.731087 24.852518 122 123 121
-99.497536 -43.776062 24.854483 133 132 125
-99.25029 -43.781666 24.802961 147 140 135
-97.949699 -43.706963 24.83057 139 141 147
-97.721832 -43.735928 24.879448 106 111 106
-97.480453 -43.713936 24.860399 123 125 126
-97.255859 -43.707642 24.86183 147 145 147
-97.109299 -43.711998 24.897829 155 153 157
-96.922447 -43.699863 24.903135 157 153 152
-96.680832 -43.691071 24.916964 151 150 153
-96.509407 -43.707874 24.882421 140 138 138
-96.303757 -43.718128 24.886646 139 139 139
-96.107048 -43.720097 24.864529 122 122 117
-95.917229 -43.717163 24.88866 123 125 118
-95.748558 -43.714417 24.888624 106 114 104
-91.344246 -43.630234 24.887369 129 129 123
-91.021889 -43.636082 24.945492 109 116 109
-100.02928 -43.577862 24.850552 65 63 60
-99.995178 -43.573883 24.854584 52 63 54
-99.27578 -43.549469 24.826416 152 146 143
-97.236816 -43.504704 24.852005 85 90 85
-97.105019 -43.516953 24.889492 128 127 127
-96.891777 -43.491531 24.905476 125 126 123
-96.702927 -43.52607 24.901365 118 118 117
-96.536911 -43.532261 24.925909 116 119 116
-96.38755 -43.503021 24.844252 66 70 69
-96.078613 -43.589516 24.836214 83 88 86
-95.899986 -43.562195 24.857632 31 43 34
-91.516136 -43.489902 24.960157 113 119 116
-91.350723 -43.489697 24.907951 125 130 126
-99.446854 -43.235847 24.860142 47 54 46
-99.362625 -43.304924 24.857857 60 65 56
-97.131935 -43.326271 24.894791 86 94 86
-96.895889 -43.354527 24.898706 118 120 117
-96.710831 -43.332176 24.836267 64 72 62
-96.592628 -43.290771 24.856411 40 47 39
-91.737358 -43.22295 24.952816 136 145 139
-91.594597 -43.394814 24.967911 120 129 121
-99.519669 -43.113419 24.813774 53 52 48
-91.697586 -43.102516 24.964821 108 123 116
-99.747742 -41.727093 24.805651 110 107 102
-100.21764 -41.516266 24.824816 117 119 116
-100.69001 -41.228504 24.859592 127 121 123
-100.50655 -41.26263 24.894884 128 130 120
-100.28553 -41.251549 24.900379 161 152 152
-100.16289 -41.254662 24.89716 157 149 144
-99.904343 -41.32341 24.905643 141 140 135
-99.769913 -41.282017 24.838392 115 121 117
-100.67036 -41.07058 24.879904 124 119 118
-100.50674 -41.064346 24.885454 145 138 135
-100.31674 -41.107143 24.899767 146 140 136
-100.09381 -41.116833 24.892628 139 135 130
-99.948753 -41.053272 24.904257 128 127 121
-100.85373 -40.896381 24.830038 95 95 95
-100.70202 -40.934883 24.87752 138 130 133
-100.49849 -40.919781 24.938618 164 153 152
-100.24197 -40.883614 24.906731 140 140 137
-100.09992 -40.894382 24.938437 134 134 131
-99.902222 -40.874638 24.90292 135 134 128
-99.753181 -40.930439 24.99115 158 153 150
-99.469131 -40.863625 24.887041 133 131 130
-99.389137 -40.866325 24.880281 161 157 154
-98.475395 -40.83955 24.924572 179 169 169
-98.384155 -40.828468 24.990337 184 180 173
-96.145348 -40.820599 24.829361 164 160 141
-100.60348 -40.768581 24.938059 48 58 47
-100.26133 -40.736015 24.891123 158 154 157
-100.05389 -40.707184 24.889013 136 133 131
-99.901443 -40.707722 24.912083 120 118 114
-99.748322 -40.728115 24.930054 86 93 83
-99.472679 -40.722927 24.870123 123 123 120
-99.350098 -40.724838 24.88402 134 132 130
-98.701439 -40.677261 24.927401 164 152 151
-98.499733 -40.735558 24.93404 165 157 153
-98.365845 -40.705746 24.929192 159 155 149
-96.222115 -40.693806 24.871536 171 167 150
-96.106171 -40.720314 24.865719 160 157 141
-95.925194 -40.691307 24.892096 182 173 156
-95.682518 -40.646366 24.883894 133 137 121
-95.562645 -40.749401 24.933882 98 107 89
-95.30864 -40.615837 24.918022 123 129 110
-95.15184 -40.650993 24.881096 190 183 166
-100.97203 -40.586765 24.856224 206 194 208
-100.707 -40.521091 24.838238 90 96 86
-100.10684 -40.526978 24.850349 136 133 130
-99.994835 -40.424812 24.9573 175 172 165
-99.439133 -40.494343 24.862326 118 125 117
-99.331223 -40.542389 24.832935 115 116 112
-98.867584 -40.472904 24.877392 151 142 140
-98.707031 -40.516495 24.908541 141 131 129
-98.520866 -40.492935 24.902407 113 109 106
-98.366982 -40.567856 24.883848 113 114 108
-98.080284 -40.555683 24.835363 164 164 152
-96.958839 -40.480614 24.829729 172 167 148
-96.285072 -40.49107 24.889292 204 193 178
-96.156433 -40.572372 24.876678 162 157 145
-95.841125 -40.503197 24.945726 116 115 102
-95.678398 -40.52409 24.877577 137 140 122
-95.540413 -40.473965 24.918148 167 164 142
-95.208031 -40.535667 24.909584 108 108 92
-95.13205 -40.512295 24.89246 156 157 141
-94.917435 -40.449158 24.956282 192 182 164
-100.95302 -40.277348 24.934105 82 83 84
-100.75128 -40.234901 24.866163 43 41 42
-100.215 -40.33176 24.858116 126 127 121
-100.11135 -40.318592 24.916048 127 126 121
-99.875221 -40.247829 24.942595 135 133 132
-99.738754 -40.244202 24.973377 169 166 173
-99.402092 -40.356426 24.851692 107 117 106
-98.877121 -40.333164 24.836637 117 117 112
-98.685745 -40.349953 24.838377 112 110 106
-98.564041 -40.379471 24.864025 93 92 84
-98.37764 -40.327862 24.922623 83 88 79
-98.114059 -40.389172 24.808163 150 153 146
-96.905113 -40.263451 24.910273 171 167 155
-96.70919 -40.321033 24.910999 186 174 159
-96.49913 -40.30447 24.905792 128 132 115
-96.390274 -40.368801 24.870129 102 105 88
-95.942947 -40.39011 24.910528 133 133 116
-95.727936 -40.324757 24.991735 81 88 70
-95.455574 -40.37122 24.978401 195 192 175
-95.320618 -40.311409 24.881294 154 153 136
-95.125237 -40.306503 24.877882 118 124 106
-101.02951 -40.127911 24.80131 112 114 113
-100.2048 -40.084263 24.806267 146 146 148
-100.12025 -40.166847 24.833544 116 117 113
-99.8908 -40.11496 24.89316 130 127 126
-99.757645 -40.083717 24.935007 134 135 134
-99.0383 -40.050579 24.88763 125 124 120
-97.01944 -40.036652 24.900215 180 175 166
-96.956764 -40.117916 24.896563 169 164 152
-96.620178 -40.03437 24.980526 88 94 80
-95.753288 -40.175785 24.919006 132 129 120
-95.083893 -40.056866 24.931133 100 109 95
-100.54451 -39.87104 24.927963 85 86 82
-99.837402 -39.888428 24.88073 124 123 121
-99.72596 -39.934612 24.967175 114 115 112
-99.227211 -39.879456 24.857813 141 144 139
-99.082214 -39.894501 24.883053 135 131 127
-98.902328 -39.826965 24.945322 100 101 96
-98.55735 -39.819927 24.936459 121 124 116
-98.264069 -39.829178 24.951319 139 135 128
-98.171257 -39.85709 24.941971 126 119 112
-97.050018 -39.931805 24.932936 149 149 141
-96.106232 -39.960876 24.992126 110 116 100
-95.978806 -39.87067 24.985306 195 186 171
-100.67908 -39.630013 24.902994 116 111 105
-100.50211 -39.675919 24.896902 95 96 93
-100.33504 -39.702396 24.967516 118 119 115
-100.05994 -39.67799 24.865923 182 170 174
-99.847496 -39.714069 24.86908 132 132 134
-99.740051 -39.666145 24.888491 116 118 115
-99.251778 -39.705101 24.865368 94 97 95
-99.091042 -39.70557 24.902748 110 110 108
-98.900757 -39.703953 24.900385 103 101 94
-98.704933 -39.658718 24.910522 144 143 134
-98.503441 -39.704384 24.917681 134 132 127
-98.298508 -39.735123 24.948244 150 145 140
-98.147881 -39.69923 24.914921 149 142 135
-97.096695 -39.741314 24.86635 126 128 121
-96.97155 -39.651855 24.973646 164 157 147
-95.261948 -39.702991 24.814068 82 85 74
-100.85963 -39.46661 24.852789 113 114 113
-100.69629 -39.501942 24.913002 118 117 114
-100.48933 -39.516102 24.899134 130 127 124
-100.36162 -39.551353 24.90379 143 142 137
-99.853699 -39.511494 24.917814 148 142 145
-99.737305 -39.431973 24.887022 108 112 105
-99.259682 -39.498566 24.834042 75 83 75
-99.140999 -39.496555 24.87204 102 101 97
-98.906273 -39.540867 24.919374 161 153 150
-98.659363 -39.512707 24.963303 142 141 136
-98.549667 -39.497688 24.939205 137 137 131
-98.110085 -39.518368 24.927608 139 139 135
-97.064819 -39.482029 24.870737 151 142 134
-96.959732 -39.582672 24.875179 169 165 153
-100.71219 -39.33205 24.870781 122 118 115
-99.86541 -39.348919 24.868399 134 134 134
-99.731293 -39.294453 24.958582 119 120 114
-99.54985 -39.259235 24.944132 118 122 118
-99.265274 -39.355499 24.808926 58 63 56
-99.08709 -39.307129 24.902937 133 132 125
-98.902855 -39.305061 24.840691 134 133 128
-98.661438 -39.275021 24.902208 139 139 136
-98.482841 -39.286831 24.917938 137 138 136
-98.28672 -39.283844 24.936516 137 138 133
-98.123695 -39.355701 24.888399 98 105 96
-97.202881 -39.246155 24.95088 204 193 187
-97.158051 -39.222908 24.951761 177 162 158
-100.44945 -39.102634 24.968353 124 121 116
-100.32404 -39.073807 24.927019 123 128 121
-99.837166 -39.107857 24.878967 115 118 114
-99.709267 -39.131966 24.861362 111 115 111
-99.540619 -39.103992 24.901852 119 121 117
-99.255943 -39.101124 24.885248 102 101 96
-99.101486 -39.124588 24.928112 71 78 68
-98.878227 -39.078732 24.937553 100 107 99
-98.697273 -39.112053 24.909203 117 117 111
-98.522636 -39.119949 24.887354 120 123 114
-98.330742 -39.118008 24.85804 125 127 120
-97.222153 -39.064049 24.874874 87 74 73
-97.152176 -39.112514 24.929277 113 107 98
-96.880547 -39.03891 24.990404 80 77 70
-100.29137 -38.91024 24.953196 135 133 127
-100.10703 -38.865883 24.959129 101 104 98
-99.881592 -38.936295 24.922901 108 113 106
-99.684914 -38.902531 24.8757 92 99 90
-99.487953 -38.901478 24.879822 98 103 95
-99.338249 -38.899853 24.884018 107 109 104
-99.104729 -38.9818 24.852453 66 75 68
-98.905365 -38.887894 24.805264 75 85 75
-98.503716 -38.991539 24.821991 102 109 91
-97.241974 -38.98785 24.890987 93 79 76
-97.086617 -38.861511 24.816891 96 94 87
-100.07687 -38.68058 24.890478 114 118 112
-99.903831 -38.641388 24.995632 108 113 110
-99.686607 -38.726002 24.879805 108 114 107
-99.51049 -38.741905 24.827194 78 86 78
-99.359413 -38.756512 24.825502 76 84 76
-97.139603 -38.624748 24.961786 113 104 97
-99.925919 -38.531654 24.88689 102 109 102
-99.709053 -38.542389 24.938082 129 132 129
-97.313927 -38.539963 24.898546 130 123 115
-97.057854 -38.487885 24.81361 151 147 136
-99.700325 -38.345181 24.911047 121 122 121
-97.495728 -38.233063 24.8624 170 171 163
-97.233879 -38.274502 24.828739 136 120 112
-97.119591 -38.372532 24.844568 152 143 136
-96.956917 -38.332405 24.904125 124 121 112
-99.721321 -38.187317 24.807789 98 100 90
-98.25312 -38.055042 24.835402 150 150 138
-97.550339 -38.130871 24.924772 151 145 129
-98.715424 -37.879074 24.946487 118 113 102
-98.289139 -37.891056 24.85087 137 139 121
-98.152435 -37.888603 24.860008 162 156 144
-97.624557 -37.881172 24.94573 65 76 62
-97.233414 -37.975529 24.875273 167 158 150
-98.713058 -37.718811 24.898121 115 115 101
-98.29274 -37.702656 24.833117 117 119 97
-98.14064 -37.635799 24.834293 192 180 164
-98.84269 -37.53941 24.827034 114 116 107
-98.717346 -37.510811 24.890779 97 102 91
-98.586617 -37.5662 24.905048 69 75 66
-98.197678 -37.588566 24.839365 117 114 97
-99.300331 -37.30751 24.898773 86 94 81
-99.09613 -37.31308 24.890917 115 119 107
-98.894775 -37.347988 24.904268 89 98 84
-98.074127 -37.20887 24.865135 99 103 88
-99.249619 -37.174023 24.934233 73 84 72
-98.973984 -37.145557 24.974941 122 133 120
-98.728104 -37.123016 24.973427 99 108 96
-98.177917 -37.185558 24.888149 83 95 80
-98.835541 -36.997913 24.970425 105 113 102
-98.668022 -36.937489 24.938271 88 101 84
-98.539886 -36.997284 24.995281 94 105 92
-98.397293 -36.984169 24.945786 88 101 84
-95.342171 -55.036564 25.090809 129 132 137
-96.226318 -54.443474 25.042585 129 113 131
-96.576019 -54.264561 25.043972 82 70 92
-93.122803 -54.038715 25.125118 110 97 114
-93.454529 -53.853756 25.022909 104 105 109
-93.247864 -53.929585 25.131231 163 146 152
-93.159561 -53.879902 25.092251 202 178 194
-97.423744 -53.668686 25.002235 129 106 116
-97.28109 -53.692547 25.074615 136 113 125
-97.135124 -53.729847 25.049669 126 109 122
-94.265915 -53.617348 25.14926 122 103 121
-94.145615 -53.659828 25.068016 150 124 139
-93.614288 -53.703609 25.142717 165 148 154
-93.39563 -53.780685 25.086792 189 185 182
-93.171982 -53.731098 25.188591 216 200 210
-97.448952 -53.471336 25.090109 115 92 106
-97.293159 -53.517323 25.073412 111 95 108
-96.219841 -53.555 25.025845 159 143 150
-96.083389 -53.475471 25.023022 156 142 151
-95.421127 -53.460655 25.0443 150 133 147
-95.313522 -53.473221 25.112345 181 158 178
-94.528137 -53.486286 25.095909 169 146 152
-94.2799 -53.522133 25.090204 154 143 150
-94.137306 -53.540779 25.075977 193 180 188
-92.853905 -53.49913 25.095293 186 173 187
-97.467674 -53.228062 25.098093 117 111 121
-97.352669 -53.310669 25.177294 106 92 103
-96.273949 -53.349106 25.031521 138 131 139
-95.286308 -53.319042 25.006552 157 143 146
-95.051064 -53.335045 25.048557 189 167 180
-94.801521 -53.261185 25.086575 153 145 158
-94.628418 -53.274887 25.042664 165 151 159
-94.54245 -53.329659 25.130543 177 170 184
-94.337524 -53.322887 25.1042 152 142 146
-92.876175 -53.362961 25.038242 161 151 164
-92.773033 -53.297413 25.085659 182 169 180
-97.043961 -53.008339 25.014282 156 147 159
-96.939819 -53.075706 25.041023 144 131 146
-96.763611 -53.071968 25.04735 208 168 177
-95.255493 -53.052406 25.072495 145 120 123
-94.907982 -53.157124 25.097866 131 123 131
-92.825317 -53.177746 25.195089 206 186 197
-92.736214 -53.137249 25.05583 180 168 178
-92.533279 -53.043793 25.072859 139 134 143
-92.309967 -53.043709 25.024059 198 192 206
-92.184669 -53.046661 25.03516 187 185 198
-97.275795 -52.855671 25.044855 135 126 139
-97.070251 -52.919739 25.072891 166 155 170
-96.930557 -52.916504 25.040104 153 140 149
-96.247101 -52.832993 25.034418 187 175 192
-96.073723 -52.850468 25.054197 159 146 161
-95.888573 -52.801029 25.046688 126 105 120
-95.504181 -52.890137 25.019287 102 103 106
-95.314423 -52.834717 25.117573 108 106 113
-95.080215 -52.857281 25.089197 117 115 123
-94.998444 -52.941196 25.131418 165 158 165
-92.807739 -52.927216 25.199377 182 168 181
-92.635727 -52.817566 25.111841 184 167 183
-92.497154 -52.898842 25.106544 163 159 167
-92.330658 -52.906078 25.120872 169 165 172
-97.301041 -52.691307 25.069321 140 136 146
-97.121635 -52.750923 25.075771 145 140 146
-96.861725 -52.661121 25.053179 155 147 158
-96.722321 -52.690487 25.045685 152 146 157
-96.50251 -52.699696 25.059643 166 154 161
-96.331177 -52.700256 25.089571 173 161 172
-96.1231 -52.680805 25.089169 191 175 185
-95.891289 -52.663864 25.080576 159 145 160
-95.707413 -52.663429 25.05714 154 141 151
-95.518387 -52.69989 25.063887 129 121 128
-95.317024 -52.666679 25.119488 156 144 150
-95.155212 -52.70628 25.128807 169 160 164
-92.841141 -52.704433 25.068245 142 124 122
-92.096863 -52.669964 25.087107 185 177 193
-91.885483 -52.659859 25.147697 138 132 135
-99.911896 -52.48658 25.07143 115 115 105
-97.315422 -52.503403 25.071142 157 152 162
-97.122498 -52.500145 25.070608 157 149 159
-96.899178 -52.472092 25.070095 176 163 169
-96.705704 -52.517754 25.058323 161 156 163
-96.509354 -52.494667 25.08732 144 138 143
-96.335869 -52.483009 25.11993 160 153 155
-96.081306 -52.530651 25.130768 191 180 185
-95.885925 -52.485943 25.1024 164 157 164
-95.685059 -52.479912 25.105902 154 149 156
-95.462944 -52.512074 25.104578 138 131 134
-95.314346 -52.512268 25.094429 140 127 128
-95.170883 -52.475994 25.076263 116 112 116
-92.063057 -52.493652 25.099068 127 121 134
-91.917343 -52.46096 25.078779 183 177 187
-97.297249 -52.308685 25.131586 159 150 156
-97.097618 -52.298782 25.123522 166 155 159
-96.900719 -52.311939 25.05859 150 147 150
-96.668282 -52.273464 25.085855 93 98 101
-96.515648 -52.276608 25.09008 153 150 156
-96.313736 -52.290657 25.098793 142 135 132
-96.100868 -52.338772 25.157766 142 137 130
-95.869614 -52.302349 25.116402 150 145 143
-95.706566 -52.307537 25.111551 142 138 137
-95.490921 -52.29702 25.144539 141 134 138
-95.287766 -52.304295 25.079012 103 101 102
-95.166893 -52.278568 25.037464 67 68 70
-92.064217 -52.286987 25.153732 150 147 160
-91.923576 -52.296665 25.066093 167 162 175
-91.799171 -52.244297 25.083672 128 118 129
-100.422 -52.109184 25.092216 135 133 121
-100.27737 -52.142876 25.082678 103 103 91
-97.313972 -52.145027 25.144941 145 142 146
-97.069893 -52.081013 25.137949 107 112 105
-96.939301 -52.103539 25.147816 120 123 123
-96.713524 -52.069305 25.093277 128 126 130
-96.488998 -52.103302 25.089052 167 157 159
-96.330292 -52.1236 25.094738 152 144 144
-96.175705 -52.118568 25.092728 138 137 135
-95.868431 -52.10025 25.113415 122 121 119
-95.72892 -52.102299 25.14904 129 127 128
-95.462395 -52.099247 25.129807 120 121 123
-95.328812 -52.088524 25.127028 110 110 109
-92.203201 -52.049099 25.147118 138 136 143
-92.086121 -52.091915 25.11586 138 136 145
-91.949776 -52.116898 25.076752 153 149 157
-100.27031 -51.995098 25.135735 131 132 120
-97.86866 -51.801601 25.031506 59 58 56
-96.867752 -51.8848 25.089233 114 113 117
-96.709984 -51.898373 25.088545 145 140 143
-96.515945 -51.896969 25.079464 137 134 134
-96.353928 -51.862003 25.07893 129 128 124
-96.002586 -51.813709 25.127888 144 146 133
-95.906754 -51.80537 25.061583 124 129 122
-95.662483 -51.857048 25.042034 104 109 104
-95.463814 -51.870674 25.15011 120 121 122
-95.295898 -51.879002 25.113871 103 104 106
-95.134033 -51.865509 25.085175 93 96 96
-93.66787 -51.848217 25.097357 80 82 77
-93.502693 -51.874313 25.094606 77 79 78
-92.602531 -51.86179 25.011862 77 84 84
-92.56192 -51.929482 25.161482 114 119 122
-92.229729 -51.927303 25.139174 139 139 148
-92.137016 -51.892609 25.087852 148 149 159
-91.9272 -51.956863 25.115017 141 140 146
-100.23391 -51.667286 25.099905 129 131 120
-100.15218 -51.631557 25.081593 115 117 107
-97.032265 -51.689007 25.116194 161 159 170
-96.876183 -51.724125 25.075562 138 138 144
-96.727829 -51.687321 25.072302 123 128 131
-96.505096 -51.704605 25.093359 110 116 116
-96.275513 -51.702648 25.088079 103 108 107
-96.11219 -51.672569 25.085949 117 123 119
-95.903076 -51.660568 25.078707 108 114 110
-95.696983 -51.676762 25.113882 99 106 106
-95.475922 -51.706886 25.099096 99 104 104
-95.299179 -51.703194 25.096859 104 107 106
-95.078934 -51.711693 25.090536 80 86 84
-94.984245 -51.642578 25.028145 73 78 76
-94.237015 -51.668911 25.017801 78 81 86
-93.741394 -51.666656 25.031113 110 108 108
-93.478722 -51.698967 25.117676 69 73 71
-92.635849 -51.673454 25.090847 90 97 97
-92.51487 -51.744839 25.098364 94 102 99
-92.296692 -51.721401 25.062687 120 123 128
-92.168419 -51.749725 25.061396 146 147 156
-91.925644 -51.747059 25.062731 146 147 148
-100.24757 -51.515488 25.10026 115 118 108
-100.15731 -51.524483 25.084408 121 122 113
-97.634781 -51.530804 25.095493 95 94 99
-97.218178 -51.538036 25.122454 144 144 152
-97.074692 -51.507809 25.101099 123 126 131
-96.916702 -51.530159 25.093824 123 128 133
-96.698471 -51.541023 25.086411 117 122 126
-96.519539 -51.499306 25.07476 124 128 131
-96.338615 -51.514561 25.066755 96 105 106
-96.104187 -51.482845 25.097975 96 103 103
-95.901657 -51.492352 25.096176 112 117 115
-95.690407 -51.527569 25.075457 104 110 111
-95.475815 -51.477032 25.109945 109 113 115
-95.329315 -51.502613 25.096558 108 109 110
-95.082047 -51.506905 25.095095 90 92 87
-94.931602 -51.478374 25.094666 87 90 89
-94.795441 -51.459206 25.092495 71 76 75
-94.253006 -51.59528 25.121777 68 69 71
-93.689034 -51.504044 25.136377 110 107 111
-93.470116 -51.479271 25.083069 70 70 68
-93.324623 -51.469757 25.128464 72 77 73
-93.1726 -51.509922 25.17144 71 81 73
-92.861832 -51.531048 25.170553 93 100 104
-92.691765 -51.51701 25.127907 94 100 103
-92.458809 -51.501289 25.089367 121 125 130
-92.30365 -51.478371 25.076904 123 124 133
-92.099815 -51.448547 25.074228 136 136 146
-91.973801 -51.494202 25.049845 146 147 154
-100.44941 -51.280178 25.059561 117 117 110
-100.34115 -51.344677 25.113543 113 115 108
-100.06232 -51.204502 25.006664 165 160 164
-99.952995 -51.216011 25.026415 107 110 102
-97.478622 -51.376221 25.037659 144 137 145
-97.387238 -51.313011 25.025763 151 148 155
-97.085449 -51.311054 25.091547 126 129 136
-96.882797 -51.337887 25.023739 111 118 122
-96.699341 -51.314163 25.087133 118 123 126
-96.509758 -51.307827 25.117132 129 131 136
-96.310982 -51.32946 25.047855 127 129 132
-96.113571 -51.272251 25.099682 104 106 107
-95.87587 -51.293999 25.097189 103 108 109
-95.714249 -51.280781 25.094131 106 109 111
-95.489891 -51.323811 25.087259 113 117 120
-95.322372 -51.288761 25.076344 110 109 111
-95.088135 -51.307804 25.05941 95 97 94
-94.896538 -51.310101 25.093054 101 102 100
-94.793289 -51.293003 25.076408 107 106 105
-94.496918 -51.226402 25.171999 161 152 148
-94.354172 -51.235779 25.095093 74 75 72
-93.674721 -51.336807 25.134695 90 82 84
-93.482109 -51.307659 25.123959 78 82 79
-93.396736 -51.319237 25.170164 58 65 57
-92.412674 -51.314514 25.193474 159 160 175
-92.312019 -51.342525 25.12759 136 135 144
-92.086189 -51.311516 25.090406 138 135 147
-91.991325 -51.35017 25.021378 163 162 173
-100.4781 -51.03233 25.07189 121 121 113
-100.26456 -51.102291 25.087999 108 110 107
-100.11779 -51.098152 25.036776 121 122 120
-97.169342 -51.047207 25.098698 136 134 141
-96.876213 -51.100166 25.096081 119 125 130
-96.671837 -51.08028 25.117676 140 141 146
-96.51403 -51.103962 25.065594 122 123 126
-96.256485 -51.126457 25.080139 109 103 104
-96.083511 -51.097328 25.082418 100 96 98
-95.892654 -51.10144 25.100235 114 107 108
-95.739098 -51.089714 25.074184 118 107 108
-95.487144 -51.10817 25.114115 115 118 120
-95.292442 -51.09111 25.057388 114 114 117
-95.092812 -51.086731 25.076937 98 104 101
-94.874855 -51.10667 25.081926 119 118 118
-94.730576 -51.034405 25.165966 130 129 129
-94.492783 -51.086514 25.106529 102 101 100
-94.302269 -51.100037 25.111835 82 84 81
-93.702827 -51.060879 25.125862 93 85 86
-93.515572 -51.11364 25.122646 83 80 80
-92.275208 -51.043495 25.098164 122 121 128
-92.111671 -51.13393 25.084614 147 145 154
-91.990311 -51.150463 25.015766 129 129 140
-101.06326 -50.878197 25.099651 93 103 92
-100.98669 -50.847641 25.111336 78 87 77
-100.45117 -50.912006 25.095921 118 119 112
-100.32021 -50.891624 25.132362 115 117 109
-100.14513 -50.916618 25.07785 124 124 128
-96.856178 -50.887035 25.119081 98 103 106
-96.694542 -50.903912 25.069838 130 132 134
-96.524994 -50.919899 25.055229 145 133 135
-96.288132 -50.893036 25.133602 138 129 131
-96.114922 -50.884331 25.091705 137 125 127
-95.880875 -50.905415 25.066347 139 127 128
-95.759697 -50.932251 25.058315 132 121 120
-95.484871 -50.885086 25.12921 113 114 116
-95.316139 -50.895489 25.100031 125 121 124
-95.103592 -50.893063 25.081081 112 109 109
-94.893669 -50.887024 25.088226 121 117 117
-94.681198 -50.902012 25.097206 124 121 122
-94.513336 -50.921947 25.080471 94 96 95
-94.290382 -50.885921 25.125538 114 111 109
-94.090256 -50.862415 25.109665 104 102 102
-93.893661 -50.896141 25.089817 108 107 105
-93.69294 -50.953735 25.118011 95 93 94
-93.510117 -50.871853 25.113617 79 85 82
-93.358932 -50.825897 25.101536 85 89 86
-92.268387 -50.923325 25.106432 132 132 139
-92.133087 -50.918884 25.067556 141 138 145
-90.697586 -50.831673 25.014378 127 126 122
-100.41185 -50.786011 25.03336 150 149 141
-100.28928 -50.69194 25.132385 139 138 131
-100.14569 -50.679337 25.107542 152 147 148
-96.804337 -50.65284 25.1339 72 81 80
-96.764771 -50.643188 25.071774 101 109 114
-96.253983 -50.690193 25.08968 121 117 118
-96.104996 -50.707573 25.089933 146 133 132
-95.903442 -50.675659 25.085869 177 154 155
-95.69799 -50.664978 25.076023 158 136 137
-95.482162 -50.6978 25.084118 123 115 114
-95.294586 -50.695881 25.096596 140 130 133
-95.079033 -50.708656 25.103867 117 113 115
-94.894272 -50.712189 25.090435 116 115 115
-94.730637 -50.761864 25.070234 117 116 116
-94.459496 -50.669502 25.034819 109 110 107
-94.283035 -50.715969 25.089062 109 107 107
-94.110672 -50.695534 25.083574 104 105 103
-93.924232 -50.69693 25.113857 106 102 100
-93.72274 -50.670071 25.07604 124 116 117
-93.46125 -50.72525 25.125856 84 91 88
-93.295532 -50.701664 25.10849 92 99 96
-93.152031 -50.676559 25.117292 103 111 107
-92.282318 -50.660469 25.060036 138 137 144
-92.10981 -50.698078 25.042061 128 127 135
-91.982658 -50.715988 25.018301 148 146 156
-90.716339 -50.780685 25.020161 79 82 73
-101.51472 -50.502499 25.048931 100 107 99
-101.32147 -50.486698 25.133766 96 104 91
-101.10999 -50.465008 25.10438 68 76 66
-100.96387 -50.44376 25.149069 60 72 60
-100.28355 -50.513958 25.071106 140 139 128
-100.10994 -50.492943 25.098366 144 133 135
-96.662804 -50.492588 25.04327 131 121 124
-96.478096 -50.460728 25.049738 127 120 118
-96.316711 -50.492973 25.081869 134 128 127
-96.105255 -50.497917 25.089287 133 121 116
-95.878433 -50.492523 25.10323 165 140 138
-95.704742 -50.502525 25.078196 159 134 131
-95.483315 -50.490788 25.126375 170 144 140
-95.306053 -50.494316 25.105583 140 128 127
-95.09594 -50.496193 25.073858 118 110 111
-94.909447 -50.524158 25.051538 126 121 124
-94.702919 -50.514111 25.057297 114 110 108
-94.499748 -50.485325 25.064251 110 109 108
-94.286621 -50.50325 25.079435 99 100 97
-94.0896 -50.501511 25.051746 101 105 101
-93.93502 -50.482796 25.128128 131 124 122
-93.684059 -50.519562 25.120026 142 131 132
-93.526962 -50.503849 25.082253 106 103 102
-93.292114 -50.501602 25.102312 101 105 103
-93.115402 -50.514694 25.10737 99 106 102
-92.914612 -50.451675 25.097824 104 112 107
-92.670517 -50.459061 25.081913 115 118 115
-92.502121 -50.485046 25.072872 121 124 125
-92.31311 -50.528603 25.068163 129 130 135
-92.137856 -50.543049 25.036121 137 135 146
-91.997086 -50.529465 25.117477 135 138 153
-90.532913 -50.550156 25.064554 193 187 193
-101.267 -50.303375 25.117815 116 119 112
-101.08186 -50.289352 25.079494 91 96 88
-100.93205 -50.273479 25.095142 78 85 77
-100.69018 -50.232273 25.108675 81 84 78
-100.5118 -50.235924 25.095358 104 104 101
-100.31076 -50.269497 25.11425 102 102 96
-100.13217 -50.297775 25.13578 141 132 126
-96.684532 -50.298817 25.068914 124 115 117
-96.496635 -50.29533 25.056345 101 94 95
-96.281876 -50.274067 25.092888 137 125 123
-96.107796 -50.2714 25.080908 164 139 138
-95.89994 -50.283356 25.090071 173 148 145
-95.703407 -50.302223 25.092667 148 129 122
-95.503502 -50.300297 25.103407 171 143 137
-95.327744 -50.300213 25.079159 131 117 112
-95.125114 -50.283352 25.088299 130 118 116
-94.908501 -50.304398 25.074282 131 121 122
-94.67614 -50.314995 25.066595 112 110 109
-94.493271 -50.324543 25.063246 110 106 104
-94.311874 -50.276043 25.077698 128 126 122
-94.085777 -50.307793 25.064779 106 108 105
-93.903427 -50.316204 25.099268 119 116 112
-93.710976 -50.306358 25.145351 138 129 123
-93.476807 -50.298996 25.135117 142 134 133
-93.314354 -50.299496 25.110294 104 105 102
-93.108574 -50.326138 25.093096 121 121 122
-92.870667 -50.330521 25.112019 112 119 116
-92.686188 -50.296513 25.072998 123 128 128
-92.497849 -50.307556 25.059872 134 134 137
-92.328728 -50.297302 25.068499 142 138 147
-92.095787 -50.355694 25.00248 122 122 135
-102.32064 -50.011032 25.112328 65 77 63
-102.08969 -50.066315 25.053457 53 61 50
-101.46301 -50.046936 25.066263 85 88 76
-101.29554 -50.053585 25.079308 83 90 79
-101.10002 -50.119186 25.081034 81 86 79
-100.86854 -50.100941 25.090742 97 98 91
-100.68331 -50.080112 25.106962 114 109 103
-100.5166 -50.083729 25.090332 117 112 107
-100.31693 -50.060852 25.09478 114 112 105
-100.12866 -50.060043 25.091864 110 105 105
-99.97477 -50.056587 25.17552 158 140 140
-98.954697 -50.077084 25.012531 77 80 73
-96.92366 -50.045094 25.011024 148 146 152
-96.632851 -50.128506 25.06196 113 102 103
-96.498451 -50.087955 25.09391 122 114 117
-96.307587 -50.12793 25.098862 121 115 112
-96.108704 -50.105946 25.088366 147 130 127
-95.87867 -50.094261 25.098858 150 128 124
-95.701561 -50.097908 25.076031 173 143 136
-95.498756 -50.092323 25.107477 154 129 123
-95.311478 -50.084843 25.087343 165 137 136
-95.097229 -50.083054 25.100075 128 120 119
-94.925163 -50.098419 25.06778 139 130 128
-94.704826 -50.111656 25.062813 108 102 99
-94.476242 -50.10183 25.04933 100 104 100
-94.262505 -50.103699 25.100443 144 139 135
-94.095123 -50.076141 25.09103 139 135 130
-93.908348 -50.108936 25.096853 122 120 114
-93.777412 -50.123238 25.152025 142 133 125
-93.30278 -50.153282 25.112408 142 136 135
-93.127357 -50.102909 25.112963 141 136 135
-92.882927 -50.090084 25.107368 112 118 116
-92.699478 -50.110004 25.079563 131 135 135
-92.506279 -50.098343 25.09993 144 143 146
-92.330231 -50.135059 25.065714 123 120 127
-92.104004 -50.073662 25.073191 121 116 127
-102.45998 -49.886459 25.050692 75 84 73
-102.27947 -49.905022 25.074818 60 71 58
-102.09696 -49.878284 25.105413 69 78 67
-101.87535 -49.858547 25.106037 72 78 68
-101.62186 -49.86631 25.084208 93 98 88
-101.53289 -49.910767 25.106037 106 106 95
-101.25118 -49.879665 25.103685 84 88 79
-101.0824 -49.933186 25.095253 76 79 73
-100.91478 -49.950924 25.130791 111 112 104
-100.66544 -49.880375 25.097437 117 111 105
-100.49165 -49.933128 25.124004 120 116 110
-100.29051 -49.942177 25.127125 126 122 115
-100.0955 -49.900951 25.119299 154 146 142
-99.983818 -49.889973 25.122143 142 130 132
-97.039886 -49.872944 25.112961 137 136 140
-96.90889 -49.874363 25.046345 126 125 129
-96.693268 -49.900879 25.072445 118 115 119
-96.50573 -49.886383 25.08276 111 107 107
-96.299835 -49.878349 25.109455 117 113 112
-96.072739 -49.913559 25.103737 130 121 119
-95.897713 -49.918945 25.092855 130 120 115
-95.70298 -49.919872 25.106815 143 123 119
-95.505524 -49.922218 25.0905 139 123 118
-95.295341 -49.926575 25.114237 146 127 123
-95.087654 -49.901489 25.090412 124 118 115
-94.899124 -49.92017 25.077976 126 119 117
-94.716141 -49.879456 25.11132 114 112 110
-94.484612 -49.916283 25.06896 103 111 108
-94.283211 -49.904678 25.081268 111 115 111
-94.092453 -49.8913 25.103493 122 121 114
-93.970772 -49.96265 25.121077 140 132 129
-93.242134 -49.889965 25.089293 129 126 124
-93.090973 -49.874073 25.114515 127 126 127
-92.901329 -49.890385 25.102297 112 115 114
-92.701668 -49.91003 25.096302 134 135 134
-92.568756 -49.953255 25.08243 146 145 142
-92.245033 -49.892208 25.070745 226 212 223
-92.072716 -49.908298 25.057789 145 131 147
-91.984833 -49.914883 25.122898 121 125 134
-87.97184 -49.846153 25.018814 179 173 161
-102.6454 -49.75362 25.125309 141 143 132
-102.49455 -49.736549 25.132334 66 73 66
-102.29546 -49.745235 25.009842 52 59 50
-102.119 -49.743198 25.064041 64 75 63
-101.88374 -49.74543 25.095659 66 74 65
-101.69923 -49.690208 25.093233 80 86 78
-101.49453 -49.686951 25.087433 77 88 77
-101.31757 -49.689049 25.100483 91 96 85
-101.07383 -49.687645 25.10593 112 111 104
-100.90234 -49.687275 25.123474 110 110 105
-100.6931 -49.700764 25.128578 108 107 102
-100.54733 -49.679218 25.151964 124 120 118
-100.29048 -49.657345 25.148474 145 133 134
-100.0595 -49.690414 25.092896 135 130 125
-99.957031 -49.713493 25.10117 140 132 131
-99.635056 -49.677078 25.023088 124 117 121
-99.553886 -49.716099 25.089514 104 103 107
-98.984642 -49.715706 25.121435 124 125 119
-97.008301 -49.695099 25.070717 131 129 134
-96.887848 -49.685471 25.074577 142 137 140
-96.70253 -49.702297 25.064327 121 120 120
-96.49369 -49.713383 25.088522 116 111 113
-96.301277 -49.702648 25.145208 119 117 116
-96.109589 -49.68187 25.109398 151 144 147
-95.909851 -49.705368 25.107384 150 141 142
-95.739555 -49.730309 25.094124 135 124 120
-95.499855 -49.714428 25.095253 169 154 150
-95.29306 -49.675014 25.084612 148 133 130
-95.096558 -49.689247 25.101858 130 122 120
-94.902809 -49.690052 25.097799 138 130 129
-94.694023 -49.697792 25.090969 126 123 122
-94.490349 -49.694134 25.087133 110 116 113
-94.290359 -49.686497 25.09059 110 113 112
-94.094307 -49.713604 25.098904 110 113 108
-93.939178 -49.654652 25.104652 103 102 100
-93.285316 -49.671116 25.129856 105 105 102
-93.128822 -49.719296 25.168144 117 114 112
-92.893127 -49.734016 25.121281 135 132 134
-92.734665 -49.749413 25.13987 128 130 126
-92.064049 -49.664608 25.099388 169 162 168
-91.922997 -49.67992 25.079638 153 153 156
-91.794434 -49.623161 25.055492 139 131 137
-102.66926 -49.474377 25.068298 67 78 65
-102.51411 -49.470028 25.111826 75 86 72
-102.24587 -49.516357 25.110327 74 80 70
-102.1145 -49.54298 25.120874 74 76 69
-101.90036 -49.529079 25.084816 94 98 90
-101.68763 -49.492088 25.07682 108 114 105
-101.49033 -49.491035 25.103468 111 115 106
-101.32886 -49.503567 25.14698 110 115 106
-101.09869 -49.539333 25.179543 122 122 114
-100.88536 -49.534851 25.152624 119 122 115
-100.71359 -49.485096 25.141069 113 114 108
-100.496 -49.488678 25.119249 102 100 98
-100.28685 -49.507545 25.134436 119 115 109
-100.07771 -49.506683 25.118561 130 127 121
-99.941383 -49.508045 25.109652 129 131 122
-99.690323 -49.502445 25.098597 137 134 131
-99.528664 -49.479031 25.101086 155 146 145
-99.32019 -49.457897 25.100822 134 126 125
-99.090164 -49.522778 25.062332 151 146 144
-98.941971 -49.461246 25.043892 148 146 138
-97.065819 -49.511166 25.106644 139 137 140
-96.900345 -49.506351 25.096426 145 141 143
-96.705368 -49.50399 25.064117 129 127 128
-96.494446 -49.481937 25.072325 122 122 121
-96.310028 -49.512596 25.102531 127 125 122
-96.120064 -49.505951 25.116024 156 151 149
-95.913284 -49.510521 25.153879 152 145 142
-95.717651 -49.489212 25.142302 146 137 125
-95.519707 -49.43803 25.088303 122 114 106
-95.280823 -49.518177 25.119228 139 126 121
-95.10743 -49.518204 25.096369 136 126 122
-94.900963 -49.514297 25.102222 157 146 143
-94.691002 -49.50938 25.095587 135 124 119
-94.505051 -49.548077 25.121857 156 149 146
-94.293541 -49.55262 25.131422 153 147 147
-94.121925 -49.561474 25.168598 143 141 137
-93.916939 -49.518936 25.136238 134 132 129
-93.761276 -49.431412 25.141569 105 111 103
-93.536049 -49.512226 25.198151 105 103 96
-93.276543 -49.551231 25.172892 124 123 120
-93.092812 -49.4366 25.167147 104 101 99
-92.97393 -49.496777 25.134758 90 92 86
-92.220352 -49.467648 25.061001 163 158 162
-92.072067 -49.500889 25.085541 142 139 141
-91.900826 -49.490318 25.068604 151 147 151
-91.689262 -49.450619 25.050064 173 166 169
-91.57785 -49.460041 25.033957 150 143 148
-102.84874 -49.264732 25.095856 63 75 60
-102.65082 -49.308296 25.106956 68 81 66
-102.49258 -49.319664 25.128094 97 104 94
-102.36491 -49.383667 25.11236 73 80 70
-101.65353 -49.310036 25.003548 134 146 136
-101.51131 -49.359661 25.141312 93 100 91
-101.36835 -49.219379 25.194553 71 87 74
-101.11461 -49.290108 25.145555 70 75 66
-100.93826 -49.257824 25.147501 70 76 67
-100.67629 -49.296196 25.134218 95 96 92
-100.5344 -49.280609 25.090097 87 86 82
-100.32499 -49.288746 25.089893 106 104 98
-100.07081 -49.305717 25.107487 138 130 125
-99.916801 -49.294834 25.111303 127 123 116
-99.657913 -49.27774 25.121376 127 126 119
