ply
format ascii 1.0
comment PCL generated
element vertex 1096
property float x
property float y
property float z
property uchar red
property uchar green
property uchar blue
element face 0
element camera 0
property float view_px
property float view_py
property float view_pz
property float x_axisx
property float x_axisy
property float x_axisz
property float y_axisx
property float y_axisy
property float y_axisz
property float z_axisx
property float z_axisy
property float z_axisz
property float focal
property float scalex
property float scaley
property float centerx
property float centery
property int viewportx
property int viewporty
property float k1
property float k2
end_header
-100.51677 -50.060001 21.112026 114 116 110
-100.28798 -50.050846 21.074415 140 131 124
-100.12245 -50.067879 21.069241 147 138 132
-99.870407 -50.097736 21.114613 140 143 143
-99.695747 -50.11153 21.089634 113 120 115
-99.50338 -50.108994 21.078535 107 117 111
-99.344116 -50.061241 21.053846 116 126 117
-98.897621 -50.039841 21.10952 86 102 91
-96.940186 -50.106239 21.104582 97 110 97
-96.61982 -50.117386 21.13448 117 120 109
-96.506088 -50.037041 21.101765 93 99 89
-96.289795 -50.095051 21.095997 97 99 89
-96.128487 -50.106396 21.114016 91 95 86
-95.901093 -50.101608 21.109982 117 120 110
-95.678558 -50.096088 21.086649 104 111 98
-95.555473 -50.095207 21.09239 108 116 103
-95.391624 -50.190704 21.198599 104 112 96
-102.41595 -49.853127 21.018591 83 97 81
-102.2901 -49.914776 21.087879 152 152 150
-102.10144 -49.915295 21.068167 188 175 174
-101.90693 -49.894825 21.089529 169 164 159
-101.72166 -49.934151 21.13097 174 174 166
-101.48234 -49.947941 21.043901 166 172 166
-101.28068 -49.931259 21.061996 156 163 156
-101.10414 -49.891827 21.109507 130 135 125
-100.902 -49.910206 21.119244 124 126 119
-100.71074 -49.914085 21.110981 152 147 140
-100.47131 -49.896572 21.118328 168 164 160
-100.29981 -49.9086 21.096073 155 148 142
-100.11449 -49.917961 21.099836 133 128 120
-99.871475 -49.908813 21.100954 119 120 115
-99.708809 -49.921448 21.097769 109 116 109
-99.51812 -49.915817 21.082447 100 111 101
-99.333733 -49.899731 21.092627 119 127 118
-99.149551 -49.918236 21.114697 111 120 110
-98.943024 -49.988453 21.106049 72 82 71
-98.450233 -49.897953 21.061573 134 140 126
-97.825958 -49.855019 21.187838 68 81 65
-97.409096 -49.810116 21.19046 51 61 50
-97.289986 -49.894741 21.061779 92 102 96
-97.082634 -49.877735 21.089914 99 109 98
-96.928772 -49.881176 21.093843 91 102 91
-96.67234 -49.856384 21.064028 126 129 121
-96.497353 -49.870949 21.116072 131 132 125
-96.341591 -49.908134 21.129038 89 97 89
-96.101364 -49.932999 21.137508 123 119 111
-95.911942 -49.89883 21.092932 119 122 112
-95.704002 -49.936844 21.110804 106 113 98
-95.539642 -49.964424 21.084736 116 124 108
-102.45133 -49.711437 21.027872 93 103 97
-102.29438 -49.686592 21.070887 174 174 174
-102.10915 -49.710598 21.069157 165 163 161
-101.89962 -49.700062 21.08419 169 169 164
-101.61559 -49.682449 21.165903 159 152 147
-101.59624 -49.715591 21.182232 113 110 101
-101.23951 -49.703556 21.088852 143 151 142
-101.11164 -49.706142 21.103359 150 152 145
-100.89281 -49.666939 21.099564 142 142 133
-100.72405 -49.728699 21.11174 158 154 147
-100.45648 -49.72081 21.142996 142 144 135
-100.32381 -49.748562 21.112776 148 150 144
-100.09349 -49.760033 21.098173 139 137 127
-99.892464 -49.711987 21.113197 129 127 117
-99.698212 -49.688549 21.089834 98 107 97
-99.505577 -49.712776 21.095026 114 118 111
-99.319252 -49.764835 21.109104 123 128 122
-99.114372 -49.760792 21.153151 88 99 84
-97.292152 -49.732166 21.130564 88 98 89
-97.07811 -49.728828 21.12463 94 103 93
-96.876686 -49.709671 21.124418 105 116 108
-96.748291 -49.725922 21.102207 101 111 103
-96.472839 -49.683167 21.082384 114 118 110
-96.244514 -49.624161 21.073589 91 90 81
-96.125763 -49.684391 21.134605 93 99 90
-95.903473 -49.702744 21.093597 80 86 73
-95.743896 -49.733398 21.068764 97 105 92
-102.65742 -49.511841 21.017693 127 131 125
-102.48138 -49.520023 21.064522 141 143 142
-102.29977 -49.484505 21.09281 162 165 165
-102.10003 -49.482666 21.078037 144 150 144
-101.89556 -49.489902 21.075361 145 150 143
-101.74985 -49.477695 21.116941 136 139 133
-101.47449 -49.50832 21.042593 88 99 90
-101.2471 -49.516098 21.1134 116 127 115
-101.11687 -49.490002 21.105494 120 126 115
-100.89994 -49.50819 21.095026 136 137 128
-100.74139 -49.48513 21.127342 160 156 147
-100.58192 -49.465954 21.148275 179 181 168
-100.31137 -49.47731 21.124386 126 137 125
-100.04341 -49.516197 21.08062 141 147 132
-99.887741 -49.495243 21.119688 112 116 104
-99.72377 -49.50388 21.075695 102 110 99
-99.517059 -49.500145 21.102095 130 127 122
-99.394722 -49.404503 21.196011 94 96 91
-99.042519 -49.453041 21.172602 124 140 129
-98.837029 -49.546814 21.16621 100 112 110
-98.35257 -49.562775 21.178471 82 87 83
-97.276993 -49.50145 21.128239 99 104 95
-97.133057 -49.488766 21.062332 76 87 73
-96.928352 -49.479561 21.076328 87 98 86
-96.732201 -49.514641 21.031107 104 109 103
-96.513481 -49.48708 21.130941 111 110 106
-96.30542 -49.476841 21.085457 96 101 95
-96.114136 -49.500072 21.089279 101 109 99
-95.932526 -49.530502 21.091225 95 101 90
-102.8219 -49.288567 21.054842 14 33 5
-102.68567 -49.270508 21.05612 129 131 131
-102.47037 -49.281113 21.088112 155 157 154
-102.30541 -49.2915 21.097244 161 164 161
-102.0977 -49.304447 21.09627 159 159 154
-101.90249 -49.308472 21.108557 147 150 144
-101.75095 -49.303986 21.112085 154 152 147
-101.45999 -49.267593 21.147779 123 125 118
-101.29913 -49.30344 21.115538 115 121 110
-101.07325 -49.294239 21.119188 107 118 107
-100.90516 -49.327072 21.102835 119 121 109
-100.71707 -49.313789 21.128202 174 171 161
-100.54325 -49.254475 21.11051 156 156 144
-100.34912 -49.279976 21.157667 114 128 117
-100.02186 -49.334381 21.049814 96 111 95
-99.916115 -49.277607 21.067532 107 116 101
-99.68042 -49.291618 21.088589 100 109 99
-99.509926 -49.301788 21.099794 103 110 101
-99.327614 -49.304977 21.10054 105 114 104
-99.072891 -49.275951 21.126482 127 140 139
-98.977692 -49.383377 21.196062 115 121 117
-98.456009 -49.254169 21.007278 97 108 99
-98.259842 -49.224705 21.008003 63 76 67
-97.956245 -49.209438 21.199673 136 150 137
-97.495392 -49.253563 21.102535 94 108 97
-97.303963 -49.297367 21.104851 118 120 111
-97.119331 -49.296627 21.088263 80 88 76
-96.908577 -49.292446 21.082586 74 89 72
-96.77298 -49.399426 21.186214 184 174 182
-96.474579 -49.374702 21.069017 90 84 81
-96.276031 -49.325912 21.098305 118 125 119
-96.103561 -49.300217 21.104145 120 125 116
-95.948692 -49.296864 21.102365 117 110 103
-102.82833 -49.055565 21.189291 101 105 97
-102.71334 -49.063206 21.112417 174 170 172
-102.49298 -49.077549 21.081345 166 164 163
-102.31189 -49.10997 21.100126 175 170 168
-102.09515 -49.079948 21.065199 151 149 142
-101.91425 -49.119179 21.116833 161 156 151
-101.71062 -49.091774 21.099291 134 133 129
-101.4969 -49.103146 21.100801 125 129 120
-101.28247 -49.129093 21.128525 115 118 107
-101.10052 -49.138775 21.139368 121 124 113
-100.91804 -49.110611 21.104053 91 103 91
-100.72304 -49.139824 21.103275 119 125 113
-100.54338 -49.094849 21.111942 139 139 130
-100.19282 -49.11578 21.192989 250 237 231
-99.852684 -49.095169 21.087677 117 125 111
-99.737015 -49.12254 21.097528 108 117 102
-99.474449 -49.145416 21.105501 109 117 109
-99.32653 -49.101227 21.118696 101 109 100
-99.095253 -49.091415 21.094687 86 101 89
-98.976669 -49.027588 21.025562 94 106 98
-98.637253 -49.12125 21.184576 96 104 96
-98.505135 -49.09053 21.099653 107 115 109
-98.328766 -49.04348 21.080742 93 106 98
-98.103645 -49.067272 21.063824 94 106 99
-97.919487 -49.045422 21.070221 94 107 98
-97.675728 -49.088234 21.098272 104 113 104
-97.505943 -49.132183 21.108841 122 125 118
-97.298073 -49.144985 21.086645 111 110 101
-97.095085 -49.079624 21.108675 76 84 72
-96.901207 -49.099552 21.11698 71 83 69
-96.722542 -49.076462 21.049179 82 96 82
-96.46637 -49.024239 21.003136 125 118 110
-96.283447 -49.093491 21.09535 102 111 105
-96.105064 -49.10371 21.087141 114 123 108
-102.87202 -48.919281 21.136097 176 173 177
-102.68174 -48.907391 21.099659 181 176 176
-102.49426 -48.892937 21.131672 177 171 169
-102.29324 -48.910507 21.107216 157 155 151
-102.09815 -48.913715 21.062824 119 127 118
-101.88097 -48.896706 21.093788 126 130 124
-101.72997 -48.918488 21.095606 148 150 143
-101.5079 -48.933987 21.089645 146 153 144
-101.22631 -48.891636 21.190552 192 199 183
-101.02432 -48.812328 21.00123 85 94 89
-100.90787 -48.932289 21.095217 118 131 119
-100.68611 -48.924324 21.116005 86 98 84
-100.50924 -48.870747 21.125572 129 131 120
-100.30214 -48.869446 21.101986 128 136 128
-100.07396 -48.875435 21.105143 88 106 89
-99.895844 -48.896549 21.087317 125 134 119
-99.700874 -48.910618 21.08963 75 88 71
-99.519058 -48.933098 21.097654 77 87 76
-99.286591 -48.898495 21.112064 110 117 112
-99.128845 -48.878376 21.10849 108 113 108
-98.906349 -48.891521 21.13578 110 117 112
-98.651871 -48.892181 21.108561 92 100 95
-98.499367 -48.880695 21.093256 87 97 90
-98.28434 -48.895191 21.099207 101 108 101
-98.111221 -48.911541 21.085707 109 117 110
-97.893829 -48.935181 21.073282 104 108 101
-97.722763 -48.936363 21.102039 95 105 93
-97.449844 -48.834949 21.101965 103 111 94
-97.314156 -48.883698 21.108776 79 86 74
-97.116707 -48.933208 21.127119 95 95 87
-96.867203 -48.908398 21.12101 92 97 87
-96.739922 -48.897808 21.094589 87 98 85
-96.463425 -48.879597 21.068914 82 94 81
-96.307884 -48.891567 21.100586 103 112 100
-96.139999 -48.938522 21.093899 99 107 92
-103.05511 -48.681 21.037411 182 183 189
-102.90302 -48.676365 21.124313 174 167 174
-102.66206 -48.664326 21.121807 157 157 156
-102.49308 -48.684994 21.109991 164 162 160
-102.29916 -48.717148 21.091381 133 138 132
-102.12066 -48.689827 21.071211 125 130 123
-101.91499 -48.694649 21.100193 111 118 109
-101.75849 -48.768696 21.042116 126 130 121
-101.05428 -48.713161 21.111959 81 96 84
-100.86267 -48.710083 21.113159 88 101 87
-100.67065 -48.671036 21.106073 99 109 100
-100.49133 -48.758183 21.108541 81 96 84
-100.2925 -48.729561 21.076834 89 106 91
-100.1336 -48.712872 21.091242 106 119 106
-99.90049 -48.676704 21.088907 101 111 98
-99.73259 -48.693588 21.091192 80 96 79
-99.501556 -48.658688 21.07366 96 105 95
-99.267761 -48.709503 21.066837 107 115 107
-99.099121 -48.732594 21.092457 111 113 111
-98.913338 -48.685768 21.075006 123 124 125
-98.683678 -48.696674 21.110895 97 100 97
-98.534355 -48.734112 21.083422 84 92 83
-98.294128 -48.748745 21.092972 111 111 106
-98.146912 -48.758331 21.105759 106 108 102
-97.867195 -48.670834 21.084719 95 100 89
-97.691589 -48.668797 21.078266 103 107 96
-97.490181 -48.673061 21.076538 126 126 118
-97.333923 -48.703541 21.10873 140 136 129
-97.001717 -48.679462 21.045063 169 155 153
-96.846985 -48.675503 21.129044 103 104 96
-96.690552 -48.704617 21.118874 81 92 79
-96.509605 -48.701492 21.118608 86 96 84
-96.325478 -48.733311 21.135059 118 123 111
-96.158302 -48.749771 21.033562 81 82 77
-103.05949 -48.480354 21.053671 107 116 114
-102.89227 -48.513325 21.064194 161 161 166
-102.70176 -48.496735 21.101067 163 165 166
-102.50088 -48.504002 21.125185 147 152 149
-102.31069 -48.507549 21.110428 130 140 132
-102.12361 -48.486248 21.108139 132 139 133
-101.21916 -48.417 21.025124 103 113 98
-101.10532 -48.479588 21.130638 87 101 88
-100.90327 -48.467457 21.108408 86 98 85
-100.6879 -48.48616 21.142717 97 108 94
-100.52193 -48.528404 21.067972 93 104 92
-100.28316 -48.493008 21.107718 91 105 91
-100.0803 -48.499226 21.080921 98 108 96
-99.920029 -48.483208 21.102646 99 109 98
-99.712082 -48.480389 21.124844 89 98 88
-99.485519 -48.495678 21.103254 92 102 91
-99.304993 -48.50174 21.109056 100 111 100
-99.092529 -48.467319 21.091036 110 116 107
-98.898254 -48.469486 21.091902 118 118 111
-98.753906 -48.476063 21.057808 97 98 92
-98.565765 -48.434387 21.124962 113 123 114
-98.320099 -48.529842 21.041153 70 80 69
-98.116394 -48.494289 21.046824 95 95 89
-97.875542 -48.477634 21.111084 126 126 115
-97.700745 -48.496082 21.109287 103 107 97
-97.495964 -48.482796 21.073099 104 112 100
-97.330276 -48.515984 21.112595 122 126 118
-97.074722 -48.450306 21.11124 129 133 128
-96.880981 -48.461277 21.100216 118 118 109
-96.723663 -48.52285 21.095219 122 119 111
-96.51236 -48.557293 21.127121 115 119 105
-96.387878 -48.587193 21.151073 103 110 92
-95.719475 -48.514053 21.120203 83 87 82
-103.06606 -48.332241 21.090918 171 174 179
-102.89338 -48.313965 21.076935 155 156 156
-102.68367 -48.299828 21.078608 158 163 163
-102.50005 -48.303425 21.120619 141 144 141
-102.32172 -48.296192 21.116037 128 130 123
-102.10381 -48.316231 21.093988 132 143 134
-101.91874 -48.275066 21.090307 133 140 133
-101.71677 -48.227394 21.059807 176 180 175
-101.51178 -48.204563 21.107407 143 138 133
-101.23489 -48.363411 21.041422 91 102 92
-101.10696 -48.310692 21.127577 93 105 91
-100.8654 -48.278282 21.074566 93 105 92
-100.71313 -48.300442 21.093019 120 130 118
-100.44228 -48.286945 21.032887 98 113 99
-100.30767 -48.311577 21.11482 86 103 88
-100.06688 -48.300114 21.087769 90 103 90
-99.917633 -48.310978 21.089331 99 108 97
-99.774452 -48.325611 21.095753 94 100 92
-99.513374 -48.348 21.061554 70 83 71
-99.253433 -48.385624 21.116858 90 101 92
-99.090401 -48.348862 21.097443 105 113 102
-98.89753 -48.313122 21.1038 129 127 119
-98.729515 -48.327419 21.08886 121 119 114
-98.446411 -48.329674 21.165812 54 71 53
-98.310875 -48.269482 21.106691 82 94 82
-98.054573 -48.315605 21.112251 110 117 106
-97.916435 -48.300125 21.108038 137 138 130
-97.683395 -48.332531 21.131422 120 126 116
-97.515015 -48.338242 21.109608 100 107 94
-97.337875 -48.344158 21.109728 126 131 122
-97.092598 -48.298119 21.148354 127 130 127
-96.898148 -48.296108 21.126467 117 120 112
-96.722542 -48.312534 21.109585 135 135 130
-96.483795 -48.27354 21.047989 155 160 155
-95.677727 -48.360115 21.066067 72 79 72
-103.09583 -48.040874 21.098091 161 155 156
-102.90321 -48.101315 21.104946 174 176 177
-102.72099 -48.095093 21.094168 160 161 160
-102.49879 -48.101894 21.091494 133 138 132
-102.2958 -48.065918 21.131102 166 162 158
-102.10969 -48.056911 21.087549 127 129 123
-101.92025 -48.101646 21.13472 147 148 143
-101.70769 -48.115158 21.072412 147 150 142
-101.49648 -48.089554 21.059458 148 151 142
-101.25459 -48.141552 21.182772 76 87 77
-101.09714 -48.142654 21.076529 101 110 100
-100.90913 -48.121639 21.099728 97 105 99
-100.7493 -48.165154 21.040829 99 105 97
-100.46763 -48.041676 21.103859 106 113 109
-100.30375 -48.068825 21.114273 122 133 122
-100.10379 -48.106674 21.08485 105 117 105
-99.925285 -48.12215 21.087885 101 110 100
-99.739662 -48.09642 21.108774 104 114 107
-99.512573 -48.078484 21.136049 137 148 131
-98.845001 -48.130909 21.103004 118 118 113
-98.728477 -48.107479 21.055817 110 111 106
-98.480591 -48.092991 21.108028 64 72 56
-98.343689 -48.132977 21.133804 91 105 93
-98.055008 -48.086899 21.09782 114 120 109
-97.909416 -48.103123 21.094992 141 145 138
-97.69091 -48.100784 21.079433 118 130 117
-97.559425 -48.0508 21.106508 118 126 113
-97.253258 -48.043819 21.084543 223 216 224
-97.118896 -48.067432 21.084789 111 112 110
-96.888115 -48.089417 21.113798 93 99 91
-96.743774 -48.083153 21.09473 110 110 107
-96.51799 -48.099087 21.056719 127 129 121
-96.366051 -48.143082 21.034323 103 111 100
-95.383781 -48.113262 21.182186 114 104 94
-95.198654 -48.143806 21.001123 113 124 120
-94.448402 -48.041107 21.118137 107 113 103
-93.09597 -48.020424 21.199594 94 115 98
-92.997131 -48.013973 21.050554 129 145 134
-103.09264 -47.920513 21.067337 166 165 164
-102.91353 -47.916317 21.09461 153 157 155
-102.69883 -47.898209 21.061687 159 158 156
-102.51994 -47.892868 21.098585 165 160 154
-102.28424 -47.919888 21.101402 150 150 143
-102.10233 -47.888363 21.106096 125 130 121
-101.8957 -47.86581 21.071524 120 129 117
-101.71979 -47.887733 21.093773 118 128 117
-101.50595 -47.869785 21.061335 114 122 112
-101.34517 -47.913052 21.080095 144 145 137
-100.49576 -47.855999 21.127432 111 123 113
-100.27948 -47.900368 21.132467 97 110 98
-100.12434 -47.895027 21.101217 97 109 98
-99.895958 -47.899044 21.109747 109 120 110
-99.772942 -47.89006 21.079802 113 125 115
-99.321068 -47.83601 21.051161 122 133 129
-98.801765 -47.837708 21.140339 161 161 157
-98.718628 -47.885567 21.132271 117 116 111
-98.445992 -47.889996 21.112028 141 139 130
-98.239883 -47.859116 21.022648 114 126 117
-98.052094 -47.892506 21.061235 124 131 121
-97.878998 -47.895527 21.089678 134 138 133
-97.72261 -47.896393 21.101357 120 132 120
-97.548897 -47.909927 21.094631 92 103 90
-97.288612 -47.905411 21.093943 123 124 118
-97.061653 -47.883045 21.132124 110 114 108
-96.887802 -47.883976 21.092188 85 94 83
-96.707024 -47.887218 21.087793 94 99 91
-96.519127 -47.900787 21.058136 144 144 137
-96.311935 -47.827629 21.139618 164 161 155
-96.095764 -47.887627 21.068893 118 128 115
-95.948334 -47.865925 21.103943 153 159 147
-95.033585 -47.91674 21.069416 78 88 72
-94.906197 -47.899452 21.150669 142 145 136
-93.097076 -47.862846 21.111933 127 142 137
-92.847565 -47.98587 21.010258 102 115 107
-103.24094 -47.68087 21.057281 149 156 149
-103.08353 -47.715893 21.089806 156 161 157
-102.89323 -47.704048 21.069511 168 169 167
-102.71729 -47.683468 21.114826 162 158 155
-102.49496 -47.723598 21.09819 162 162 158
-102.34299 -47.75737 21.12648 157 157 152
-102.06294 -47.687679 21.1007 121 128 119
-101.85655 -47.718372 21.125681 128 137 126
-101.70249 -47.733208 21.133173 116 127 114
-101.50801 -47.705521 21.111118 116 126 116
-101.35984 -47.712955 21.083378 131 136 126
-101.0473 -47.626163 21.116982 117 137 120
-100.88896 -47.687153 21.078407 106 127 110
-100.69521 -47.681595 21.097271 121 135 122
-100.50381 -47.686497 21.144094 117 130 120
-100.27673 -47.687153 21.064348 111 123 115
-100.09791 -47.683285 21.083916 103 114 105
-99.908829 -47.722759 21.109983 105 119 108
-99.727081 -47.680771 21.079161 89 100 90
-99.522034 -47.64304 21.084782 114 122 108
-99.373672 -47.709862 21.172815 88 100 93
-99.105507 -47.720509 21.080137 105 113 106
-98.838966 -47.665165 21.126978 127 126 122
-98.695145 -47.718815 21.097574 125 126 122
-98.516327 -47.684944 21.092606 95 105 93
-98.06514 -47.706409 21.063044 136 141 134
-97.915558 -47.701935 21.104536 119 127 120
-97.757233 -47.726559 21.156189 117 124 113
-97.291084 -47.713627 21.102201 141 144 140
-97.082863 -47.701679 21.136583 112 116 111
-96.883743 -47.713989 21.126732 89 99 87
-96.736847 -47.711929 21.115364 95 105 94
-96.467522 -47.720871 21.133228 114 118 106
-96.3125 -47.740105 21.088757 101 108 98
-96.06076 -47.687641 21.083567 131 123 118
-95.220345 -47.724411 21.08147 82 94 81
-95.187973 -47.76886 21.121469 67 79 68
-93.226669 -47.618889 21.189247 133 139 132
-93.077179 -47.702988 21.148651 154 159 156
-92.934296 -47.628063 21.093393 132 137 136
-103.11612 -47.569962 21.121893 179 178 173
-102.83402 -47.554852 21.098703 126 130 130
-102.67324 -47.528275 21.113138 179 175 170
-102.55366 -47.478352 21.121927 170 166 163
-102.04313 -47.497059 21.158228 115 123 119
-101.91358 -47.501671 21.093424 129 137 131
-101.63985 -47.560478 21.17725 98 111 97
-101.51341 -47.506012 21.10268 109 123 112
-101.28305 -47.479649 21.087984 147 158 144
-101.09782 -47.500271 21.074141 116 132 116
-100.90219 -47.520607 21.097866 117 132 121
-100.69135 -47.507179 21.098364 107 123 113
-100.50174 -47.490364 21.117582 113 129 122
-100.29234 -47.485199 21.108042 127 136 131
-100.11709 -47.511036 21.096876 107 117 108
-99.921295 -47.499401 21.100534 110 119 111
-99.72319 -47.508896 21.124651 116 127 118
-99.546509 -47.499077 21.045048 85 96 89
-99.317177 -47.424732 21.034937 134 150 139
-99.066269 -47.407383 21.084143 135 146 142
-98.89502 -47.515079 21.115168 150 145 142
-98.727928 -47.522655 21.153877 140 136 135
-98.474335 -47.449448 21.081779 122 125 121
-98.298019 -47.519798 21.114609 129 132 125
-98.084312 -47.494865 21.062822 142 140 137
-97.923958 -47.499714 21.095531 136 139 134
-97.694275 -47.507172 21.186455 150 157 152
-97.494629 -47.433929 21.081051 124 134 125
-97.236717 -47.467999 21.139076 138 133 134
-97.085091 -47.481464 21.104538 127 131 126
-96.907837 -47.489777 21.132404 112 120 113
-96.730026 -47.477692 21.084366 135 141 136
-96.504105 -47.443848 21.128368 108 117 105
-96.365204 -47.510891 21.052362 135 149 132
-93.644844 -47.501221 21.130781 128 137 127
-93.504128 -47.50246 21.114027 118 124 118
-93.29702 -47.53698 21.144419 148 152 144
-93.126648 -47.517315 21.114811 149 151 145
-92.953003 -47.531555 21.04858 145 151 151
-103.14192 -47.257416 21.062922 153 151 150
-102.836 -47.227875 21.027098 187 184 179
-102.65729 -47.343281 21.115095 153 156 149
-102.53772 -47.310036 21.139122 172 166 164
-102.27919 -47.273407 21.148649 145 150 148
-102.07379 -47.288944 21.106367 125 133 122
-101.93731 -47.269119 21.083092 118 131 120
-101.70613 -47.257526 21.094971 146 155 150
-101.49371 -47.282898 21.102551 106 125 113
-101.31281 -47.328243 21.094 143 153 140
-101.12831 -47.332287 21.129364 160 165 153
-100.91372 -47.392929 21.174215 140 146 142
-100.69057 -47.320892 21.101048 127 137 131
-100.50616 -47.313435 21.077084 135 144 140
-100.27377 -47.290337 21.06485 118 127 123
-100.11105 -47.299091 21.104362 120 127 122
-99.936348 -47.318527 21.110107 126 134 126
-99.664757 -47.219158 21.070086 142 151 143
-99.481506 -47.233032 21.066294 130 141 133
-99.304085 -47.262314 21.071417 123 132 125
-99.08728 -47.290958 21.092596 120 127 122
-98.930672 -47.354446 21.129208 115 119 114
-98.756821 -47.388062 21.168419 155 156 160
-98.485535 -47.35199 21.138573 168 163 162
-98.214523 -47.211987 21.069967 171 178 171
-98.076218 -47.326942 21.076601 150 149 148
-97.917877 -47.306297 21.100098 135 138 134
-97.681755 -47.268822 21.120743 136 141 137
-97.505455 -47.297436 21.11194 131 137 130
-97.290077 -47.309895 21.086853 148 144 141
-97.119576 -47.283764 21.104038 127 128 124
-96.923866 -47.307304 21.108252 110 120 110
-96.693855 -47.290722 21.090006 132 142 130
-96.535339 -47.300415 21.125416 119 129 117
-96.257347 -47.214176 21.179022 89 103 91
-96.117996 -47.305153 21.102215 110 122 106
-95.947334 -47.304287 21.090658 139 152 137
-93.817024 -47.394802 21.168221 98 108 100
-93.663345 -47.300247 21.109524 149 157 152
-93.4561 -47.25782 21.05127 151 157 155
-103.23203 -47.189426 21.16186 209 212 217
-103.18448 -47.100933 21.174583 147 148 149
-102.62958 -47.063297 21.066341 201 186 189
-102.48724 -47.129852 21.119274 176 168 168
-102.29261 -47.081432 21.138073 160 158 156
-102.09907 -47.128597 21.116426 142 148 139
-101.96653 -47.128883 21.134071 137 141 133
-101.69673 -47.117405 21.083326 131 142 135
-101.5033 -47.138508 21.093233 134 149 140
-101.32777 -47.134315 21.155636 95 109 97
-101.13984 -47.044346 21.028925 83 100 89
-100.92306 -47.058655 21.099447 96 114 99
-100.68016 -47.079159 21.087452 85 103 87
-100.57295 -47.168175 21.076853 130 138 141
-100.25457 -47.128132 21.065718 128 134 133
-100.11283 -47.098667 21.094154 138 140 140
-99.934402 -47.117329 21.11725 147 152 144
-99.683144 -47.140541 21.102608 149 156 149
-99.535385 -47.093613 21.113195 128 138 131
-99.319977 -47.122753 21.136877 135 141 136
-99.106339 -47.102394 21.076464 146 146 143
-98.959869 -47.064243 21.126844 157 157 157
-98.016228 -47.184776 21.046522 162 161 163
-97.89167 -47.135937 21.087473 176 168 171
-97.694237 -47.098164 21.087156 157 153 155
-97.510582 -47.090847 21.114279 143 140 139
-97.305588 -47.102268 21.080101 135 130 128
-97.085648 -47.089188 21.10256 149 146 145
-96.890144 -47.088802 21.112299 102 111 99
-96.708855 -47.092083 21.091982 117 127 115
-96.522659 -47.102646 21.10017 114 125 114
-96.284538 -47.086369 21.140291 86 103 88
-96.094971 -47.190056 21.056854 64 78 62
-95.942993 -47.078552 21.024992 72 92 74
-93.522217 -47.113205 21.157059 161 166 164
-93.269066 -47.010475 21.040344 147 142 136
-103.13391 -46.942867 21.092316 149 151 154
-102.4407 -46.901558 21.108334 198 182 187
-102.28548 -46.904972 21.033976 158 152 162
-102.12826 -46.889687 21.053513 181 173 170
-101.86866 -46.932213 21.07497 156 161 156
-101.71771 -46.906471 21.094923 151 160 153
-101.49805 -46.879055 21.101723 139 151 145
-101.2888 -46.899578 21.075863 122 135 128
-101.10986 -46.912205 21.090307 113 129 120
-100.91829 -46.899193 21.110485 104 123 111
-100.71948 -46.857639 21.07933 105 123 112
-100.49303 -46.928532 21.04229 104 122 111
-100.26443 -46.891174 21.08943 152 151 154
-100.09088 -46.902214 21.088488 141 139 140
-99.921989 -46.893639 21.118519 150 150 148
-99.688164 -46.884766 21.09281 115 126 119
-99.509346 -46.884613 21.106468 106 119 112
-99.33519 -46.890858 21.09161 99 111 103
-99.070259 -46.870415 21.064209 150 152 153
-98.867867 -46.854568 21.113916 79 79 74
-97.912506 -46.969723 21.070511 132 141 137
-97.642853 -46.895668 21.041784 156 151 151
-97.497734 -46.917706 21.063778 163 155 157
-97.323441 -46.913502 21.067207 132 129 128
-97.073853 -46.898994 21.088484 135 136 131
-96.918533 -46.893429 21.131876 119 122 114
-96.712891 -46.914806 21.116234 106 113 102
-96.540306 -46.892536 21.109938 91 105 91
-96.260132 -46.937965 21.194176 69 90 71
-96.120705 -46.962177 21.12632 71 90 73
-95.946442 -46.951084 21.094688 63 82 60
-103.02405 -46.789154 21.026791 123 124 126
-102.88317 -46.742744 21.116821 134 134 132
-102.7736 -46.741444 21.098145 131 137 127
-102.03727 -46.682991 21.051203 125 132 124
-101.91419 -46.631721 21.073338 154 159 150
-101.70667 -46.687347 21.074183 143 150 144
-101.50896 -46.69099 21.070662 134 148 140
-101.28764 -46.706406 21.094408 132 147 138
-101.09794 -46.679047 21.087795 137 145 139
-100.87936 -46.692043 21.091366 111 125 114
-100.75457 -46.667812 21.096714 111 128 114
-100.25085 -46.647137 21.083277 166 166 167
-100.11862 -46.691994 21.103523 156 152 154
-99.859398 -46.737221 21.105484 137 140 137
-99.697464 -46.703655 21.114115 148 152 148
-99.486694 -46.711208 21.137011 132 136 133
-99.316238 -46.681057 21.099024 123 129 128
-99.160339 -46.707661 21.162432 138 133 139
-98.917358 -46.686138 21.029598 132 128 133
-97.654404 -46.686115 21.052464 172 165 163
-97.520767 -46.689671 21.039524 160 154 152
-97.283447 -46.689079 21.056612 153 149 147
-97.084351 -46.707901 21.095139 149 148 145
-96.91362 -46.715439 21.129898 136 137 131
-96.686584 -46.710205 21.16711 114 121 111
-96.561462 -46.685688 21.136457 127 136 125
-94.504402 -46.694427 21.161242 178 176 166
-94.300133 -46.721645 21.042583 136 137 128
-102.07451 -46.492619 21.066492 185 175 170
-101.9065 -46.48735 21.070679 159 159 150
-101.70448 -46.496674 21.084644 148 155 148
-101.47229 -46.505787 21.108494 138 152 142
-101.28782 -46.508129 21.096966 131 143 133
-101.12613 -46.501575 21.112755 149 153 144
-100.88251 -46.5075 21.079576 145 148 141
-100.76626 -46.544571 21.135223 144 155 143
-100.26363 -46.538521 21.087902 162 162 162
-100.11399 -46.524887 21.109131 167 163 167
-99.888496 -46.522385 21.072586 146 149 150
-99.712723 -46.504372 21.102839 178 173 174
-99.496017 -46.504494 21.120434 168 164 166
-99.328552 -46.526081 21.119081 126 129 130
-97.668556 -46.541061 21.04147 144 137 133
-97.508385 -46.539009 21.043915 176 167 167
-97.281418 -46.513035 21.030766 165 159 156
-97.095657 -46.537285 21.066851 163 158 156
-96.904152 -46.491684 21.094469 157 157 152
-96.696205 -46.456776 21.117979 141 148 140
-96.59951 -46.481026 21.184629 161 162 155
-94.628143 -46.519276 21.160385 115 118 111
-102.05805 -46.316212 21.071842 177 168 162
-101.93661 -46.321632 21.13686 168 169 161
-101.70113 -46.326229 21.134716 171 172 166
-101.49929 -46.305431 21.077892 138 150 140
-101.3223 -46.311802 21.114983 130 146 134
-101.12354 -46.288284 21.107805 174 172 167
-100.87829 -46.29361 21.110739 145 154 146
-100.7665 -46.344574 21.110302 129 134 127
-99.889915 -46.295635 21.064981 143 144 144
-99.6847 -46.309761 21.079599 177 170 173
-99.512619 -46.331581 21.113985 174 162 166
-99.361153 -46.356548 21.11421 186 175 182
-99.174629 -46.361355 21.034477 131 140 137
-97.255302 -46.323864 21.03499 156 159 154
-97.095634 -46.319168 21.038801 158 153 151
-96.890411 -46.335735 21.040226 164 164 167
-96.645134 -46.340946 21.060831 152 156 151
-96.524277 -46.297626 21.076437 131 136 128
-94.704132 -46.285561 21.137278 125 134 121
-94.562401 -46.270359 21.08539 125 134 124
-102.22733 -46.025761 21.005108 89 105 95
-102.0733 -46.138115 21.109238 186 178 174
-101.89566 -46.103065 21.110603 196 179 173
-101.69447 -46.064884 21.102612 158 161 153
-101.50857 -46.087643 21.115288 136 147 136
-101.29272 -46.110821 21.099051 138 149 140
-101.13848 -46.132923 21.115253 149 154 152
-100.90754 -46.197506 21.089785 180 185 180
-99.66893 -46.153461 21.075945 68 70 70
-96.501953 -46.1045 21.099251 158 160 154
-96.335106 -46.111214 21.044983 114 128 115
-94.867668 -46.077946 21.057644 133 140 130
-94.697365 -46.076534 21.094082 124 128 117
-94.586891 -46.148094 21.079601 138 140 129
-102.44962 -45.985142 21.016254 119 128 123
-102.29749 -45.922611 21.092249 155 160 155
-102.10904 -45.927597 21.08802 108 108 100
-101.87166 -45.965595 21.096014 182 173 164
-101.65952 -45.942219 21.067945 136 142 136
-101.49726 -45.964798 21.081257 127 137 129
-101.3603 -45.959969 21.061531 144 152 146
-96.521896 -45.907005 21.101988 184 178 178
-96.301422 -45.890846 21.077965 154 156 151
-96.107422 -45.879974 21.095478 139 142 134
-95.971413 -45.895916 21.084759 147 147 138
-95.279846 -45.875229 21.141907 169 164 163
-95.078255 -45.864887 21.08798 154 155 148
-94.948326 -45.906269 21.096642 152 156 146
-94.695839 -45.922176 21.187992 80 94 81
-102.10388 -45.759888 21.067995 116 126 109
-101.91444 -45.697773 21.193108 130 131 125
-96.619385 -45.763973 21.023777 149 139 148
-96.518639 -45.740036 21.070049 163 155 156
-96.292648 -45.668945 21.106607 214 204 205
-96.137177 -45.788261 21.112217 176 166 160
-95.616806 -45.739288 21.040712 192 188 179
-95.486176 -45.69191 21.105976 136 136 126
-95.085487 -45.69001 21.100811 119 123 114
-94.939423 -45.71254 21.160955 168 172 165
-96.279686 -45.535954 21.114895 196 184 183
-96.085892 -45.487026 21.105547 175 161 166
-95.958084 -45.457176 21.11484 176 171 169
-95.664749 -45.476543 21.060787 187 177 173
-95.539581 -45.500454 21.064955 114 116 116
-95.100494 -45.498009 21.142513 148 152 145
-94.854324 -45.542912 21.195982 165 170 163
-96.236694 -45.313576 21.114182 238 221 227
-96.12149 -45.337074 21.104181 185 180 181
-95.953453 -45.315952 21.105835 188 176 174
-95.685303 -45.281467 21.110701 176 170 174
-95.473663 -45.282894 21.064816 174 169 169
-95.257599 -45.257099 21.023968 157 150 153
-95.098907 -45.245277 21.192154 153 156 146
-94.964699 -45.327267 21.115715 120 131 118
-96.000954 -45.047577 21.007954 248 236 238
-95.906754 -45.120808 21.126205 210 198 204
-95.732796 -45.156921 21.106155 178 178 183
-95.591263 -45.152378 21.06303 192 186 193
-95.228455 -45.073483 21.11462 134 138 134
-95.134338 -45.087948 21.068802 143 148 139
-95.124855 -44.991234 21.188921 155 139 140
-103.13125 -42.481346 21.004261 119 120 125
-103.11278 -42.255756 21.097832 179 176 189
-102.66672 -42.21056 21.054834 142 144 154
-102.52377 -42.240459 21.057728 141 146 153
-103.11848 -42.191799 21.041695 161 153 176
-102.69173 -42.175606 21.081554 169 165 179
-102.5043 -42.109047 21.05382 154 152 165
-102.38559 -42.083553 21.104208 140 145 159
-102.96339 -41.803894 21.055 118 122 123
-102.64274 -41.840797 21.096167 201 195 201
-102.48814 -41.8908 21.072697 169 164 179
-102.51711 -41.75219 21.072186 158 155 170
-102.66817 -41.514294 21.064739 196 181 194
-102.8315 -41.203983 21.00518 213 207 217
-102.74728 -41.274494 21.034386 88 88 90
-99.587051 -57.698563 21.37302 108 121 114
-99.313416 -57.524891 21.351669 159 170 183
-98.320488 -57.446945 21.290895 149 154 157
-99.575455 -57.375477 21.370626 170 169 175
-99.26458 -57.306042 21.362717 121 125 128
-99.157356 -57.300526 21.373365 65 81 71
-98.239899 -57.284573 21.30533 101 120 114
-99.681778 -57.066692 21.3421 144 152 158
-99.313156 -57.09391 21.305504 126 137 138
-99.099152 -57.105793 21.302782 144 151 149
-98.954048 -57.162895 21.255465 84 85 87
-98.353134 -57.054386 21.277313 75 91 85
-99.48056 -56.913086 21.314306 108 121 116
-99.280273 -56.890289 21.317829 98 115 105
-99.178444 -56.958839 21.289808 95 109 98
-98.445877 -56.843971 21.296534 130 139 138
-98.371941 -56.901611 21.321426 109 113 120
-99.305862 -56.729073 21.32085 97 116 104
-99.195206 -56.786781 21.224154 97 113 103
-98.611862 -56.679676 21.320208 58 73 65
-98.455162 -56.765858 21.282692 124 128 133
-98.738564 -56.476936 21.23888 63 80 73
-98.485718 -56.525043 21.291304 114 123 125
-97.959526 -56.448982 21.282463 112 124 116
-98.869774 -56.301033 21.282333 147 158 166
-98.75312 -56.323505 21.256849 111 122 124
-98.546204 -56.242832 21.254093 95 108 106
-98.060272 -56.28299 21.344997 63 76 64
-97.947563 -56.293411 21.273592 57 78 64
-97.751869 -56.305202 21.264585 100 118 109
-97.485672 -56.239693 21.38921 132 150 150
-99.044373 -56.113945 21.241766 59 75 70
-98.897102 -56.087467 21.350487 104 115 114
-98.73513 -56.102066 21.328037 109 123 116
-98.577911 -56.174091 21.389019 128 137 146
-98.096237 -56.161072 21.35862 68 86 75
-97.841934 -56.127224 21.360415 65 88 72
-98.898384 -55.925129 21.313795 121 130 131
-98.746857 -55.986313 21.2201 148 152 153
-98.454521 -55.837452 21.23 104 118 113
-98.166634 -55.882523 21.257805 128 147 145
-97.312355 -55.93174 21.340878 50 72 59
-99.45713 -55.642422 21.256979 175 176 179
-99.334381 -55.735229 21.242193 163 160 160
-98.896141 -55.787384 21.385328 120 131 126
-98.683083 -55.727924 21.336531 110 123 117
-98.488846 -55.736317 21.325127 94 108 105
-98.283524 -55.700008 21.28393 105 121 119
-98.107353 -55.639637 21.280066 102 117 116
-97.896584 -55.666889 21.212887 69 88 77
-97.22554 -55.635201 21.25256 65 83 71
-96.875435 -55.609783 21.317575 94 109 106
-96.780708 -55.718246 21.222853 153 157 166
-99.429199 -55.546783 21.278061 181 181 182
-99.329407 -55.538376 21.275011 170 168 167
-98.235435 -55.40456 21.296404 82 100 102
-98.100014 -55.529949 21.300821 93 106 103
-97.87812 -55.524376 21.270027 110 128 128
-97.249794 -55.510365 21.339289 72 91 80
-97.056389 -55.501984 21.255665 63 80 68
-96.910675 -55.494278 21.275915 85 101 92
-98.070366 -55.292587 21.326857 109 120 121
-97.90126 -55.272552 21.250534 111 122 121
-97.655464 -55.258381 21.303011 78 97 87
-97.54837 -55.262753 21.260876 87 105 100
-97.266281 -55.304604 21.305717 102 113 107
-97.07032 -55.269089 21.354279 97 109 105
-96.864601 -55.352283 21.234114 60 81 70
-96.691994 -55.26228 21.229544 82 99 92
-98.801445 -55.035542 21.313049 43 67 54
-98.721748 -55.097675 21.270126 59 76 65
-98.446671 -55.049232 21.241634 60 81 65
-98.310066 -55.045761 21.231194 48 68 53
-98.06826 -55.166016 21.365347 96 111 111
-97.94178 -55.05835 21.309399 138 148 149
-97.685249 -55.084099 21.30987 92 109 101
-97.515495 -55.099049 21.302694 96 106 101
-97.306099 -55.097668 21.236765 116 124 121
-97.098358 -55.080563 21.315369 141 137 135
-96.829659 -55.147972 21.263935 89 107 103
-96.69957 -55.07859 21.293833 87 104 99
-96.422653 -55.0466 21.261433 89 103 90
-96.374252 -55.074425 21.257515 82 97 87
-98.873085 -54.904129 21.316357 155 156 160
-98.697372 -54.932533 21.248663 141 147 146
-98.468719 -54.928844 21.294258 76 92 81
-98.325615 -54.920444 21.269096 104 111 109
-98.051125 -54.93169 21.358881 96 112 106
-97.892166 -54.881199 21.311531 116 127 124
-97.696091 -54.916458 21.303619 103 119 115
-97.523109 -54.925854 21.297434 84 99 95
-97.326981 -54.974148 21.339375 114 124 124
-97.03196 -54.901752 21.306589 108 103 101
-96.986649 -54.827106 21.281851 49 71 59
-96.525688 -54.920151 21.303493 87 103 96
-98.627556 -54.76944 21.315847 119 127 123
-98.52433 -54.717789 21.261196 128 138 133
-98.037743 -54.726101 21.379314 134 148 151
-97.819557 -54.738194 21.298491 128 137 137
-97.688828 -54.73597 21.276329 128 138 140
-96.465355 -54.71756 21.311411 94 106 99
-96.362228 -54.749702 21.266666 110 120 114
-98.71843 -54.45031 21.249401 105 123 120
-98.456642 -54.520115 21.224144 177 193 192
-96.29277 -54.502834 21.310385 125 136 137
-96.149025 -54.474033 21.325857 136 148 151
-95.890221 -54.42934 21.280588 170 175 181
-95.345062 -54.558647 21.315912 126 136 144
-98.757851 -54.262203 21.232018 167 170 170
-96.024506 -54.325569 21.377388 178 182 191
-95.855621 -54.322067 21.288635 160 164 176
-95.740479 -54.297951 21.312492 196 193 214
-99.070168 -53.89608 21.210936 48 71 53
-96.920822 -53.842461 21.272764 111 126 121
-99.13208 -53.660225 21.31991 77 101 90
-98.854897 -53.701004 21.305553 110 117 115
-98.686867 -53.653492 21.295599 83 97 88
-98.514282 -53.648392 21.26759 62 77 67
-98.388382 -53.72702 21.233721 65 86 76
-98.098289 -53.669712 21.278917 55 74 57
-97.714478 -53.616055 21.274147 135 132 130
-97.430344 -53.666134 21.276516 44 79 55
-97.306053 -53.662674 21.247837 48 71 58
-97.082558 -53.674614 21.308254 70 91 81
-96.954369 -53.627979 21.273672 119 132 126
-96.730812 -53.631538 21.232235 135 139 135
-96.535858 -53.618782 21.233686 110 120 116
-99.20079 -53.577362 21.248302 151 155 154
-99.098038 -53.50378 21.292332 131 133 131
-98.853828 -53.476788 21.283096 158 151 151
-98.71125 -53.505493 21.312178 139 135 134
-98.523201 -53.510029 21.30809 118 119 119
-98.303734 -53.491676 21.288597 119 115 110
-98.122917 -53.495022 21.271292 95 100 96
-97.914795 -53.499123 21.279491 99 104 98
-97.692886 -53.454605 21.316883 91 95 87
-97.51532 -53.469986 21.254564 57 71 60
-97.254745 -53.507736 21.262823 63 79 68
-97.086678 -53.474407 21.280689 116 114 109
-96.876823 -53.490013 21.28315 114 118 115
-96.709442 -53.475197 21.274553 124 128 124
-96.521004 -53.454937 21.266333 115 119 115
-96.366005 -53.562172 21.232838 84 101 93
-95.878059 -53.457409 21.338745 69 92 83
-95.733383 -53.460869 21.26614 97 111 106
-95.578575 -53.470688 21.209673 103 118 113
-99.246323 -53.266228 21.263372 142 145 143
-99.10762 -53.276756 21.307528 117 118 115
-98.880112 -53.290352 21.275631 171 164 161
-98.714157 -53.312576 21.305653 173 163 162
-98.514046 -53.300793 21.309761 162 155 155
-98.286469 -53.324184 21.353291 134 129 130
-98.127602 -53.296864 21.286772 165 158 159
-97.913971 -53.30463 21.296852 115 111 110
-97.691986 -53.281269 21.323647 96 101 95
-97.498192 -53.267956 21.318472 100 108 103
-97.242157 -53.242432 21.357931 129 132 129
-97.080116 -53.296062 21.283287 139 133 131
-96.873581 -53.295063 21.310549 128 126 126
-96.710373 -53.296558 21.318838 131 131 129
-96.512764 -53.310837 21.342445 142 140 142
-96.301315 -53.296783 21.307444 102 110 108
-96.131035 -53.286282 21.290649 85 99 91
-95.87455 -53.276428 21.283388 118 128 124
-95.753304 -53.303398 21.295158 87 101 93
-95.553482 -53.27602 21.288609 108 122 118
-95.352844 -53.298424 21.246481 103 113 112
-99.274902 -53.074848 21.284573 144 147 143
-99.104294 -53.083755 21.270405 160 158 157
-98.90007 -53.12484 21.312439 174 170 167
-98.686882 -53.108803 21.345076 150 153 147
-98.553619 -53.150597 21.339495 169 168 163
-98.261871 -53.11718 21.31875 137 135 135
-98.076828 -53.114292 21.296839 136 136 132
-97.920105 -53.1208 21.304779 112 112 108
-97.727501 -53.120716 21.311523 119 126 119
-97.497086 -53.070824 21.284075 110 116 109
-97.290016 -53.075809 21.296463 147 147 142
-97.104492 -53.125137 21.319595 160 152 150
-96.886124 -53.12672 21.332973 161 158 158
-96.729713 -53.111938 21.348127 145 141 137
-96.507179 -53.106247 21.360371 165 161 166
-96.250755 -53.146248 21.349838 96 107 105
-96.094231 -53.111423 21.332432 104 114 107
-95.869881 -53.122562 21.294878 82 94 86
-95.73748 -53.042969 21.287083 81 93 82
-95.484436 -53.086483 21.346128 146 148 145
-95.306969 -53.103813 21.29085 171 172 164
-99.270782 -52.896442 21.313396 146 150 144
-99.086395 -52.919319 21.329765 173 171 167
-98.889534 -52.907467 21.300665 170 166 162
-98.712784 -52.906494 21.307047 150 151 148
-98.582596 -52.903625 21.323126 122 134 129
-98.283592 -52.899628 21.337961 143 144 141
-98.095482 -52.900219 21.297552 128 131 127
-97.886223 -52.882793 21.307278 134 131 129
-97.709801 -52.898392 21.256929 113 114 108
-97.503563 -52.920738 21.274181 136 139 132
-97.230888 -52.960613 21.356041 136 137 134
-96.864578 -52.976379 21.364473 122 120 119
-96.747681 -52.941132 21.37138 131 132 127
-96.579788 -52.946552 21.390579 197 188 186
-96.136421 -52.994476 21.311666 124 126 121
-95.901955 -52.887497 21.328056 141 148 138
-95.621704 -52.971298 21.33461 110 119 116
-99.274757 -52.678658 21.331406 136 142 136
-99.080055 -52.672657 21.311459 147 151 145
-98.919327 -52.69585 21.318232 155 156 149
-98.694313 -52.681126 21.347483 142 147 137
-98.516312 -52.696678 21.313929 155 157 154
-98.311127 -52.677269 21.305035 137 133 129
-98.080475 -52.709084 21.326828 133 133 128
-97.908997 -52.706776 21.339327 127 129 123
-97.740692 -52.721222 21.300995 124 128 120
-97.585648 -52.770454 21.252722 103 110 101
-96.04525 -52.638245 21.292368 138 143 137
-95.909401 -52.684311 21.253975 127 135 129
-95.495888 -52.743454 21.319471 100 107 103
-99.268974 -52.500553 21.315315 143 149 143
-99.090874 -52.521374 21.284517 140 148 142
-98.904037 -52.504883 21.301821 140 146 140
-98.678558 -52.499641 21.312637 144 149 143
-98.482925 -52.476673 21.303654 118 128 121
-98.302658 -52.507832 21.279087 109 116 106
-98.094948 -52.475574 21.288698 123 124 115
-97.905182 -52.49894 21.304842 127 131 121
-97.741989 -52.454315 21.300451 132 133 124
-97.564644 -52.50555 21.270145 126 128 119
-97.312157 -52.503422 21.215961 131 135 124
-97.114441 -52.421425 21.212919 89 97 82
-96.261292 -52.470234 21.261728 118 129 122
-96.09053 -52.499809 21.305758 121 132 127
-95.928329 -52.47802 21.316971 112 119 115
-95.708908 -52.433952 21.305042 105 108 101
-95.11834 -52.57729 21.237242 166 163 144
-99.243248 -52.389603 21.323072 140 149 138
-99.113365 -52.380238 21.34618 127 140 130
-98.861145 -52.320267 21.317513 134 138 130
-98.69265 -52.328659 21.314621 137 140 133
-98.49678 -52.296543 21.325306 132 136 129
-98.302177 -52.297478 21.318102 120 126 116
-98.095436 -52.305416 21.300928 104 112 100
-97.863106 -52.289368 21.296766 105 113 101
-97.722534 -52.327087 21.324263 115 122 111
-97.496567 -52.298908 21.324541 105 116 102
-97.347519 -52.312508 21.321508 92 104 90
-96.292213 -52.310997 21.33814 111 124 116
-96.123985 -52.31633 21.36393 104 114 110
-95.896996 -52.315964 21.341347 99 107 103
-95.686966 -52.304653 21.267717 112 118 110
-95.531609 -52.264324 21.265505 148 143 125
-99.004654 -52.078678 21.21541 109 124 114
-98.913765 -52.054626 21.263891 111 125 108
-98.698944 -52.092243 21.311632 115 125 112
-98.491508 -52.144997 21.302742 140 139 132
-98.295578 -52.105835 21.314548 94 103 91
-98.120026 -52.121628 21.333851 104 113 101
-97.895233 -52.116009 21.328604 145 143 135
-97.751991 -52.088577 21.297668 134 129 120
-97.444992 -52.065376 21.371658 113 122 110
-97.28701 -52.109829 21.289923 129 128 120
-97.068886 -52.009594 21.314617 135 133 130
-96.913979 -52.053909 21.291733 99 98 89
-96.28936 -52.174179 21.37615 104 114 106
-95.861122 -52.100246 21.300896 152 142 140
-95.702751 -52.120571 21.28487 130 128 127
-95.555557 -52.137466 21.236282 166 159 154
-94.454506 -52.106331 21.217171 179 177 164
-99.264435 -51.821831 21.210697 131 140 131
-99.11245 -51.872162 21.280128 137 142 136
-98.890907 -51.907215 21.322527 112 119 107
-98.736717 -51.898438 21.326393 119 121 113
-98.485588 -51.91396 21.279577 137 129 123
-98.315872 -51.883469 21.301727 119 118 109
-98.119194 -51.936768 21.286543 82 93 78
-97.867577 -51.912941 21.291431 120 123 111
-97.728539 -51.937138 21.32925 150 147 138
-97.576981 -51.932213 21.332769 106 114 101
-97.253189 -51.838242 21.346333 72 86 69
-97.126831 -51.897236 21.287127 117 121 110
-96.919846 -51.934189 21.227459 134 132 126
-95.816879 -51.85981 21.333014 169 162 159
-95.713867 -51.912403 21.300163 160 153 153
-95.5271 -51.894836 21.231787 144 147 140
-95.252907 -51.844673 21.316898 145 147 131
-95.132385 -51.835228 21.268608 155 155 138
-94.825531 -51.809025 21.301605 104 109 91
-94.728508 -51.834686 21.227137 179 175 164
-94.528694 -51.86507 21.311392 170 165 149
-94.35051 -51.856468 21.20269 187 173 160
-99.422516 -51.622742 21.218054 107 112 110
-99.253746 -51.709511 21.283794 119 130 121
-99.083084 -51.704002 21.291908 127 129 122
-98.884827 -51.728985 21.287003 138 139 135
-98.651199 -51.667912 21.311642 152 145 140
-98.499481 -51.711254 21.341612 165 158 150
-98.310005 -51.763874 21.29287 168 155 149
-97.89167 -51.790962 21.224251 91 93 86
-97.116791 -51.798882 21.321611 129 133 119
-96.942177 -51.79327 21.238518 94 102 87
-95.82515 -51.670967 21.317369 157 156 157
-95.699883 -51.684242 21.307602 145 145 142
-95.542221 -51.673767 21.289249 142 137 136
-95.296059 -51.683277 21.264994 204 196 188
-95.06424 -51.676121 21.285316 139 139 130
-94.896049 -51.690147 21.268167 146 147 135
-94.691628 -51.670475 21.279964 150 147 138
-94.477974 -51.72057 21.274687 162 156 147
-94.318565 -51.709431 21.313528 120 124 116
-99.483955 -51.467773 21.307566 155 151 155
-99.317215 -51.500908 21.31201 158 152 153
-99.139282 -51.546196 21.291864 129 126 123
-98.879257 -51.491413 21.355679 150 145 143
-98.644539 -51.490086 21.291031 144 142 135
-98.560593 -51.487213 21.320244 155 151 145
-95.856194 -51.492382 21.307451 167 155 156
-95.709488 -51.543079 21.312847 145 144 141
-95.51104 -51.507969 21.348196 160 151 145
-95.29818 -51.480743 21.320295 168 166 160
-95.047829 -51.502716 21.274338 174 170 164
-94.926842 -51.507435 21.324142 168 164 157
-94.72934 -51.538593 21.347284 173 171 166
-94.506248 -51.493023 21.299015 166 162 151
-94.391182 -51.560062 21.201725 174 168 158
-99.639412 -51.223831 21.241472 201 190 201
-99.503395 -51.295197 21.305038 143 142 139
-99.329613 -51.368168 21.334841 129 130 121
-99.06736 -51.246647 21.27808 162 157 153
-98.912086 -51.306995 21.302652 136 139 131
-98.720741 -51.373058 21.322132 125 129 119
-95.872398 -51.29866 21.321766 148 145 137
-95.647156 -51.285027 21.331118 152 143 135
-95.473206 -51.253807 21.247797 150 148 140
-95.302742 -51.261234 21.237598 132 136 126
-95.084961 -51.291824 21.297911 151 153 142
-94.904205 -51.312817 21.323036 162 162 153
-94.685204 -51.295254 21.336775 168 166 157
-94.517929 -51.29961 21.280493 152 149 139
-94.354492 -51.261902 21.298016 103 105 99
-99.882507 -51.098473 21.224123 176 161 170
-99.638283 -51.10461 21.283817 179 172 175
-99.49472 -51.091652 21.288073 165 165 166
-99.248322 -51.05196 21.298553 161 157 155
-99.125038 -51.111237 21.318966 156 154 150
-98.914619 -51.129627 21.333242 156 151 153
-98.076851 -51.050419 21.273163 90 105 88
-97.955612 -51.049896 21.339783 81 97 80
-97.731697 -51.063087 21.278923 123 133 118
-97.515854 -51.156311 21.386168 94 114 87
-95.86969 -51.089611 21.336544 132 135 130
-95.688034 -51.087669 21.27269 151 144 140
-95.48658 -51.097763 21.28512 164 157 152
-95.320198 -51.09449 21.285105 140 142 133
-95.093781 -51.10651 21.317287 139 146 135
-94.931946 -51.112316 21.330795 135 142 129
-94.674332 -51.083611 21.351147 174 171 163
-94.534454 -51.121803 21.303432 160 157 150
-94.326736 -51.086189 21.299021 167 163 148
-93.668144 -51.051872 21.24295 127 120 119
-93.328499 -51.022491 21.32785 101 105 106
-100.07289 -50.833054 21.23975 194 188 195
-99.903503 -50.811077 21.296421 150 149 141
-99.69857 -50.863064 21.293148 134 135 125
-99.50985 -50.923145 21.284678 164 165 164
-99.297882 -50.900814 21.293575 159 153 153
-99.100243 -50.909237 21.283691 141 146 140
-98.704346 -50.99955 21.202591 102 114 100
-98.22673 -50.825935 21.318092 80 92 73
-98.078331 -50.916912 21.30826 63 79 60
-97.927269 -50.935398 21.314491 79 91 75
-97.735527 -50.944397 21.378487 118 122 103
-96.824707 -50.860836 21.326284 82 99 83
-95.871887 -50.927498 21.335629 119 126 117
-95.709145 -50.884003 21.30904 123 123 115
-95.469002 -50.907017 21.297644 155 150 141
-95.290199 -50.896534 21.283455 134 134 127
-95.145828 -50.929314 21.33378 143 146 137
-94.990334 -50.82489 21.301941 110 109 105
-94.658249 -50.892658 21.317146 185 176 170
-94.532341 -50.915245 21.292425 160 156 152
-94.312668 -50.918922 21.280075 156 154 150
