ply
format ascii 1.0
comment PCL generated
element vertex 1095
property float x
property float y
property float z
property uchar red
property uchar green
property uchar blue
element face 0
element camera 0
property float view_px
property float view_py
property float view_pz
property float x_axisx
property float x_axisy
property float x_axisz
property float y_axisx
property float y_axisy
property float y_axisz
property float z_axisx
property float z_axisy
property float z_axisz
property float focal
property float scalex
property float scaley
property float centerx
property float centery
property int viewportx
property int viewporty
property float k1
property float k2
end_header
-57.887741 -79.055359 23.132339 96 113 109
-57.660301 -79.117577 23.100567 111 121 115
-57.511829 -79.083572 23.078234 103 115 109
-57.286194 -79.120361 23.052382 98 109 103
-57.080978 -79.093254 23.083498 105 115 108
-56.91116 -79.066727 23.110849 101 112 106
-56.660625 -79.129059 23.10252 99 108 103
-56.525742 -79.082069 23.151793 107 118 106
-56.312344 -79.053337 23.068462 107 120 111
-56.17168 -79.063675 23.043163 90 101 94
-55.61985 -79.104042 23.174803 99 112 102
-55.466423 -79.077454 23.102461 112 121 111
-55.34668 -79.083511 23.082645 127 137 128
-54.894897 -79.056587 23.024408 95 105 99
-54.791138 -79.074829 23.040344 111 121 114
-58.457939 -78.916634 23.026508 109 122 114
-58.323174 -78.951965 23.089893 101 115 104
-58.087418 -78.908943 23.100805 117 127 115
-57.903976 -78.878441 23.133307 116 127 117
-57.67979 -78.893753 23.087795 106 120 111
-57.526695 -78.893387 23.11697 107 120 114
-57.228832 -78.966949 23.109966 98 107 105
-57.127316 -78.933739 23.127747 109 118 113
-56.918285 -78.904213 23.10021 94 105 98
-56.736023 -78.932899 23.166147 120 120 123
-56.507076 -78.896706 23.128801 124 130 123
-56.338318 -78.884392 23.141859 127 133 130
-56.136154 -78.832718 23.105732 111 116 115
-55.829147 -78.811531 23.070112 86 102 96
-55.672157 -78.840546 23.141235 110 121 113
-55.48851 -78.856461 23.102814 113 123 116
-55.347118 -78.882408 23.089634 93 107 97
-54.925629 -78.913689 23.043343 113 122 116
-54.771553 -78.951416 23.074352 117 122 116
-58.46487 -78.703766 23.070177 108 120 110
-58.375404 -78.706963 23.106352 125 134 129
-57.656418 -78.765411 23.101196 125 136 130
-57.521805 -78.745132 23.10063 111 121 117
-57.009842 -78.631973 23.04241 90 90 102
-56.870403 -78.65435 23.067017 97 105 102
-56.723835 -78.653542 23.102236 125 136 130
-56.463058 -78.709526 23.129427 111 122 112
-56.320557 -78.703499 23.105986 101 108 103
-56.108608 -78.684799 23.133602 113 124 117
-55.92181 -78.654839 23.098488 124 132 128
-55.700756 -78.667282 23.089127 111 121 116
-55.558228 -78.621437 23.150047 107 114 106
-55.282246 -78.699539 23.129551 102 114 108
-55.181217 -78.61908 23.04351 124 127 126
-58.689388 -78.582626 23.014637 70 86 76
-58.155754 -78.485023 23.008686 118 127 124
-56.879299 -78.549995 23.110338 102 111 108
-56.723648 -78.486 23.087404 115 124 118
-56.485714 -78.446426 23.088881 134 141 136
-56.334965 -78.481384 23.108353 116 124 120
-56.072559 -78.556084 23.099365 101 106 106
-55.878273 -78.55291 23.188835 153 155 154
-55.511604 -78.508278 23.087543 108 119 115
-55.294056 -78.509583 23.086376 113 121 116
-58.428646 -78.386406 23.013502 93 106 96
-58.279461 -78.313377 23.032692 140 141 138
-58.170219 -78.264954 23.154182 66 67 71
-57.096344 -78.265503 23.021435 106 117 115
-56.870605 -78.304855 23.04895 108 120 116
-56.667488 -78.283348 23.113571 108 118 113
-56.512295 -78.309464 23.09384 127 134 128
-56.355907 -78.383484 23.188465 99 103 102
-55.423454 -78.372025 23.173552 123 126 124
-55.367828 -78.380386 23.175081 113 125 121
-54.459503 -78.335571 23.00573 66 86 77
-54.316231 -78.290688 23.027393 78 98 84
-54.195606 -78.223595 23.121935 107 120 110
-57.037376 -78.129013 23.031868 93 104 97
-56.864746 -78.087784 23.105915 106 114 109
-56.684681 -78.10775 23.121687 113 121 114
-56.546116 -78.123421 23.095108 129 136 130
-56.320446 -78.138588 23.036491 82 94 86
-54.755527 -78.109116 23.018108 118 128 118
-54.492981 -78.066147 23.078997 91 105 94
-54.299946 -78.092979 23.124159 96 107 96
-54.096848 -78.077469 23.071699 113 123 111
-53.96574 -78.04921 23.068253 85 95 80
-56.83931 -77.928017 23.096277 100 110 102
-56.71949 -77.932388 23.080528 129 137 128
-56.510269 -77.924576 23.055769 118 123 119
-55.524254 -77.938698 23.029921 97 114 104
-55.029762 -77.913437 23.125126 76 91 92
-54.834923 -77.910492 23.122097 105 117 113
-54.712517 -77.964661 23.103539 119 128 118
-54.492306 -77.903763 23.097416 112 119 106
-54.303635 -77.934746 23.10404 133 139 125
-54.09977 -77.920906 23.132036 131 136 122
-53.884876 -77.862038 23.097263 137 145 132
-53.750179 -77.839935 23.061718 99 107 92
-53.520336 -77.928658 23.042282 96 109 100
-56.435951 -77.718033 23.038399 102 112 103
-56.164684 -77.678169 23.064278 86 98 88
-55.965172 -77.629921 23.083294 129 142 133
-55.689884 -77.665527 23.006889 159 160 155
-55.593739 -77.650795 23.005459 130 134 122
-55.375301 -77.608559 23.021957 115 114 103
-54.850056 -77.798309 23.177895 122 127 117
-54.671021 -77.731964 23.147026 147 147 137
-54.433239 -77.733727 23.165815 146 149 130
-54.271595 -77.719879 23.137117 139 144 129
-54.076111 -77.712097 23.102116 158 157 144
-53.933754 -77.721344 23.082468 132 140 124
-53.726685 -77.749695 23.092897 107 117 103
-53.495411 -77.696053 23.135387 118 127 114
-53.261726 -77.609116 23.019232 66 84 70
-56.634346 -77.491745 23.092369 101 118 111
-56.479927 -77.507195 23.116819 82 96 91
-56.290211 -77.499001 23.06189 109 120 109
-56.086376 -77.468964 23.093241 114 121 112
-55.910942 -77.484154 23.037655 137 139 127
-55.679562 -77.448303 23.04422 121 126 113
-55.520809 -77.502625 23.082994 128 131 122
-55.376514 -77.452698 23.04355 121 119 107
-54.812141 -77.483986 23.189194 138 134 123
-54.759041 -77.487877 23.098949 125 126 115
-54.215897 -77.566948 23.169401 154 156 151
-54.062401 -77.557732 23.141617 142 151 134
-53.903748 -77.522774 23.18329 127 137 125
-53.693157 -77.47554 23.099102 110 124 107
-53.48661 -77.492531 23.104685 139 146 129
-53.25972 -77.509033 23.057102 82 100 84
-53.142727 -77.43795 23.113951 96 108 89
-56.65984 -77.27919 23.070026 109 113 111
-56.486897 -77.305336 23.109581 98 107 106
-56.26133 -77.300896 23.097216 126 129 119
-56.069305 -77.313324 23.109869 137 137 125
-55.883873 -77.308739 23.132849 131 136 121
-55.705997 -77.287155 23.11331 132 138 123
-55.579704 -77.245766 23.122896 128 127 123
-55.31028 -77.287735 23.070244 112 112 113
-54.821247 -77.310226 23.086855 117 122 106
-53.821045 -77.276535 23.102373 107 126 107
-53.678055 -77.305199 23.122957 110 125 107
-53.463619 -77.296562 23.129536 114 128 111
-53.305538 -77.342918 23.135126 110 121 106
-53.163307 -77.297287 23.095003 121 126 112
-52.828136 -77.242737 23.090899 54 75 58
-56.646069 -77.126381 23.029409 125 120 126
-56.46471 -77.080025 23.060797 126 128 121
-56.351471 -77.078323 23.14378 160 162 152
-56.114124 -77.102325 23.112007 135 141 127
-55.881973 -77.086906 23.131437 118 125 111
-55.698544 -77.086983 23.060656 124 136 120
-54.911949 -77.104729 23.090641 141 143 127
-53.696426 -77.139748 23.148367 107 123 104
-53.488663 -77.105659 23.105639 113 126 109
-53.303314 -77.092972 23.09219 123 133 120
-53.125561 -77.039841 23.111313 117 129 117
-52.905117 -77.117752 23.055857 113 121 109
-52.727329 -77.064522 23.049799 114 127 113
-56.870193 -76.854805 23.051394 92 106 98
-56.68885 -76.879593 23.07147 86 96 87
-56.5131 -76.916237 23.077818 117 125 116
-56.266365 -76.879089 23.084665 136 144 127
-56.089428 -76.894753 23.103989 127 137 121
-55.874847 -76.907021 23.092815 139 142 132
-55.698261 -76.921806 23.087559 125 132 120
-55.508072 -76.896431 23.074839 125 122 116
-55.341202 -76.89695 23.120935 109 104 101
-55.11795 -76.907631 23.10886 141 142 132
-54.988831 -76.966232 23.106335 156 158 136
-53.471447 -76.926025 23.078869 112 123 108
-53.280903 -76.865952 23.072803 111 123 109
-53.124863 -76.890839 23.071859 109 124 108
-52.932667 -76.871841 23.073296 122 136 119
-52.786453 -76.90863 23.021746 125 135 118
-60.114487 -76.601624 23.121307 49 61 57
-57.03833 -76.708809 23.059341 115 122 115
-56.908787 -76.692482 23.07781 138 148 139
-56.717422 -76.717194 23.096395 109 117 110
-56.488052 -76.720734 23.114479 129 135 123
-56.271599 -76.698166 23.075443 114 121 106
-56.094597 -76.693558 23.098 133 137 122
-55.916862 -76.709763 23.139397 140 148 131
-55.748672 -76.711052 23.085646 120 119 113
-55.504208 -76.698143 23.077835 113 110 109
-55.34507 -76.670456 23.130695 135 129 129
-55.164272 -76.641396 23.117544 142 139 145
-54.94154 -76.769615 23.107168 135 141 119
-53.609924 -76.660294 23.14893 100 120 108
-53.461376 -76.728271 23.083715 109 120 107
-53.294331 -76.696861 23.086443 109 119 108
-53.118626 -76.722961 23.08424 109 118 106
-52.911514 -76.702469 23.108381 104 116 101
-52.697609 -76.691032 23.065435 106 121 103
-52.576786 -76.600548 23.039074 134 151 134
-61.449482 -76.501953 23.050865 63 74 61
-61.338177 -76.435814 23.047462 65 76 63
-60.3176 -76.551414 23.108885 50 60 61
-59.961651 -76.457314 23.092367 52 65 56
-57.320415 -76.465027 23.037086 119 109 117
-57.069458 -76.498314 23.135527 146 147 140
-56.866959 -76.492813 23.094151 142 146 128
-56.701969 -76.529892 23.108927 131 141 122
-56.524563 -76.467705 23.071163 123 131 116
-56.263283 -76.53437 23.068527 153 155 145
-56.080761 -76.501167 23.042334 135 144 127
-55.92585 -76.539566 23.066589 122 130 117
-55.729916 -76.445427 23.128536 101 96 97
-55.494816 -76.512634 23.128031 130 123 121
-53.471981 -76.45594 23.084913 99 102 95
-53.296047 -76.484856 23.085606 97 104 95
-53.080765 -76.499481 23.047365 117 119 112
-52.953289 -76.487648 23.089117 113 118 108
-52.706818 -76.530556 23.137329 118 132 117
-52.508644 -76.489967 23.062267 126 136 121
-52.310421 -76.458733 23.062334 120 131 117
-52.138756 -76.50695 23.071592 82 96 79
-50.747429 -76.428162 23.01787 158 139 133
-61.506409 -76.311104 23.031433 172 167 161
-61.333321 -76.289459 23.123909 112 116 101
-61.120617 -76.298737 23.078699 82 83 70
-60.681461 -76.206551 23.115486 60 62 61
-60.300014 -76.399521 23.113064 61 71 62
-60.076122 -76.29985 23.176414 120 137 124
-59.776005 -76.206604 23.027494 122 137 114
-57.227081 -76.286789 23.057613 109 113 107
-57.022335 -76.374741 23.160908 144 144 126
-56.85619 -76.307419 23.053425 124 131 118
-56.683014 -76.253021 23.088184 125 138 121
-56.556999 -76.279137 23.120094 100 113 96
-56.270973 -76.266022 23.070217 127 135 120
-56.051308 -76.28035 23.152004 129 133 121
-55.915359 -76.273026 23.111668 122 118 116
-55.705849 -76.260628 23.085773 141 136 134
-55.409004 -76.338799 23.078257 166 157 171
-55.303696 -76.283249 23.134129 117 108 111
-55.113766 -76.265976 23.143476 129 115 125
-54.910004 -76.297729 23.122711 106 105 104
-53.466633 -76.315643 23.143694 81 77 74
-53.211708 -76.365997 23.078358 89 96 88
-53.108887 -76.34623 23.111427 115 117 112
-52.923698 -76.385468 23.073204 123 129 120
-52.749989 -76.29747 23.111336 109 113 105
-52.446125 -76.378532 23.169195 133 144 131
-52.296223 -76.323021 23.105816 137 146 134
-52.114948 -76.287666 23.095053 144 153 135
-50.751762 -76.325966 23.030678 201 190 184
-49.263012 -76.310333 23.010117 186 182 170
-63.186062 -76.190941 23.120993 167 174 156
-61.471405 -76.084129 23.133179 151 149 142
-61.309624 -76.124161 23.167416 150 154 138
-61.076641 -76.101677 23.121571 155 161 142
-60.923866 -76.116913 23.119305 132 139 125
-60.71286 -76.123589 23.195637 58 64 64
-60.124367 -76.110214 23.174259 124 131 114
-59.845604 -76.100861 23.091644 142 150 127
-59.703613 -76.136238 23.108374 134 143 127
-59.561756 -76.031357 23.057886 135 150 121
-57.216068 -76.082848 23.078705 84 90 83
-57.061584 -76.098061 23.071215 113 122 113
-56.898438 -76.074844 23.089388 128 135 120
-56.737064 -76.094757 23.087349 139 151 133
-56.508007 -76.081482 23.07432 120 125 113
-56.295193 -76.105568 23.082247 102 105 95
-56.120773 -76.104729 23.131926 135 135 125
-55.936222 -76.12664 23.14492 136 134 131
-55.66127 -76.015175 23.175764 110 112 104
-55.519791 -76.052979 23.148167 128 125 127
-55.214619 -76.106926 23.182785 108 93 102
-55.167233 -76.149544 23.161001 90 85 91
-54.993221 -76.09449 23.068148 118 108 117
-54.449188 -76.137573 23.053082 126 125 121
-54.322281 -76.144699 23.100632 115 123 114
-52.241741 -76.11898 23.116501 127 138 120
-52.177486 -76.082329 23.146395 126 136 119
-49.019337 -76.173271 23.019457 204 184 186
-61.88916 -75.86409 23.009296 124 127 120
-61.701832 -75.842834 23.134558 149 152 138
-61.490562 -75.91494 23.087631 144 146 135
-61.051731 -75.924942 23.153049 138 147 123
-60.772507 -75.967918 23.089067 113 127 102
-60.09993 -75.937729 23.159698 125 140 113
-59.893517 -75.909706 23.10083 113 131 108
-59.719048 -75.863503 23.079138 117 132 111
-59.496445 -75.879776 23.080095 131 145 123
-59.257099 -75.865204 23.056629 127 141 116
-57.051754 -75.923264 23.052885 138 144 128
-56.863415 -75.963341 23.094313 137 147 131
-56.727867 -75.940826 23.140675 129 136 121
-56.520821 -75.942184 23.110903 118 119 108
-56.300438 -75.9272 23.133602 134 136 125
-56.121773 -75.885933 23.123257 105 107 98
-55.907486 -75.911476 23.154444 130 132 123
-55.690395 -75.895439 23.138239 129 125 124
-55.530785 -75.928291 23.170767 103 102 101
-55.299957 -75.894699 23.132051 106 105 101
-55.078609 -75.900314 23.187683 72 62 70
-54.529854 -75.94944 23.14752 113 100 105
-52.228588 -75.943329 23.112844 128 143 126
-52.134609 -75.92717 23.142971 97 108 95
-51.921093 -75.848305 23.136229 82 95 79
-51.654873 -75.820488 23.10314 96 114 98
-49.752811 -75.847466 23.02878 180 160 151
-62.227757 -75.675102 23.092335 122 124 113
-61.935303 -75.695068 23.058018 137 143 130
-61.722397 -75.767357 23.054171 180 186 167
-60.038223 -75.788368 23.165127 111 126 101
-59.946156 -75.792175 23.166239 110 128 105
-59.677368 -75.688644 23.104181 106 122 103
-59.545021 -75.705223 23.119305 120 133 115
-59.270969 -75.675865 23.136312 113 127 106
-59.177017 -75.674431 23.179016 102 115 92
-57.05769 -75.694572 23.049585 122 126 111
-56.880573 -75.710777 23.146557 151 160 140
-56.699013 -75.699684 23.14333 133 138 121
-56.497696 -75.778511 23.118357 117 126 110
-56.329269 -75.644348 23.161209 170 192 169
-56.072384 -75.666702 23.070301 114 127 106
-55.852715 -75.790482 23.183456 101 94 97
-55.777515 -75.799622 23.063822 115 129 130
-55.294205 -75.725983 23.147091 113 112 108
-52.165039 -75.688087 23.117544 124 137 122
-51.915363 -75.710579 23.068382 111 125 106
-49.721256 -75.687698 23.074909 209 188 187
-62.103687 -75.529427 23.103247 167 169 166
-61.838959 -75.527611 23.170456 149 151 135
-59.639191 -75.5476 23.143902 102 120 98
-59.467091 -75.543999 23.117304 96 112 94
-59.265358 -75.411232 23.113962 89 107 87
-59.093037 -75.479599 23.071964 115 130 109
-58.991516 -75.451874 23.140293 109 122 98
-57.220589 -75.429138 23.131512 72 85 76
-57.094116 -75.460175 23.13509 121 130 112
-56.929672 -75.490234 23.144381 127 124 113
-56.698627 -75.489914 23.102083 138 142 126
-56.296341 -75.435654 23.087713 162 158 153
-56.172604 -75.497543 23.171055 106 122 96
-55.857521 -75.583282 23.161987 98 113 94
-55.738213 -75.478111 23.161436 100 102 99
-55.327881 -75.408981 23.194485 107 118 102
-53.344563 -75.539001 23.154976 91 110 90
-52.99044 -75.412201 23.010515 93 107 90
-52.296368 -75.414009 23.071445 108 123 109
-52.056633 -75.45919 23.043743 116 129 115
-51.912159 -75.461639 23.086212 111 123 112
-51.711674 -75.460152 23.088081 118 124 116
-51.50602 -75.448853 23.065422 131 132 126
-51.273636 -75.477257 23.054886 131 136 130
-51.159828 -75.50177 23.121206 100 96 97
-49.676231 -75.579117 23.092762 220 202 197
-60.333965 -75.245872 23.088161 100 121 103
-59.659416 -75.26487 23.145859 66 87 70
-59.492275 -75.299477 23.060436 81 100 81
-59.283146 -75.332138 23.07893 85 103 84
-59.112213 -75.287888 23.09041 95 113 93
-58.947601 -75.311371 23.106188 111 123 101
-57.224709 -75.345863 23.134789 98 100 94
-57.113441 -75.286621 23.119505 111 124 108
-56.900208 -75.287384 23.103197 132 141 121
-56.69648 -75.314728 23.13773 146 150 137
-56.319782 -75.31646 23.101801 116 126 106
-56.082214 -75.310356 23.141993 123 112 121
-55.910019 -75.327919 23.13855 120 111 118
-55.737118 -75.227287 23.145046 116 89 105
-55.160309 -75.237404 23.024973 92 94 83
-54.941383 -75.247421 23.168766 119 137 115
-54.789875 -75.263016 23.060446 107 118 102
-52.863361 -75.27227 23.162218 87 94 84
-52.706322 -75.223312 23.043812 92 105 94
-52.511387 -75.308922 23.11171 97 110 98
-52.29636 -75.30571 23.123461 99 112 100
-52.099846 -75.300446 23.116083 106 118 104
-51.902122 -75.320435 23.149708 114 124 112
-51.711441 -75.345558 23.159525 116 121 113
-51.47514 -75.322754 23.125473 141 144 136
-51.318542 -75.304077 23.095728 132 135 124
-51.179382 -75.239273 23.163055 136 141 130
-60.240604 -75.109215 23.063354 89 103 95
-60.047367 -75.131744 23.145729 115 115 117
-59.772831 -75.183617 23.116261 94 113 93
-59.459663 -75.039146 23.044504 102 120 103
-59.266689 -75.087898 23.041998 107 121 103
-59.123852 -75.107704 23.107546 93 111 89
-57.277973 -75.155991 23.130976 154 149 140
-57.129463 -75.138847 23.064016 102 113 98
-56.9021 -75.110428 23.136129 117 128 111
-56.737015 -75.073174 23.106262 131 133 122
-56.55912 -75.121696 23.195034 133 122 118
-56.109447 -75.106857 23.094173 153 142 149
-55.941216 -75.045097 23.104202 101 87 102
-55.762856 -75.125923 23.115757 129 122 122
-55.239655 -75.041801 23.088465 100 105 93
-52.709751 -75.096931 23.120714 91 104 92
-52.487797 -75.145058 23.139359 92 101 91
-52.263771 -75.004173 23.10145 104 118 106
-52.095997 -75.135498 23.132236 85 97 85
-51.890892 -75.121925 23.113008 106 113 104
-51.7607 -75.093071 23.15695 105 114 102
-51.470943 -75.094315 23.110394 128 138 124
-51.335136 -75.126556 23.090658 131 142 126
-51.152313 -75.124695 23.085091 142 152 138
-60.133324 -74.925812 23.035076 103 109 100
-59.611973 -74.830338 23.136881 116 128 112
-59.525188 -74.900276 23.064081 107 120 106
-59.31963 -74.92202 23.111431 91 108 90
-59.107529 -74.934837 23.072775 88 108 89
-57.043011 -74.867592 23.037104 112 114 105
-56.886696 -74.90519 23.08893 127 131 117
-56.728123 -74.912712 23.131775 135 131 127
-56.510605 -74.950577 23.096367 129 127 122
-56.341167 -74.822784 23.118135 162 146 154
-56.105022 -74.906334 23.151958 122 93 115
-55.897484 -74.879929 23.114271 133 111 129
-55.768253 -74.913956 23.162851 148 133 145
-54.21191 -74.815521 23.09341 104 111 103
-54.194077 -74.918907 23.05719 120 133 123
-52.674866 -74.937935 23.096827 80 84 79
-52.533688 -74.860847 23.118517 91 88 88
-52.256378 -74.892914 23.127914 104 105 100
-52.164318 -74.906532 23.069849 117 111 113
-51.689674 -74.913666 23.133633 113 120 110
-51.489948 -74.904381 23.118685 118 125 114
-51.321712 -74.884399 23.076244 129 136 124
-51.139088 -74.897186 23.137823 122 136 123
-49.892033 -74.843994 23.022955 149 151 140
-59.891281 -74.607124 23.113314 51 74 56
-59.634155 -74.750435 23.053537 143 157 134
-59.542316 -74.63781 23.055328 107 123 107
-59.274689 -74.766708 23.094 92 107 91
-59.032467 -74.643768 23.105406 100 110 98
-58.94828 -74.633469 23.100962 111 127 111
-57.070984 -74.665398 23.069242 119 124 113
-56.925232 -74.710846 23.084137 136 142 127
-56.72052 -74.6614 23.134338 120 120 113
-56.492588 -74.668282 23.081518 119 123 117
-56.379662 -74.687668 23.187092 139 132 128
-56.057861 -74.715973 23.118505 91 86 88
-55.929394 -74.700142 23.157038 150 139 148
-54.48732 -74.706627 23.006769 93 99 87
-54.254284 -74.723068 23.142738 112 122 111
-54.130913 -74.748047 23.149633 99 95 94
-52.258499 -74.702522 23.111431 141 141 133
-52.09951 -74.645081 23.126392 120 119 120
-51.67112 -74.778404 23.155245 73 85 80
-51.476971 -74.733299 23.167505 120 127 117
-51.308544 -74.711578 23.119919 113 120 109
-51.135742 -74.675194 23.077154 124 132 120
-50.905655 -74.680183 23.021048 134 142 134
-60.679695 -74.459862 23.131462 113 116 107
-60.535805 -74.516052 23.177397 113 123 115
-59.900822 -74.466469 23.068592 98 116 98
-59.781872 -74.426071 23.041327 72 92 80
-59.462341 -74.483711 23.076298 93 100 90
-59.321972 -74.47274 23.090536 94 112 96
-59.082493 -74.47934 23.064598 102 117 104
-58.908398 -74.463524 23.096394 104 119 101
-57.258038 -74.560509 23.047686 165 176 159
-57.078434 -74.496422 23.072132 132 138 122
-56.908924 -74.480522 23.090361 135 142 125
-56.706154 -74.503708 23.135935 135 130 129
-56.463432 -74.590424 23.158897 103 111 92
-56.31459 -74.523071 23.140259 114 119 113
-56.154469 -74.559303 23.080475 98 100 96
-55.830357 -74.449646 23.182869 106 104 98
-55.61058 -74.481834 23.061779 93 95 84
-53.867218 -74.547195 23.030426 97 111 98
-53.183243 -74.499008 23.058578 112 130 110
-52.281658 -74.481003 23.140116 119 123 118
-52.094723 -74.501823 23.124071 121 121 118
-51.936821 -74.477943 23.096354 116 122 117
-51.619251 -74.421616 23.146416 108 118 108
-51.503262 -74.446541 23.111481 113 124 113
-51.273449 -74.471481 23.149788 152 151 138
-51.141434 -74.495644 23.147696 128 129 117
-60.726486 -74.361465 23.133282 129 129 123
-60.209129 -74.227882 23.07852 80 103 86
-60.080399 -74.277092 23.09428 85 104 86
-59.711956 -74.301819 23.116415 86 105 90
-59.489052 -74.296539 23.092907 93 106 92
-59.345112 -74.290466 23.099957 92 103 92
-59.085869 -74.286484 23.060795 102 119 104
-58.935001 -74.308685 23.085804 96 113 96
-57.060596 -74.323174 23.077166 125 127 116
-56.936043 -74.255424 23.152208 103 116 96
-56.789867 -74.233406 23.159967 142 146 129
-56.43401 -74.26944 23.062531 122 134 113
-56.121063 -74.279396 23.117008 131 117 125
-55.942852 -74.308273 23.121298 109 102 105
-55.490974 -74.227005 23.098293 112 105 104
-55.312958 -74.314774 23.023771 113 118 99
-54.703014 -74.315887 23.088846 131 140 131
-52.442986 -74.316513 23.187624 96 104 89
-52.365723 -74.388763 23.14831 121 135 118
-52.067081 -74.330635 23.125465 113 117 111
-51.877697 -74.25705 23.106878 111 116 110
-51.651291 -74.298782 23.137552 109 117 110
-51.509995 -74.304161 23.10994 110 117 111
-51.296638 -74.280922 23.139168 122 125 119
-51.14658 -74.305061 23.114393 134 141 130
-50.928349 -74.310852 23.086929 152 163 154
-50.013344 -74.34684 23.002848 127 123 122
-49.954342 -74.349152 23.013985 104 102 105
-61.263786 -74.096321 23.041592 84 104 85
-61.09016 -74.027679 23.180338 76 98 85
-60.639221 -74.102676 23.054134 91 109 92
-60.481094 -74.115082 23.123993 84 109 90
-60.151161 -74.072037 23.064728 89 107 92
-59.838581 -74.111794 23.130201 114 126 110
-59.704224 -74.065018 23.116314 99 112 99
-59.415619 -74.096703 23.050362 77 87 78
-59.309093 -74.110847 23.061958 87 100 90
-59.114025 -74.12867 23.09683 109 123 110
-58.951942 -74.142143 23.128147 101 118 104
-57.079781 -74.158386 23.0611 68 86 67
-56.873619 -74.160706 23.096174 134 139 123
-56.782219 -74.119164 23.055037 122 133 114
-56.493645 -74.080254 23.102583 118 130 109
-56.315643 -74.092064 23.08555 117 118 110
-56.134041 -74.102478 23.115091 126 123 118
-55.980751 -74.177147 23.003632 127 117 115
-55.686165 -74.093498 23.024025 134 106 131
-55.466038 -74.144188 23.12944 104 107 94
-55.32682 -74.154579 23.177307 114 119 104
-53.861832 -74.155334 23.10697 95 97 86
-52.820927 -74.127533 23.130833 137 112 131
-52.504139 -74.060867 23.119999 108 111 108
-52.336964 -74.083916 23.116282 111 113 112
-52.079746 -74.116302 23.137089 98 101 100
-51.878708 -74.082291 23.097471 102 105 100
-51.700764 -74.114677 23.115841 100 107 98
-51.556812 -74.120209 23.140234 98 106 99
-51.269657 -74.143829 23.170025 121 122 117
-51.171715 -74.089378 23.088602 130 134 130
-48.841431 -74.028671 23.068035 218 206 202
-48.710476 -74.010307 23.117296 206 186 178
-61.497501 -73.802429 23.066462 117 133 106
-60.694752 -73.929184 23.120619 104 120 100
-60.464359 -73.876419 23.060673 71 96 78
-60.136406 -73.919876 23.114943 122 131 121
-59.918396 -73.895172 23.059811 113 133 117
-59.77309 -73.971603 23.138786 89 109 98
-59.525276 -73.988495 23.147352 103 114 107
-59.311268 -73.925514 23.13163 131 147 136
-57.055817 -73.861832 23.056961 68 89 70
-56.877987 -73.887161 23.104607 133 137 126
-56.699253 -73.908844 23.11405 125 134 114
-56.486877 -73.881897 23.103966 133 140 120
-56.302757 -73.896744 23.091967 114 115 107
-56.082653 -73.904243 23.114748 134 128 134
-55.917557 -73.842102 23.079506 151 123 151
-55.762653 -73.922134 23.0214 86 68 82
-55.574619 -73.896027 23.05724 101 87 97
-55.329445 -73.942223 23.010193 65 69 54
-55.125832 -73.87825 23.188753 90 97 78
-53.775616 -73.859001 23.05481 178 167 175
-53.02879 -73.994308 23.087673 92 104 94
-52.907345 -73.874168 23.116302 114 110 111
-52.670414 -73.870148 23.105829 113 121 110
-52.459564 -73.867462 23.149508 115 119 113
-52.319153 -73.922531 23.130604 99 105 100
-52.139778 -73.949654 23.110058 93 98 92
-51.936535 -73.930115 23.130915 106 107 105
-51.712967 -73.900208 23.120535 118 121 115
-51.536575 -73.949615 23.143984 108 110 111
-51.253208 -73.849319 23.124224 130 136 128
-51.137268 -73.899559 23.079882 149 154 146
-50.952259 -73.814629 23.142857 121 108 115
-49.085239 -73.856834 23.040829 185 155 157
-48.737015 -73.895691 23.076811 220 199 197
-62.144325 -73.796059 23.164175 140 144 121
-60.907413 -73.605553 23.016058 123 141 124
-60.644295 -73.759262 23.10236 102 119 95
-60.475208 -73.69857 23.087816 97 114 100
-60.297199 -73.691292 23.055243 95 114 99
-60.125004 -73.722916 23.109215 96 113 100
-59.603256 -73.657204 23.025177 118 128 117
-58.289444 -73.663879 23.036858 81 100 83
-58.187931 -73.604652 23.001133 106 118 103
-57.914307 -73.707237 23.023071 95 111 95
-57.739403 -73.609177 23.032719 135 148 131
-57.599701 -73.688988 23.024055 101 121 96
-57.359016 -73.615067 23.007391 65 87 64
-57.101959 -73.740509 23.051552 67 92 71
-56.877235 -73.708214 23.113695 128 132 117
-56.685825 -73.706718 23.094421 128 127 118
-56.511772 -73.653328 23.136673 135 135 120
-56.309799 -73.716454 23.086159 119 118 112
-56.073742 -73.70575 23.121168 119 109 116
-55.965679 -73.713326 23.071611 125 120 122
-55.747108 -73.657349 23.066853 117 118 102
-55.023281 -73.69944 23.069923 201 181 183
-54.620113 -73.601517 23.096851 97 82 87
-53.904198 -73.754799 23.100983 149 166 148
-53.523914 -73.679932 23.108025 98 97 104
-53.29002 -73.746712 23.106901 88 82 88
-53.113476 -73.674019 23.136702 96 100 96
-52.877666 -73.715187 23.118755 112 111 115
-52.685589 -73.687187 23.088312 115 109 114
-52.530212 -73.680145 23.066675 98 93 94
-52.357903 -73.679527 23.141212 100 101 98
-52.096554 -73.700279 23.151363 103 98 105
-51.890644 -73.700462 23.102299 116 121 116
-51.700512 -73.69883 23.104559 113 116 113
-51.530727 -73.681549 23.154509 127 139 127
-51.283886 -73.623138 23.120497 150 150 140
-51.133732 -73.687981 23.083315 144 144 139
-50.939869 -73.657547 23.192425 136 148 133
-62.060791 -73.442093 23.088928 122 133 104
-61.970928 -73.436058 23.043732 172 177 141
-61.787746 -73.416061 23.146643 144 154 123
-61.501247 -73.477432 23.184973 128 142 121
-61.313332 -73.4048 23.090292 139 154 120
-61.051136 -73.540237 23.018721 118 134 107
-60.851074 -73.564911 23.156956 103 123 102
-60.721149 -73.513741 23.066038 94 117 103
-60.499187 -73.456039 23.090429 105 122 106
-60.3097 -73.411415 23.024242 99 115 102
-58.826527 -73.424614 23.000259 101 108 116
-58.74947 -73.483025 23.058651 80 92 80
-58.471447 -73.47757 23.036438 112 122 107
-58.291843 -73.452431 23.082771 103 109 97
-58.115891 -73.481903 23.092836 101 111 96
-57.865356 -73.518753 23.050314 96 113 93
-57.668045 -73.505302 23.047131 120 135 119
-57.525112 -73.463203 23.072489 107 125 102
-57.315804 -73.453857 23.056892 91 106 85
-57.062927 -73.467422 23.110403 121 131 115
-56.926487 -73.516693 23.100166 122 126 113
-56.689198 -73.50515 23.127207 138 135 124
-56.509022 -73.571426 23.065205 126 116 113
-56.32407 -73.483551 23.165806 149 132 140
-56.154694 -73.561035 23.111925 119 113 118
-55.892395 -73.513023 23.115971 122 121 118
-55.624573 -73.40818 23.030247 107 120 100
-55.551426 -73.527397 23.14823 163 156 138
-55.30822 -73.504211 23.023624 110 108 103
-53.443466 -73.576469 23.144913 96 95 101
-53.232059 -73.519806 23.067755 104 91 100
-53.150444 -73.516037 23.149506 121 115 119
-52.870338 -73.513199 23.084852 96 105 96
-52.67329 -73.510292 23.105837 98 101 98
-52.465954 -73.526268 23.123083 95 97 93
-52.32896 -73.491386 23.116312 106 109 106
-52.076241 -73.513863 23.116745 124 129 125
-51.912037 -73.515343 23.158377 121 123 121
-51.718132 -73.483742 23.107693 114 118 114
-51.554825 -73.507248 23.056381 130 131 130
-51.275776 -73.558876 23.107311 139 145 135
-51.110844 -73.522614 23.07683 150 148 142
-50.927956 -73.44458 23.148863 140 151 138
-49.312801 -73.466957 23.06012 196 172 183
-49.105877 -73.446999 23.025141 221 197 200
-48.906776 -73.448677 23.020769 150 126 144
-61.857975 -73.339745 23.049429 129 144 121
-61.724518 -73.259102 23.121584 129 141 120
-61.460865 -73.275452 23.125786 129 143 117
-61.27869 -73.294334 23.102304 141 155 130
-61.140064 -73.259323 23.085196 104 115 97
-60.896942 -73.331749 23.143749 137 153 131
-60.653496 -73.348915 23.118366 96 115 106
-60.517933 -73.343605 23.102571 113 131 116
-60.27692 -73.340073 23.04826 112 125 109
-60.141357 -73.255592 23.065666 89 109 94
-58.895477 -73.228172 23.004593 110 121 108
-58.725018 -73.261581 23.066584 106 116 101
-58.483372 -73.294502 23.087549 109 117 106
-58.315853 -73.301056 23.106821 124 132 117
-58.123882 -73.269859 23.051497 117 128 110
-57.884892 -73.303314 23.093359 106 116 99
-57.709606 -73.308388 23.05372 114 124 111
-57.535713 -73.26886 23.082132 120 130 111
-57.271332 -73.272713 23.066956 125 133 117
-57.10397 -73.304306 23.130213 134 139 124
-56.911156 -73.256516 23.105923 133 137 118
-56.670635 -73.301682 23.105177 117 114 108
-56.461658 -73.262337 23.091917 113 120 106
-56.367264 -73.305008 23.090025 81 88 80
-56.135235 -73.339355 23.158354 105 117 97
-55.888401 -73.305542 23.130615 110 92 101
-55.697273 -73.29435 23.123644 106 107 105
-55.502388 -73.321823 23.127567 127 116 115
-55.36425 -73.247627 23.113869 100 108 98
-55.041866 -73.205322 23.091808 79 94 73
-54.142311 -73.208565 23.10265 105 101 107
-53.022049 -73.274796 23.083488 88 105 87
-52.907597 -73.291725 23.132868 100 115 100
-52.683064 -73.291069 23.049089 104 110 108
-52.516804 -73.231964 23.054768 100 103 100
-52.279095 -73.294853 23.094046 97 105 98
-52.128826 -73.3153 23.117735 113 119 112
-51.892036 -73.330978 23.114172 126 125 126
-51.669907 -73.310013 23.117207 131 138 136
-51.512058 -73.32888 23.091215 120 127 124
-51.285194 -73.274521 23.082142 120 129 120
-51.075737 -73.329483 23.035425 105 114 105
-50.931435 -73.293495 23.07349 114 120 110
-50.784973 -73.275993 23.013193 115 123 110
-49.303364 -73.353683 23.104681 209 182 193
-49.104446 -73.341599 23.0744 222 199 199
-48.923862 -73.317413 23.079702 162 146 150
-48.782597 -73.297958 23.087551 209 185 191
-61.840752 -73.095215 23.019756 135 148 128
-61.686901 -73.081528 23.0686 136 147 118
-61.48291 -73.139725 23.102428 135 148 123
-61.307312 -73.112297 23.084841 122 135 116
-61.135372 -73.17601 23.123035 106 116 97
-59.106133 -73.097275 23.089899 72 84 74
-58.9086 -73.115021 23.100014 88 101 93
-58.68819 -73.109512 23.089437 104 111 101
-58.481991 -73.118355 23.116522 125 133 120
-58.316074 -73.146469 23.128077 118 125 112
-58.096123 -73.105186 23.116055 124 129 118
-57.871624 -73.096375 23.091654 115 121 112
-57.70982 -73.121475 23.086864 114 121 104
-57.520145 -73.0774 23.076229 115 122 106
-57.291649 -73.076813 23.095669 120 125 112
-57.125977 -73.078804 23.082111 120 126 112
-56.81263 -73.074883 23.091576 127 137 121
-56.702278 -73.119308 23.135397 102 108 93
-56.117397 -73.141205 23.144096 180 132 174
-55.914307 -73.086746 23.09376 109 107 103
-55.678383 -73.119652 23.088102 114 113 112
-55.514416 -73.062599 23.139984 94 93 94
-55.331215 -73.127197 23.125223 140 136 129
-55.078831 -73.165588 23.056553 87 101 78
-54.540356 -73.02198 23.035578 100 95 97
-54.391685 -73.121796 23.056007 101 115 98
-53.024281 -73.125816 23.17354 104 112 101
-52.686604 -73.170532 23.053926 118 126 117
-52.467934 -73.109161 23.0723 115 115 111
-52.333035 -73.114258 23.073608 97 100 96
-52.117672 -73.092667 23.12697 121 127 121
-51.853729 -73.117844 23.150841 140 141 136
-51.749699 -73.055542 23.15959 146 152 143
-51.349266 -73.114609 23.026104 122 132 124
-51.023434 -73.190674 23.0466 116 126 113
-49.259399 -73.142548 23.055477 236 219 211
-49.02639 -73.115471 23.164896 198 177 172
-48.901569 -73.198502 23.076572 175 151 165
-48.523712 -73.129875 23.127998 195 165 170
-58.857891 -72.855942 23.105173 126 131 120
-58.68116 -72.904785 23.101933 110 114 105
-58.485031 -72.921906 23.092419 118 126 110
-58.303478 -72.912041 23.131124 132 138 129
-58.0937 -72.934723 23.11825 117 118 114
-57.91011 -72.890923 23.083757 117 127 116
-57.683231 -72.909256 23.112782 115 126 110
-57.51313 -72.893028 23.103094 111 120 108
-57.305656 -72.908691 23.107193 130 135 122
-57.09948 -72.916824 23.075499 147 152 137
-56.866859 -72.857155 23.123348 115 115 113
-56.725536 -72.885826 23.128456 102 112 99
-56.484184 -72.938698 23.184269 134 145 128
-56.299671 -72.947403 23.027407 149 148 153
-55.64254 -72.906044 23.108788 116 96 108
-55.594662 -72.946724 23.185131 101 107 95
-55.280891 -72.995461 23.163168 97 110 93
-53.805424 -72.961609 23.025761 115 117 116
-53.29335 -72.893127 23.040419 163 161 164
-53.036201 -72.822647 23.105835 113 98 110
-52.893482 -72.850876 23.084486 102 94 101
-52.687645 -72.914032 23.099842 106 107 104
-52.517319 -72.872307 23.093031 102 102 101
-52.325882 -72.834625 23.048729 99 99 94
-52.049965 -72.958481 23.110672 114 122 116
-51.926857 -72.971695 23.114136 126 133 126
-51.75061 -72.925758 23.124868 128 131 127
-51.565857 -72.98597 23.167437 98 109 95
-49.76997 -72.919556 23.05023 182 169 178
-60.08889 -72.680817 23.011879 106 102 90
-59.715038 -72.744736 23.012674 108 120 96
-59.0005 -72.708527 23.167276 79 92 75
-58.916115 -72.712112 23.086033 122 129 118
-58.522659 -72.720757 23.076895 117 121 116
-58.300556 -72.699852 23.142973 106 120 104
-58.076019 -72.671394 23.131725 102 116 100
-57.88131 -72.713905 23.113964 116 127 112
-57.71212 -72.721344 23.072639 107 117 105
-57.554485 -72.660912 23.087763 94 108 95
-57.288681 -72.737747 23.079308 119 126 114
-57.091705 -72.677109 23.083822 161 173 159
-56.904099 -72.738609 23.102894 119 128 108
-56.763878 -72.667572 23.14959 188 191 183
-56.578522 -72.754379 23.19569 118 107 115
-56.231445 -72.714752 23.102106 95 97 89
-56.104935 -72.671707 23.154329 106 97 100
-55.81773 -72.650734 23.076723 115 123 110
-55.698288 -72.700912 23.081085 115 112 119
-54.626545 -72.668076 23.161621 137 116 131
-53.808567 -72.706566 23.160128 92 105 96
-53.742844 -72.732437 23.039759 94 102 95
-53.580681 -72.693878 23.08637 88 97 88
-53.273483 -72.646942 23.080654 98 101 99
-53.058052 -72.730186 23.122351 119 109 117
-52.907417 -72.707458 23.095442 108 101 106
-52.723076 -72.725212 23.102184 98 95 97
-52.511543 -72.725967 23.109459 99 101 98
-52.274117 -72.687698 23.115181 131 131 133
-52.104218 -72.678024 23.075415 116 120 118
-51.906006 -72.68927 23.110294 109 114 107
-51.68853 -72.728027 23.118034 123 135 123
-51.494781 -72.799461 23.197365 145 155 140
-60.106789 -72.562439 23.035061 179 183 161
-59.352329 -72.445938 23.038885 79 98 88
-59.072475 -72.504242 23.068956 112 123 110
-58.907501 -72.49511 23.111925 127 130 120
-58.652824 -72.583275 23.188738 119 133 116
-58.468445 -72.512581 23.136877 109 113 104
-58.254623 -72.458984 23.100006 118 127 116
-58.089714 -72.496635 23.114861 115 125 112
-57.903034 -72.535866 23.109085 130 136 125
-57.663635 -72.518333 23.055044 97 106 96
-57.488693 -72.461456 23.073038 97 111 99
-57.295525 -72.479912 23.054073 95 105 93
-57.071854 -72.526642 23.11767 132 146 131
-56.866158 -72.485115 23.097475 116 122 112
-56.747559 -72.476433 23.145187 107 109 105
-56.236454 -72.436668 23.048212 112 102 111
-56.131313 -72.464722 23.048189 64 57 64
-55.857464 -72.48143 23.117985 122 124 119
-55.79113 -72.559502 23.03231 121 135 118
-55.365391 -72.536995 23.159918 87 78 83
-54.530132 -72.443375 23.072193 117 131 113
-54.16394 -72.48613 23.104084 119 126 123
-53.91502 -72.505127 23.103727 108 113 105
-53.685413 -72.568245 23.096212 92 95 94
-53.250984 -72.494064 23.147751 118 105 117
-53.111694 -72.485291 23.114616 119 115 122
-52.87117 -72.503563 23.123989 86 82 85
-52.70649 -72.498581 23.098108 99 90 98
-52.458389 -72.447754 23.078739 108 107 113
-52.246639 -72.467117 23.104652 147 146 149
-52.112019 -72.498352 23.072538 131 129 126
-51.936291 -72.491287 23.071508 100 109 108
-59.269211 -72.267807 23.085136 136 149 137
-59.090225 -72.287178 23.102531 125 130 117
-58.965107 -72.360954 23.150375 133 134 124
-58.497677 -72.381821 23.197594 90 113 92
-58.265244 -72.278252 23.084929 106 118 104
-58.110714 -72.302742 23.108036 84 98 85
-57.881054 -72.256134 23.110071 96 103 95
-57.716125 -72.261589 23.074301 97 107 96
-57.534191 -72.275223 23.086412 116 120 111
-57.290165 -72.284248 23.059389 118 124 111
-57.116123 -72.307503 23.1297 123 124 116
-56.903664 -72.312531 23.135086 119 112 113
-56.728539 -72.314606 23.097013 104 113 101
-56.547054 -72.239113 23.190628 97 115 91
-56.227814 -72.356239 23.110378 139 137 130
-56.105549 -72.276039 23.151831 128 133 119
-55.996323 -72.318947 23.078281 112 106 107
-55.714127 -72.23629 23.179012 140 133 137
-55.192215 -72.222511 23.001177 90 90 92
-54.535599 -72.291908 23.159353 53 60 53
-54.315582 -72.256676 23.053791 138 147 142
-54.080917 -72.260231 23.064421 119 123 116
-53.911495 -72.276199 23.109739 104 106 103
-53.69162 -72.297485 23.12536 108 110 106
-53.496605 -72.242668 23.073498 129 125 128
-53.38583 -72.375793 23.143103 82 76 80
-53.109531 -72.375206 23.069445 166 158 170
-52.856956 -72.344666 23.127825 104 103 101
-52.67395 -72.29435 23.113731 121 120 121
-52.478241 -72.311386 23.121002 123 119 125
-52.351837 -72.248116 23.098465 148 143 148
-52.148945 -72.318207 23.045013 151 150 148
-51.875626 -72.354904 23.182774 128 140 126
-51.722744 -72.294586 23.175646 111 115 114
-59.407459 -72.13752 23.078669 138 146 130
-59.265217 -72.094727 23.061941 135 143 130
-59.118523 -72.085831 23.145981 145 150 134
-58.754547 -72.195984 23.166378 163 152 154
-58.583473 -72.042587 23.144051 157 144 146
-58.263065 -72.112038 23.129742 121 128 120
-58.14978 -72.07663 23.099592 103 114 100
-57.886078 -72.088524 23.089592 108 114 107
-57.711258 -72.110138 23.079405 121 120 115
-57.502415 -72.108055 23.11039 117 122 110
-57.307423 -72.116699 23.104979 112 115 108
-57.145477 -72.164986 23.150766 131 124 122
-56.864006 -72.034996 23.169353 122 123 109
-56.666264 -72.121452 23.116823 91 104 83
-56.530731 -72.049545 23.104897 98 106 95
-56.270206 -72.070137 23.122946 104 114 98
-56.091816 -72.062241 23.056 123 124 120
-55.960297 -72.077545 23.104506 92 100 86
-55.780617 -72.150887 23.114698 172 159 179
-55.308182 -72.10968 23.082081 96 110 98
-54.209961 -72.026672 23.156477 146 127 146
-54.098915 -72.118294 23.125029 117 113 115
-53.883385 -72.134827 23.094799 125 125 124
-53.711018 -72.096893 23.113163 96 106 94
-53.526611 -72.056747 23.112392 130 132 128
-53.384243 -72.02626 23.150051 97 99 122
-53.093693 -72.10537 23.11878 123 113 126
-52.986103 -72.041458 23.155937 124 99 120
-52.728386 -72.137337 23.095816 112 110 114
-52.503536 -72.12677 23.105156 111 111 111
-52.319611 -72.088097 23.109701 118 116 117
-52.135754 -72.106415 23.04985 148 146 148
-51.897465 -72.007034 23.038372 106 116 107
-51.740124 -72.079758 23.117281 103 109 108
-59.418823 -71.828621 23.043182 177 180 162
-59.287125 -71.925507 23.065548 149 156 139
-59.107956 -71.95002 23.123243 152 153 138
-58.926289 -71.911423 23.137632 142 152 134
-58.668739 -71.895111 23.091602 129 139 125
-58.498283 -71.896805 23.111301 119 130 114
-58.284039 -71.89579 23.099072 121 131 118
-58.120491 -71.901848 23.07666 110 122 110
-57.873451 -71.919342 23.090691 136 143 134
-57.719082 -71.920494 23.118904 137 140 129
-57.576027 -71.930748 23.135479 109 102 113
-57.248722 -71.8983 23.128891 124 114 118
-57.172153 -71.991508 23.156506 246 245 240
-56.819664 -71.959511 23.193098 144 138 132
-56.682209 -71.913757 23.131094 107 117 102
-56.56488 -71.918907 23.075447 109 109 105
-56.369907 -71.842041 23.067091 100 94 97
-56.142296 -71.883583 23.085587 159 160 151
-55.896042 -71.897537 23.082676 133 134 128
-55.512203 -71.822891 23.179468 107 125 99
-55.319145 -71.938751 23.145042 101 111 103
-55.171993 -71.925529 23.03614 104 109 96
-54.938114 -71.807922 23.162664 117 118 110
-54.074131 -71.921082 23.114096 139 125 138
-53.928394 -71.874374 23.118216 101 101 100
-53.721714 -71.890472 23.122606 104 113 103
-53.530235 -71.922684 23.120787 104 113 102
-53.267559 -71.867424 23.034777 173 165 174
-52.877869 -71.912605 23.09156 112 110 116
-52.68301 -71.895378 23.127748 130 126 127
-52.509438 -71.896713 23.119743 124 116 121
-52.286339 -71.92836 23.116405 118 114 114
-52.132984 -71.910133 23.082911 123 122 121
-51.857048 -71.864014 23.082355 136 135 135
-51.731377 -71.878899 23.066093 152 150 152
-59.39534 -71.764435 23.041941 156 140 129
-58.835632 -71.719093 23.087797 151 152 138
-58.669971 -71.704842 23.101036 160 162 149
-58.47163 -71.716499 23.080154 132 137 123
-58.346481 -71.72506 23.107483 129 138 122
-58.039097 -71.764137 23.113026 102 118 103
-57.853077 -71.697067 23.064228 129 135 126
-57.712307 -71.691612 23.083536 138 142 133
-57.529804 -71.680946 23.118643 144 139 134
-57.355473 -71.623886 23.066385 134 125 125
-57.152035 -71.66922 23.146635 162 161 147
-56.801563 -71.668648 23.064672 104 121 100
-56.729954 -71.753815 23.116236 100 107 94
-56.524521 -71.688889 23.158438 120 116 116
-56.334835 -71.71772 23.096979 117 113 111
-56.081947 -71.690758 23.110582 97 104 92
-55.892616 -71.687088 23.171013 148 147 146
-55.472076 -71.738251 23.086969 137 147 128
-55.337666 -71.723877 23.110603 109 116 106
-55.154446 -71.749771 23.096941 100 103 97
-54.05719 -71.674934 23.108612 152 151 149
-53.904449 -71.687553 23.109924 114 119 112
-53.706444 -71.701294 23.119316 117 118 114
-53.538017 -71.727402 23.116394 114 114 116
-53.24472 -71.692055 23.102938 115 113 118
-53.13995 -71.7173 23.042061 101 116 100
-52.861206 -71.681572 23.102739 130 137 129
-52.690796 -71.686462 23.089426 128 129 127
-52.501255 -71.698242 23.103531 115 114 113
-52.315639 -71.746162 23.099741 120 122 119
-52.066765 -71.742142 23.137733 142 145 139
-51.915577 -71.722984 23.073126 144 146 142
-51.760693 -71.687119 23.034184 125 129 123
-58.900612 -71.496414 23.104776 125 125 117
-58.514896 -71.570808 23.076691 142 142 131
-58.292202 -71.519157 23.114206 113 123 102
-57.808647 -71.456764 23.01852 114 126 113
-57.700867 -71.494164 23.085163 130 132 121
-57.52969 -71.522667 23.089792 144 142 132
-57.362278 -71.48159 23.076849 151 145 143
-57.142826 -71.513351 23.165611 106 109 100
-56.89328 -71.434937 23.148176 136 130 124
-56.650146 -71.495125 23.123749 168 162 164
-56.481773 -71.567772 23.114109 109 113 103
-56.343399 -71.533501 23.075886 113 112 111
-56.08075 -71.53064 23.1581 141 131 134
-55.890182 -71.49369 23.052279 91 96 87
-55.788853 -71.482376 23.097195 144 141 138
-55.292038 -71.563087 23.052547 119 119 117
-55.121803 -71.458763 23.048719 116 124 115
-54.200344 -71.515732 23.099409 92 86 86
-53.903202 -71.495659 23.107384 116 117 113
-53.764839 -71.456223 23.096684 132 132 128
-53.478138 -71.488525 23.078926 153 154 154
-53.23967 -71.511597 23.078592 141 132 145
-53.093651 -71.531837 23.12001 159 153 158
-52.87225 -71.513733 23.091118 125 129 125
-52.702488 -71.499107 23.083313 114 121 115
-52.466553 -71.523773 23.107744 134 135 132
-52.322144 -71.515694 23.104919 126 128 125
-52.120132 -71.514259 23.08497 147 138 142
-51.853271 -71.535393 23.137367 140 136 133
-51.762299 -71.501846 23.069916 137 138 133
-51.597214 -71.404312 23.116671 149 145 160
-57.827728 -71.251152 23.083567 104 111 101
-57.697639 -71.274094 23.10375 146 143 134
-57.490444 -71.332741 23.130339 135 127 125
-57.202568 -71.257278 23.159805 134 111 127
-57.080658 -71.29599 23.144545 132 124 123
-56.837849 -71.206047 23.129353 104 97 100
-56.669613 -71.318085 23.115561 117 115 120
-56.465149 -71.302887 23.16288 134 142 132
-56.310905 -71.328812 23.135612 134 128 126
-55.805832 -71.30043 23.096363 123 124 117
-55.704975 -71.282181 23.07708 117 125 107
-55.406288 -71.245537 23.139322 146 135 143
-55.143387 -71.392265 23.061388 111 116 117
-54.935116 -71.296913 23.146368 108 109 104
-54.022701 -71.360558 23.012249 142 134 140
-53.900799 -71.30867 23.085213 131 140 132
-53.688587 -71.326195 23.13241 121 126 118
-53.524357 -71.304375 23.107763 117 114 114
-53.268482 -71.269844 23.112534 106 109 101
-53.081989 -71.31279 23.116375 101 103 95
-52.899799 -71.323837 23.090443 120 124 117
-52.680115 -71.234238 23.121271 163 155 150
-52.463158 -71.314987 23.069035 146 147 143
-52.354912 -71.323029 23.119345 144 139 137
-52.055405 -71.27388 23.088369 167 167 161
-51.873543 -71.277481 23.112057 177 169 166
-51.707317 -71.343674 23.082916 156 152 151
-51.557495 -71.331612 23.072805 124 127 121
-57.854752 -71.013336 23.094677 144 146 135
-57.70974 -71.095879 23.111383 148 145 137
-57.547394 -71.074158 23.123671 145 138 135
-57.276173 -71.12677 23.112926 156 142 143
-57.100323 -71.084412 23.117123 110 121 105
-56.923214 -71.09446 23.081663 122 122 117
-56.678082 -71.115326 23.122618 136 131 127
-56.479969 -71.11158 23.134979 109 115 108
-56.283714 -71.057953 23.106377 119 132 119
-56.144062 -71.094513 23.073038 124 128 117
-55.689224 -71.095871 23.095697 101 106 99
-55.522602 -71.097839 23.152512 110 92 94
-55.210236 -71.096909 23.18214 105 110 104
-55.140831 -71.111115 23.145767 97 106 97
-54.852173 -71.011887 23.047686 107 114 106
-54.709518 -71.186226 23.061155 147 157 149
-54.249672 -71.081726 23.063936 116 130 112
-54.063942 -71.087814 23.097878 123 130 120
-53.879574 -71.11779 23.053614 115 122 108
-53.710491 -71.171127 23.130772 119 128 107
-53.485947 -71.055168 23.081528 135 138 126
-53.30904 -71.070412 23.10087 133 139 125
-53.14349 -71.189171 23.095898 101 115 98
-52.84679 -71.133682 23.093037 137 138 130
-52.686352 -71.107643 23.043665 167 160 154
-52.531197 -71.085815 23.083256 150 145 140
-52.269234 -71.14846 23.08757 163 158 154
-52.09024 -71.126122 23.093248 169 164 160
-51.884075 -71.118568 23.059036 163 159 155
-51.7188 -71.137115 23.099024 174 166 165
-51.557419 -71.072525 23.017986 161 155 147
-57.829437 -70.939766 23.053583 153 156 143
-57.683262 -70.865837 23.066359 149 151 137
-57.490051 -70.899063 23.112629 155 150 145
-57.28756 -70.938988 23.09557 153 142 142
-57.100559 -70.893318 23.126432 129 130 124
-56.963093 -70.938744 23.09815 215 204 197
-56.654381 -70.914154 23.103321 152 143 140
-56.482498 -70.863426 23.106663 101 110 98
-56.297321 -70.854858 23.102987 140 149 131
-56.115753 -70.925018 23.17852 136 132 127
-55.855789 -70.862648 23.121841 114 117 108
-55.716171 -70.872597 23.085373 119 127 117
-55.51907 -70.861595 23.094412 130 112 125
-55.26133 -70.840858 23.118164 154 155 144
-55.063393 -70.858826 23.046684 137 132 134
-54.993759 -70.937042 23.088867 75 86 80
-54.721191 -70.823029 23.056622 116 127 115
-54.079029 -70.956406 23.047899 117 129 115
-53.923622 -70.940201 23.101692 110 115 107
-53.485954 -70.886139 23.053783 153 152 142
-53.318832 -70.908287 23.064163 147 149 137
-53.066589 -70.836044 23.070629 105 108 98
-52.900051 -70.91996 23.100519 129 128 125
-52.677197 -70.908836 23.056562 169 165 158
-52.515606 -70.915443 23.065762 167 160 152
-52.222809 -70.978523 23.075026 150 148 143
-52.118099 -70.931335 23.106178 167 157 157
-51.903584 -70.954712 23.07515 158 163 151
-51.721256 -70.969177 23.13788 161 155 145
-57.835144 -70.714188 23.06074 123 134 114
-57.69709 -70.688049 23.095627 157 163 145
-57.522198 -70.694794 23.11771 147 143 136
-57.274246 -70.676399 23.089863 160 153 153
-57.122524 -70.711189 23.08934 148 144 141
-56.878124 -70.678711 23.080446 144 144 137
-56.690063 -70.701431 23.136374 153 148 142
-56.505577 -70.716843 23.123219 152 151 145
-56.259216 -70.700409 23.064529 141 143 132
-56.112728 -70.699432 23.105665 157 151 147
