ply
format ascii 1.0
comment PCL generated
element vertex 1104
property float x
property float y
property float z
property uchar red
property uchar green
property uchar blue
element face 0
element camera 0
property float view_px
property float view_py
property float view_pz
property float x_axisx
property float x_axisy
property float x_axisz
property float y_axisx
property float y_axisy
property float y_axisz
property float z_axisx
property float z_axisy
property float z_axisz
property float focal
property float scalex
property float scaley
property float centerx
property float centery
property int viewportx
property int viewporty
property float k1
property float k2
end_header
-181.1021 -146.94818 17.120247 162 153 139
-180.87686 -146.87851 17.144539 153 141 128
-180.67625 -146.89261 17.108498 160 146 133
-180.50613 -146.90512 17.107977 146 129 121
-180.29024 -146.89772 17.080585 152 135 127
-180.09161 -146.90106 17.094915 167 141 136
-179.96494 -146.84784 17.098269 159 136 133
-178.9584 -146.9975 17.112022 181 176 173
-178.69833 -146.91759 17.109413 140 131 127
-178.46118 -146.86061 17.086809 142 136 133
-178.31166 -146.90819 17.042997 138 125 118
-178.01778 -146.95079 17.023693 158 143 136
-177.88641 -146.905 17.040813 122 119 106
-177.68871 -146.83217 17.072746 156 150 141
-177.22031 -146.84225 17.084698 178 174 161
-177.09724 -146.91209 17.171499 162 146 132
-173.11383 -146.9162 17.013018 191 182 172
-172.86026 -146.90575 17.074131 139 130 118
-172.68529 -146.90021 17.089836 135 123 117
-172.51385 -146.90912 17.08617 91 90 86
-172.28862 -146.92528 17.031462 60 68 60
-181.85547 -146.73694 17.092014 170 151 147
-181.68755 -146.63858 17.128094 158 139 133
-181.54388 -146.6534 17.10391 162 147 140
-181.33105 -146.76097 17.140682 168 152 142
-181.09734 -146.70584 17.132694 152 144 138
-180.89717 -146.70662 17.083988 167 155 149
-180.65355 -146.68915 17.103056 142 134 121
-180.50362 -146.69951 17.104221 144 131 120
-180.31833 -146.74922 17.05653 142 131 122
-180.10762 -146.73291 17.087692 152 137 132
-179.93201 -146.68315 17.108768 156 135 128
-179.47621 -146.76219 17.115038 154 140 137
-178.55229 -146.74287 17.06562 120 115 111
-178.39697 -146.60686 17.019039 132 132 127
-178.13165 -146.67116 17.071247 158 157 146
-177.87343 -146.70322 17.198168 139 137 125
-177.6834 -146.7406 17.002649 191 185 169
-177.45026 -146.6886 17.104126 171 164 155
-177.29665 -146.62933 17.096601 167 155 149
-177.11476 -146.65254 17.12414 160 147 140
-176.91678 -146.65735 17.133961 181 160 151
-176.77739 -146.67386 17.176405 198 185 177
-173.41177 -146.63187 17.059292 128 127 116
-173.26584 -146.62355 17.087864 157 150 141
-173.15067 -146.64381 17.16061 137 127 118
-172.90822 -146.67982 17.078472 131 121 113
-172.70174 -146.68761 17.107058 123 117 112
-172.51781 -146.70352 17.069258 95 93 89
-172.33734 -146.718 17.042704 69 82 75
-182.24301 -146.41336 17.117819 220 169 174
-182.112 -146.46788 17.083309 220 182 182
-181.88866 -146.45116 17.104012 156 139 130
-181.73065 -146.48123 17.112001 171 147 141
-181.54419 -146.48349 17.079643 133 122 115
-181.14598 -146.44743 17.170557 169 153 144
-180.96107 -146.45003 17.16309 172 157 159
-180.64343 -146.48337 17.131702 150 132 130
-180.48537 -146.50494 17.121891 149 130 124
-180.30688 -146.44832 17.153896 176 144 145
-180.08942 -146.47368 17.123417 168 136 141
-179.92868 -146.49829 17.056118 139 121 118
-179.76947 -146.59322 17.043804 96 102 98
-178.49472 -146.58226 17.120501 127 124 125
-177.94806 -146.48921 17.014688 115 108 98
-177.66447 -146.47557 17.094625 170 160 149
-177.50479 -146.4783 17.122705 159 150 142
-177.29884 -146.48894 17.100548 151 143 136
-177.10295 -146.49413 17.105919 161 152 145
-176.91991 -146.49368 17.089073 147 140 130
-176.72658 -146.46629 17.165083 120 117 111
-173.479 -146.49432 17.113268 134 130 120
-173.28333 -146.52153 17.104849 148 140 131
-173.10007 -146.51723 17.124626 141 129 119
-172.94119 -146.58261 17.088215 133 119 113
-172.73294 -146.52242 17.116369 153 136 131
-172.50253 -146.52328 17.088156 150 136 133
-172.27449 -146.48262 17.049353 100 95 93
-172.15565 -146.46617 17.16647 86 85 81
-182.67131 -146.23958 17.049509 220 186 179
-182.54637 -146.22588 17.082003 215 178 176
-182.27658 -146.2821 17.11491 201 166 166
-182.06146 -146.2807 17.091871 184 149 148
-181.89381 -146.31602 17.070911 164 147 142
-181.7355 -146.31662 17.083538 168 150 142
-181.43761 -146.27885 17.1042 170 145 148
-181.21019 -146.23364 17.120502 105 101 92
-181.08214 -146.26889 17.101536 169 143 139
-180.94067 -146.30644 17.127407 200 166 168
-180.70178 -146.27458 17.11199 191 158 162
-180.4908 -146.32069 17.094116 131 119 122
-180.29408 -146.30759 17.101835 161 138 137
-180.11305 -146.33118 17.103615 167 140 145
-179.89076 -146.30093 17.104748 169 144 144
-179.77661 -146.22528 17.13932 117 112 117
-179.56279 -146.23055 17.184063 139 133 135
-177.84169 -146.31587 17.118193 173 168 165
-177.67825 -146.30667 17.086227 157 150 145
-177.48761 -146.31407 17.096647 143 136 130
-177.30815 -146.31245 17.075424 135 132 126
-177.07487 -146.27716 17.083712 133 131 125
-176.90604 -146.27852 17.09564 136 132 122
-176.72238 -146.32269 17.054388 118 119 113
-173.64082 -146.24646 17.14274 152 137 129
-173.50227 -146.28209 17.110704 160 142 136
-173.28764 -146.30293 17.102678 131 120 112
-173.09729 -146.30031 17.111193 144 134 126
-172.94893 -146.3103 17.156204 136 129 118
-172.73364 -146.30487 17.124716 115 105 99
-172.57079 -146.26781 17.163223 170 156 147
-182.8524 -146.03085 17.064671 190 165 163
-182.68613 -146.09305 17.110905 210 177 175
-182.49962 -146.12083 17.130016 204 174 171
-182.30141 -146.08696 17.150175 186 163 158
-182.13176 -146.10208 17.132103 184 156 154
-181.90193 -146.10994 17.126207 183 156 160
-181.66228 -146.1183 17.098286 129 118 108
-181.50821 -146.08849 17.098307 151 130 124
-181.31621 -146.08643 17.096565 155 131 127
-181.05421 -146.10658 17.077047 171 144 145
-180.90089 -146.07344 17.106688 167 136 135
-180.72316 -146.12416 17.106251 164 137 145
-180.55847 -146.07875 17.133394 188 154 160
-180.29501 -146.09256 17.107355 152 129 131
-180.11488 -146.16148 17.099377 172 151 150
-179.85657 -146.12308 17.098461 144 127 131
-179.69919 -146.09445 17.093344 179 151 156
-179.55441 -146.09933 17.0543 87 88 86
-179.22896 -146.13916 17.014189 169 159 146
-179.19424 -146.10757 17.021044 121 113 102
-178.53441 -146.04166 17.115305 176 176 174
-178.21899 -146.10068 17.120369 158 146 134
-178.11964 -146.05295 17.126259 156 152 146
-177.85542 -146.08464 17.090132 164 156 154
-177.73051 -146.09424 17.104794 153 145 142
-177.49876 -146.10898 17.111385 155 150 145
-177.30673 -146.12021 17.093008 154 149 146
-177.06616 -146.12115 17.101698 137 135 129
-176.90327 -146.09825 17.092516 137 135 129
-176.74225 -146.09106 17.058676 118 116 110
-173.9034 -146.01167 17.15596 92 96 82
-173.65373 -146.0795 17.110697 139 129 119
-173.50497 -146.08873 17.114326 157 138 132
-173.27843 -146.13565 17.12751 144 130 121
-173.0844 -146.08536 17.134583 159 141 133
-172.97423 -146.09427 17.126581 173 157 148
-172.63304 -146.15201 17.027029 158 154 143
-172.59363 -146.13293 17.178257 138 129 122
-182.84096 -145.894 17.107527 180 154 152
-182.68886 -145.89287 17.08713 193 165 164
-182.53314 -145.92337 17.135981 187 163 161
-182.3015 -145.89101 17.105339 165 150 143
-182.04715 -145.89804 17.075802 167 147 145
-181.86299 -145.85037 17.126795 188 165 169
-181.65395 -145.93939 17.112621 175 153 146
-181.49319 -145.91707 17.115526 180 150 149
-181.29631 -145.91127 17.085835 165 139 139
-181.08165 -145.87515 17.073696 184 150 152
-180.90016 -145.89384 17.104435 200 158 160
-180.68564 -145.87541 17.108492 158 131 136
-180.48521 -145.92032 17.088617 149 124 127
-180.30925 -145.91231 17.075212 130 121 127
-180.12006 -145.91637 17.123093 138 124 130
-179.96257 -145.88863 17.084023 148 132 131
-179.66051 -145.93065 17.116339 157 140 144
-179.50372 -145.87206 17.053551 158 139 134
-179.32874 -145.91077 17.051373 147 140 131
-178.44067 -145.89281 17.115335 119 123 121
-178.29315 -145.90935 17.082813 134 135 131
-178.09515 -145.87413 17.098658 134 134 131
-177.88518 -145.90788 17.099466 159 153 151
-177.72557 -145.90738 17.088829 148 143 143
-177.52466 -145.8918 17.094542 134 132 129
-177.29759 -145.91257 17.127922 138 132 130
-177.1178 -145.92258 17.126442 129 127 123
-176.89267 -145.92989 17.055077 119 120 112
-176.73276 -145.93208 17.095242 129 128 121
-173.82082 -145.90486 17.065226 114 114 102
-173.70616 -145.92346 17.052336 107 107 94
-173.4957 -145.88882 17.104839 131 123 113
-173.31537 -145.87123 17.122484 136 129 119
-173.11693 -145.90501 17.117638 144 134 124
-182.86758 -145.71585 17.083872 213 179 178
-182.68652 -145.69899 17.092159 192 162 160
-182.51483 -145.7061 17.09436 181 158 155
-182.2841 -145.7095 17.069674 176 158 152
-182.13301 -145.69376 17.11515 189 165 160
-181.94653 -145.68172 17.167812 182 155 154
-181.69887 -145.73369 17.125357 190 163 156
-181.47568 -145.7433 17.089529 159 146 145
-181.29866 -145.70969 17.094604 166 140 137
-181.04953 -145.73886 17.060583 158 125 134
-180.89328 -145.70288 17.111294 176 143 148
-180.73262 -145.72179 17.069769 131 117 120
-180.47859 -145.79329 17.121746 140 127 136
-180.26822 -145.66939 17.02816 132 116 119
-180.05957 -145.7171 17.071028 145 138 148
-179.89987 -145.79439 17.082401 105 93 97
-179.70757 -145.64432 17.078526 157 145 146
-179.52292 -145.69156 17.103338 173 158 162
-179.26599 -145.68137 17.059072 174 159 157
-179.12094 -145.71402 17.041994 108 105 104
-178.46147 -145.63029 17.10817 163 161 153
-178.2894 -145.69658 17.11092 152 152 148
-178.09752 -145.73509 17.084316 124 125 126
-177.9068 -145.68118 17.094511 133 131 130
-177.70241 -145.68997 17.098858 162 156 153
-177.50124 -145.72261 17.118383 142 138 137
-177.3181 -145.68681 17.093136 144 141 139
-177.12151 -145.68867 17.101652 162 157 152
-176.92612 -145.69533 17.138531 132 130 132
-176.70546 -145.75133 17.116747 119 117 105
-176.42151 -145.64024 17.094149 176 167 160
-176.38174 -145.60298 17.065989 139 135 131
-173.47005 -145.70993 17.09882 114 110 99
-173.30702 -145.70189 17.07226 157 148 138
-173.19363 -145.63707 17.054596 153 143 133
-172.98308 -145.79405 17.031816 104 97 83
-183.01862 -145.55818 17.038113 182 171 158
-182.87999 -145.48717 17.135763 125 116 121
-182.70857 -145.50978 17.112352 140 129 125
-182.51295 -145.50899 17.087313 155 140 136
-182.25052 -145.53651 17.095125 174 155 151
-182.13557 -145.49245 17.095608 193 166 162
-181.98334 -145.4615 17.169434 205 180 177
-181.44536 -145.46381 17.102528 181 151 151
-181.31326 -145.48692 17.103931 142 134 133
-180.83003 -145.58411 17.010376 92 93 88
-180.69226 -145.4595 17.166054 129 120 121
-180.43024 -145.50288 17.107948 117 108 115
-180.26971 -145.45593 17.089485 114 113 121
-180.07959 -145.45221 17.048676 120 112 115
-179.67679 -145.53761 17.102549 150 143 145
-179.51129 -145.51376 17.090965 160 152 154
-179.29834 -145.48192 17.079355 156 150 151
-179.10016 -145.50688 17.082212 148 143 141
-178.95306 -145.48752 17.100475 124 122 117
-178.64275 -145.51125 17.115005 146 146 144
-178.51221 -145.50121 17.079443 145 142 140
-178.31544 -145.48726 17.110538 131 133 134
-178.14963 -145.50989 17.07827 122 122 123
-177.8886 -145.50182 17.080481 146 145 144
-177.72127 -145.49948 17.103207 161 157 152
-177.50772 -145.51627 17.116804 162 156 154
-177.30898 -145.50626 17.101284 150 146 144
-177.10185 -145.51245 17.12121 154 148 145
-176.88577 -145.51579 17.138802 156 149 148
-176.7126 -145.46329 17.097137 166 161 159
-176.52209 -145.50375 17.121237 152 148 142
-176.34056 -145.515 17.063156 122 123 112
-173.83185 -145.49736 17.157099 130 129 115
-173.68054 -145.48114 17.064518 111 112 101
-173.49048 -145.49286 17.061754 97 96 86
-173.30598 -145.52699 17.040508 98 102 89
-182.87375 -145.37425 17.103203 83 90 91
-182.77888 -145.32936 17.096035 99 99 107
-182.57921 -145.32442 17.06212 156 143 144
-182.07532 -145.31281 17.101664 192 162 162
-181.91011 -145.26028 17.173119 170 140 142
-181.49686 -145.32756 17.140158 173 156 156
-181.30363 -145.33644 17.077084 111 110 115
-181.14485 -145.31145 17.016228 105 103 116
-180.82732 -145.3326 17.176914 153 149 163
-180.73048 -145.29773 17.092352 139 129 133
-180.57422 -145.37198 17.117346 168 157 166
-180.11307 -145.31734 17.019051 181 177 177
-179.87192 -145.27219 17.039253 147 141 142
-179.68648 -145.2619 17.084671 174 163 163
-179.48489 -145.32385 17.074205 148 138 140
-179.30414 -145.33116 17.113079 160 151 152
-179.10028 -145.30559 17.095358 162 154 155
-178.96169 -145.25954 17.076944 100 99 101
-178.63855 -145.3689 17.142845 135 135 142
-178.50766 -145.30411 17.094641 137 131 136
-178.31294 -145.31946 17.081104 139 140 137
-178.17357 -145.32727 17.088106 119 120 123
-177.87065 -145.32918 17.114 147 146 146
-177.67697 -145.30547 17.099861 149 146 144
-177.48897 -145.31721 17.105728 158 153 157
-177.31062 -145.30511 17.084213 131 127 128
-177.08643 -145.35075 17.123154 162 156 154
-176.90433 -145.28673 17.101046 143 141 141
-176.68813 -145.29329 17.071684 129 128 125
-176.49371 -145.27399 17.082121 145 141 136
-176.31566 -145.27798 17.06855 133 131 124
-176.10449 -145.28688 17.048681 98 102 92
-173.99022 -145.25398 17.008472 103 105 93
-173.45642 -145.29424 17.031509 125 119 109
-182.32561 -145.09883 17.015711 95 100 84
-182.07869 -145.10745 17.115686 106 99 101
-181.85262 -145.1465 17.10697 180 150 155
-181.73569 -145.09605 17.139347 182 156 160
-181.51361 -145.147 17.112286 185 160 163
-180.77249 -145.1702 17.130987 146 140 150
-180.0676 -145.052 17.081194 164 155 158
-179.91078 -145.09123 17.113844 148 142 144
-179.71442 -145.12418 17.046124 143 135 141
-179.50885 -145.13843 17.089634 121 119 121
-179.33636 -145.12424 17.110634 129 126 134
-179.09309 -145.06874 17.084837 158 155 167
-178.94498 -145.05862 17.098255 137 131 131
-178.79861 -145.03101 17.098923 105 109 108
-178.44691 -145.12207 17.11174 111 114 118
-178.29225 -145.0751 17.136507 159 155 159
-178.08522 -145.07738 17.081255 136 134 135
-177.9171 -145.06578 17.130415 148 142 139
-177.71774 -145.12222 17.093475 139 137 135
-177.50594 -145.09451 17.107466 125 123 124
-177.26947 -145.14162 17.048491 123 121 122
-177.0677 -145.10667 17.140799 137 133 128
-176.89011 -145.10672 17.127361 153 150 143
-176.71342 -145.0818 17.074997 148 145 139
-176.49356 -145.10378 17.12941 163 161 155
-176.34906 -145.10204 17.083683 147 145 143
-176.1082 -145.09561 17.056988 133 136 131
-175.82759 -145.06146 17.063396 148 148 140
-175.45892 -145.03198 17.107439 107 110 103
-175.38843 -145.00629 17.12207 166 162 157
-181.92334 -144.91039 17.006222 93 99 98
-181.6907 -144.93222 17.037437 158 139 145
-181.49947 -144.93314 17.116222 135 133 130
-180.32414 -144.97025 17.116346 103 100 107
-180.0668 -144.92285 17.056732 153 147 151
-179.89894 -144.90935 17.095806 163 150 150
-179.74992 -144.88913 17.078133 167 161 169
-179.47635 -144.99356 17.012493 122 117 131
-179.09384 -144.92702 17.106108 160 155 162
-178.93384 -144.88521 17.075502 141 138 146
-178.71764 -144.86615 17.128029 145 140 146
-178.50574 -144.86089 17.095295 152 150 152
-178.3325 -144.90408 17.086035 119 119 122
-178.10399 -144.92932 17.108583 137 136 137
-177.90883 -144.89726 17.067213 132 129 130
-177.68037 -144.91586 17.077789 176 170 162
-177.46111 -144.93179 17.087166 192 187 191
-177.30112 -144.89349 17.122959 150 142 145
-177.13449 -144.86795 17.074135 146 144 140
-176.86484 -144.89812 17.072222 180 172 164
-176.67403 -144.94714 17.068842 164 159 155
-176.49522 -144.90419 17.09725 152 151 152
-176.30746 -144.86545 17.109522 131 130 128
-176.16852 -144.85231 17.116034 112 113 110
-175.91299 -144.88524 17.09317 143 144 138
-175.69679 -144.85976 17.112677 158 154 149
-175.52348 -144.89029 17.084751 157 154 147
-175.33273 -144.86513 17.11706 139 138 136
-175.1861 -144.80966 17.001879 108 119 115
-181.52274 -144.7124 17.024967 194 192 197
-180.11127 -144.67078 17.082479 148 140 143
-179.89388 -144.69518 17.099874 181 171 168
-179.71742 -144.72395 17.106283 141 135 139
-179.56717 -144.61838 17.123663 166 158 146
-178.91208 -144.74788 17.061436 161 155 159
-178.66928 -144.76262 17.092167 147 141 156
-178.49896 -144.70305 17.108156 166 158 163
-178.33763 -144.67499 17.075584 165 159 155
-178.18097 -144.63632 17.141966 133 127 128
-177.87416 -144.68005 17.083908 145 137 140
-177.70772 -144.66997 17.115427 162 153 153
-177.49052 -144.71204 17.11014 161 154 156
-177.29408 -144.68607 17.11385 136 134 133
-177.11339 -144.70319 17.100368 135 133 132
-176.89803 -144.6622 17.101538 145 140 142
-176.71637 -144.63951 17.094332 166 161 155
-176.46815 -144.75032 17.12137 131 128 133
-176.30415 -144.71141 17.084238 133 132 131
-176.10568 -144.66716 17.09531 142 139 140
-175.87949 -144.70888 17.084221 149 146 144
-175.71521 -144.69211 17.090145 138 134 129
-175.51814 -144.70638 17.1042 145 140 135
-175.27205 -144.75827 17.080267 135 136 134
-175.11363 -144.70628 17.098217 100 106 96
-174.97514 -144.71449 17.09977 108 110 105
-174.52553 -144.76181 17.011831 145 130 125
-181.68663 -144.42851 17.120848 162 161 158
-181.53806 -144.40042 17.03553 124 126 125
-181.28882 -144.56906 17.087021 144 139 133
-180.46628 -144.45122 17.101887 175 168 165
-180.36531 -144.4832 17.092581 145 139 143
-180.06679 -144.55771 17.067991 168 159 161
-179.88254 -144.52516 17.093897 171 164 163
-179.71169 -144.50261 17.087114 131 130 134
-179.54861 -144.52962 17.126112 138 130 129
-179.27078 -144.43063 17.093529 145 136 153
-179.15176 -144.45061 17.00293 254 244 245
-178.85536 -144.48869 17.101871 143 136 135
-178.7065 -144.44563 17.03401 151 148 145
-178.46565 -144.49667 17.094196 164 156 155
-178.31305 -144.52315 17.144253 155 148 155
-178.11415 -144.51645 17.072563 150 138 141
-177.86642 -144.46651 17.128279 157 151 153
-177.71408 -144.50272 17.098547 139 138 140
-177.49506 -144.51959 17.07831 134 133 134
-177.32292 -144.54652 17.07518 144 141 140
-177.10062 -144.51115 17.108376 131 129 130
-176.87489 -144.51273 17.09536 139 136 135
-176.70647 -144.50557 17.10988 136 134 130
-176.51111 -144.46967 17.106049 133 128 127
-176.28171 -144.51784 17.084177 140 139 139
-176.10098 -144.52914 17.071558 133 133 129
-175.93837 -144.50645 17.078003 114 112 110
-175.71719 -144.53697 17.078295 90 94 87
-175.4472 -144.47285 17.122696 102 104 98
-175.3378 -144.46919 17.103214 100 103 97
-175.09996 -144.44943 17.116894 73 85 75
-181.84422 -144.35794 17.101458 199 193 192
-181.71396 -144.28915 17.064346 142 141 138
-181.54793 -144.31236 17.034613 162 159 154
-181.13605 -144.2251 17.104773 166 161 160
-180.86708 -144.22008 17.088263 147 144 137
-180.70943 -144.24846 17.085537 141 136 139
-180.50989 -144.28285 17.093088 171 169 169
-180.29312 -144.25685 17.096886 168 159 162
-180.04498 -144.28421 17.115335 148 144 148
-179.90199 -144.29672 17.07255 137 137 136
-179.735 -144.32907 17.032446 135 133 137
-179.56537 -144.327 17.101395 168 160 156
-179.06863 -144.35056 17.051279 183 173 177
-178.89688 -144.35982 17.068317 162 151 147
-178.71434 -144.3811 17.119476 185 177 180
-178.50867 -144.36452 17.09066 151 150 148
-178.33221 -144.3567 17.076077 157 152 158
-178.18103 -144.31824 17.038506 128 130 133
-177.89467 -144.32285 17.091635 114 115 120
-177.74284 -144.35603 17.053905 126 126 130
-177.30211 -144.31073 17.082975 135 136 137
-177.08893 -144.28577 17.080605 125 124 129
-176.90526 -144.28436 17.07645 129 126 128
-176.69019 -144.28976 17.112505 128 126 130
-176.49518 -144.30238 17.08544 136 133 133
-176.31644 -144.33339 17.101784 134 136 133
-176.16763 -144.30685 17.060078 125 121 110
-175.45502 -144.35271 17.064344 116 112 113
-181.84373 -144.07329 17.133381 157 148 151
-181.70763 -144.09026 17.054659 161 156 150
-181.48753 -144.0798 17.058493 157 153 147
-181.28607 -144.08342 17.062696 137 138 133
-181.08235 -144.10913 17.079554 123 123 125
-180.89775 -144.07919 17.084761 146 141 137
-180.70676 -144.09865 17.119152 153 149 144
-180.4843 -144.07101 17.104218 170 165 165
-180.31638 -144.08385 17.126919 155 148 147
-180.08401 -144.11024 17.097263 143 139 137
-179.88829 -144.04787 17.086592 166 165 156
-179.77089 -144.0305 17.022606 170 172 166
-179.24271 -144.03265 17.083462 178 179 172
-179.13525 -144.06145 17.121687 156 147 154
-178.90665 -144.17529 17.148525 171 165 167
-178.69327 -144.04019 17.099533 167 162 162
-178.49203 -144.07188 17.131184 160 156 156
-178.29471 -144.00485 17.120102 151 150 145
-177.25012 -144.16373 17.069828 134 135 136
-177.11761 -144.10869 17.089737 123 123 133
-176.87149 -144.11803 17.107254 124 123 134
-176.71227 -144.08797 17.11235 141 137 143
-176.52612 -144.10715 17.095438 137 135 137
-176.2968 -144.09241 17.103645 130 130 133
-175.60828 -144.12503 17.042835 138 140 137
-181.84209 -143.91216 17.049078 118 115 113
-181.67 -143.8918 17.079681 152 145 144
-181.48442 -143.88176 17.077435 153 148 144
-181.29716 -143.90814 17.073503 155 154 150
-181.119 -143.89561 17.116243 143 142 138
-180.88712 -143.92703 17.089127 151 141 140
-180.70949 -143.89545 17.113491 119 116 121
-180.49869 -143.93175 17.102291 132 127 129
-180.30125 -143.88947 17.126759 163 152 155
-180.10239 -143.88506 17.113317 173 166 162
-179.96732 -143.8483 17.001673 160 162 158
-179.65375 -143.884 17.072746 147 144 145
-179.57736 -143.81087 17.04546 152 147 148
-179.24663 -143.86143 17.08427 150 146 149
-179.08748 -143.90921 17.078485 152 148 156
-178.91866 -143.82675 17.139965 141 133 139
-178.739 -143.89476 17.115309 148 144 143
-178.5043 -143.8217 17.100782 152 146 147
-178.3293 -143.89505 17.04949 170 163 158
-178.10822 -143.87579 17.089792 161 158 157
-177.94299 -143.83972 17.091188 151 154 155
-177.03003 -143.86951 17.070015 113 117 124
-176.86996 -143.89825 17.062885 121 123 126
-176.68367 -143.88881 17.089167 139 135 146
-176.56573 -143.94116 17.138329 140 139 151
-176.33258 -143.91895 17.108255 102 101 108
-175.90862 -143.86707 17.179604 150 151 151
-175.60596 -143.8268 17.001842 82 91 90
-175.36441 -143.94501 17.053654 103 103 101
-181.64845 -143.70227 17.047415 123 121 126
-181.53386 -143.73581 17.09252 148 146 140
-181.36923 -143.74792 17.110327 136 137 134
-181.09879 -143.68994 17.077419 139 136 142
-180.83614 -143.70071 17.140955 152 151 154
-180.68837 -143.66353 17.12233 131 128 130
-180.48291 -143.71123 17.086201 150 146 146
-180.28526 -143.69446 17.084116 153 145 143
-180.16412 -143.73427 17.108557 166 158 156
-179.63806 -143.71043 17.11832 127 124 138
-179.53296 -143.70694 17.102547 142 135 143
-179.25116 -143.71371 17.11377 167 158 155
-179.0793 -143.71864 17.111486 159 155 161
-178.93636 -143.72716 17.053602 145 140 148
-178.78186 -143.79637 17.03672 135 134 132
-178.45937 -143.68631 17.055779 163 157 161
-178.33868 -143.69411 17.087807 117 108 118
-178.08612 -143.66029 17.146856 126 122 132
-177.91129 -143.76645 17.156582 115 110 113
-177.71886 -143.6685 17.12376 163 159 163
-177.53851 -143.67317 17.151337 103 104 114
-176.90808 -143.75117 17.037762 139 137 152
-176.65588 -143.77707 17.030811 137 135 144
-176.49771 -143.6937 17.127377 164 160 172
-176.36005 -143.74323 17.093239 148 141 152
-176.03227 -143.74336 17.140713 104 101 107
-175.83543 -143.70284 17.098755 178 173 177
-181.4884 -143.5498 17.066008 152 150 146
-181.32079 -143.51924 17.108658 112 116 115
-181.06473 -143.46938 17.128473 133 130 136
-180.8802 -143.51752 17.09605 163 161 160
-180.67769 -143.54541 17.1063 149 147 147
-180.53758 -143.50027 17.077229 158 156 155
-180.28159 -143.50978 17.100294 167 156 154
-180.12651 -143.5323 17.127914 152 147 151
-179.89412 -143.47925 17.139811 164 156 160
-179.72868 -143.40544 17.178226 128 125 132
-179.51395 -143.50558 17.096872 148 145 150
-179.31174 -143.51378 17.100183 153 150 152
-179.14519 -143.52039 17.103025 155 150 150
-178.88751 -143.52365 17.080467 132 131 132
-178.74753 -143.4749 17.094776 173 172 167
-178.46628 -143.49152 17.12328 150 146 146
-178.312 -143.47752 17.124304 152 150 154
-178.08009 -143.59161 17.031544 170 163 173
-177.94098 -143.42728 17.147793 166 159 168
-177.65741 -143.48666 17.144447 120 115 114
-177.54176 -143.57329 17.062656 93 93 101
-177.37692 -143.56082 17.160295 152 159 165
-176.90974 -143.40578 17.136782 145 142 142
-176.65804 -143.5296 17.119375 140 141 143
-176.48405 -143.47368 17.079571 137 137 141
-176.28571 -143.51059 17.149872 156 159 155
-181.20473 -143.35863 17.077494 127 125 131
-181.1308 -143.34634 17.107887 153 150 150
-180.83286 -143.36691 17.023846 131 133 138
-180.73831 -143.33339 17.076538 154 154 146
-180.487 -143.35785 17.156059 148 142 144
-180.11365 -143.34499 17.069225 199 191 191
-179.9227 -143.32469 17.099056 145 140 143
-179.71674 -143.31247 17.102091 156 148 165
-179.57404 -143.25461 17.113916 150 139 158
-179.29855 -143.34537 17.088116 140 137 144
-179.13406 -143.25368 17.142399 164 156 168
-178.88919 -143.33774 17.063112 115 115 119
-178.68129 -143.30934 17.101444 161 158 157
-178.50038 -143.27347 17.082207 180 176 179
-178.33772 -143.3203 17.074299 161 158 164
-178.01552 -143.32619 17.012196 156 152 168
-177.87202 -143.34096 17.083244 165 160 171
-177.67027 -143.27104 17.077103 116 121 120
-177.41666 -143.36188 17.116634 123 122 118
-177.30194 -143.32272 17.066462 144 143 143
-177.03061 -143.36125 17.108707 124 125 127
-176.89931 -143.3129 17.073465 124 126 125
-176.72523 -143.32417 17.1064 151 148 152
-176.35178 -143.38034 17.027685 150 148 153
-181.22438 -143.15059 17.034716 67 79 77
-181.1218 -143.18304 17.010485 102 104 110
-180.66196 -143.01434 17.169491 149 145 144
-180.49124 -143.11102 17.139706 140 133 135
-180.04965 -143.08705 17.170055 190 182 178
-179.90678 -143.04634 17.051493 162 158 156
-179.68504 -143.10442 17.112953 157 151 162
-179.51471 -143.07928 17.08333 148 141 159
-179.3187 -143.10989 17.126957 154 150 161
-179.11046 -143.10284 17.105045 143 138 146
-178.92175 -143.08089 17.120073 166 158 161
-178.33835 -143.08435 17.196409 157 146 150
-178.06653 -143.04138 17.093969 153 147 150
-177.90276 -143.07011 17.094328 153 151 155
-177.75177 -143.11974 17.049728 145 140 153
-177.49806 -143.11188 17.089516 142 138 142
-176.76077 -143.17928 17.035913 129 126 128
-180.64183 -142.91444 17.142076 129 132 135
-180.54103 -142.90334 17.081072 119 124 124
-179.86067 -142.85107 17.118193 123 116 128
-179.68483 -142.91016 17.089945 157 151 164
-179.5984 -142.95296 17.003931 115 106 118
-179.29115 -142.89606 17.054619 138 136 143
-179.14926 -142.82555 17.028641 157 148 154
-178.8969 -142.93488 17.013786 174 166 168
-178.46056 -142.88808 17.117397 134 133 132
-178.37732 -142.87936 17.054754 165 155 166
-178.04565 -142.87045 17.111692 124 124 121
-177.90408 -142.91501 17.102665 139 138 143
-177.724 -142.89922 17.063997 134 130 143
-180.61749 -142.78404 17.116663 125 133 131
-180.54163 -142.7412 17.060051 99 105 105
-179.86424 -142.67285 17.077759 111 110 118
-179.73071 -142.6765 17.115778 154 147 159
-179.5451 -142.68024 17.0462 137 135 148
-179.26079 -142.69151 17.070986 133 130 140
-179.0721 -142.68964 17.047585 153 149 154
-178.42435 -142.71014 17.179295 131 131 134
-178.34659 -142.72675 17.099104 130 129 134
-177.88403 -142.74727 17.087807 151 151 153
-179.83257 -142.57806 17.085102 78 73 93
-179.68811 -142.5592 17.109171 153 146 159
-179.51312 -142.48618 17.130547 161 154 166
-179.28958 -142.50046 17.124722 123 121 142
-179.061 -142.46692 17.058573 95 100 111
-178.97505 -142.45474 17.017714 123 126 145
-178.62686 -142.56148 17.032867 99 116 126
-178.50403 -142.52913 17.146172 111 113 108
-178.26582 -142.49857 17.105978 125 125 134
-178.11066 -142.52094 17.070681 133 136 145
-177.91106 -142.47809 17.091091 95 106 107
-179.67746 -142.30151 17.140064 180 178 181
-179.47482 -142.3696 17.103418 124 122 131
-179.27698 -142.30034 17.097012 121 118 134
-178.29282 -142.30196 17.01704 112 117 119
-178.15663 -142.36403 17.046366 128 130 141
-179.64024 -142.16783 17.003267 188 189 193
-179.25169 -142.11092 17.071659 126 125 140
-179.14969 -142.17416 17.094166 148 140 155
-179.72821 -141.90076 17.130251 148 144 148
-179.51604 -141.84673 17.148167 166 165 163
-179.25916 -141.88904 17.117432 155 146 167
-179.14383 -141.99791 17.009399 138 135 156
-180.58209 -160.83296 17.215582 66 76 75
-180.67792 -160.66571 17.33647 86 89 93
-180.50754 -160.69235 17.236061 74 85 85
-180.32256 -160.50133 17.248436 51 58 57
-180.49178 -160.31644 17.315001 77 79 78
-181.94022 -159.668 17.296829 58 68 67
-181.91728 -159.39658 17.399836 44 51 57
-180.94176 -159.04047 17.207329 63 74 66
-182.01924 -158.83391 17.33556 46 51 44
-181.0778 -158.88745 17.365257 70 82 75
-180.95047 -158.94128 17.332645 64 76 68
-182.72232 -158.66003 17.251198 53 54 58
-182.51921 -158.62433 17.317493 57 63 61
-182.30925 -158.70009 17.288628 107 113 112
-182.06763 -158.70876 17.284538 90 101 93
-181.88049 -158.66423 17.276337 70 83 77
-181.76599 -158.65054 17.250946 70 81 75
-181.53903 -158.62976 17.391842 62 75 67
-180.97656 -158.76807 17.322235 53 64 59
-180.04039 -158.78442 17.276352 74 72 73
-182.69281 -158.47247 17.328241 132 130 132
-182.49596 -158.51869 17.353981 121 128 126
-182.31311 -158.50453 17.293375 85 90 93
-182.09093 -158.47388 17.341465 108 119 112
-181.84833 -158.54082 17.300892 77 87 83
-181.716 -158.47626 17.254496 66 79 74
-181.47469 -158.49413 17.335114 64 77 69
-181.36223 -158.44923 17.321459 73 85 78
-180.86444 -158.55045 17.307816 63 73 71
-180.76341 -158.46536 17.250149 71 84 83
-182.68314 -158.32956 17.312323 68 78 76
-182.52634 -158.31516 17.317913 96 103 105
-182.31172 -158.29431 17.288733 116 125 122
-182.14055 -158.2654 17.256432 111 123 116
-181.85284 -158.26964 17.261644 80 91 87
-181.73193 -158.27225 17.286039 78 91 85
-181.42175 -158.2908 17.303179 63 75 66
-181.31799 -158.29875 17.308502 77 88 79
-180.76462 -158.3217 17.271688 46 59 52
-180.53401 -158.28955 17.342985 68 78 73
-180.37076 -158.3223 17.324974 95 106 92
-182.44995 -158.07948 17.282949 98 107 106
-182.31351 -158.03954 17.297609 88 100 98
-182.1129 -158.05124 17.304781 91 104 100
-181.90991 -158.10832 17.301884 98 109 106
-181.7162 -158.0984 17.28343 69 80 73
-181.33716 -158.10469 17.376823 50 56 56
-180.84909 -158.09579 17.274822 56 69 65
-180.48566 -158.04657 17.293388 53 62 59
-180.27609 -158.07083 17.290289 64 74 66
-180.10602 -158.06921 17.240953 65 71 64
-182.45316 -157.85365 17.297247 120 126 123
-182.343 -157.89803 17.284845 88 98 95
-182.1006 -157.87509 17.344334 93 104 101
-181.89618 -157.93529 17.299515 91 104 100
-181.78645 -157.95711 17.202127 78 97 93
-181.51476 -157.90224 17.269564 96 109 97
-181.00615 -157.90404 17.31748 60 75 72
-180.91982 -157.89351 17.321995 63 74 69
-180.64186 -157.97151 17.382053 92 103 102
-180.49358 -157.9005 17.321806 82 90 85
-180.24736 -157.89117 17.311304 72 81 73
-180.1066 -157.87613 17.359375 60 67 62
-179.94359 -157.80624 17.250435 82 94 83
-179.74802 -157.81636 17.285728 81 88 85
-179.35852 -157.94612 17.312523 73 81 75
-183.25162 -157.63324 17.207003 190 181 184
-182.45828 -157.71675 17.304771 84 91 87
-182.32558 -157.69893 17.305452 86 94 89
-182.11087 -157.69543 17.301378 91 102 98
-181.97855 -157.68262 17.341055 84 99 92
-181.44922 -157.73335 17.321484 59 74 67
-181.32916 -157.68504 17.308205 74 87 80
-181.12894 -157.70047 17.292429 74 85 79
-180.99063 -157.68274 17.299458 73 82 80
-180.70866 -157.69493 17.310814 70 80 74
-180.50139 -157.69189 17.300257 55 69 63
-180.27354 -157.67805 17.313368 66 73 67
-180.12553 -157.73227 17.329527 75 82 76
-179.84909 -157.67757 17.351006 76 83 78
-179.72314 -157.68085 17.327011 82 86 83
-179.50403 -157.65947 17.281725 84 91 84
-179.34875 -157.6925 17.294243 72 74 70
-183.28223 -157.47307 17.308872 105 110 109
-183.07085 -157.43703 17.267433 132 136 123
-182.89398 -157.47235 17.312246 101 101 102
-182.7231 -157.45155 17.332129 126 130 126
-182.28619 -157.56042 17.244495 62 71 65
-182.0983 -157.53572 17.285538 79 90 85
-181.23468 -157.59486 17.317692 67 81 70
-181.16156 -157.53198 17.211723 82 87 82
-180.88748 -157.55832 17.313614 75 86 84
-180.72137 -157.54442 17.317509 83 88 85
-180.51837 -157.46178 17.280495 75 85 74
-180.33643 -157.47771 17.332283 64 77 70
-180.0946 -157.48679 17.357248 71 80 74
-179.92232 -157.47255 17.326561 75 86 81
-179.69989 -157.50218 17.337255 79 88 80
-179.50525 -157.54378 17.297668 88 93 84
-183.26598 -157.30597 17.341564 100 104 100
-183.06966 -157.29378 17.311092 120 127 117
-182.85828 -157.31511 17.288698 110 113 105
-182.70639 -157.289 17.279921 95 100 93
-182.50848 -157.29683 17.259253 142 142 142
-182.30074 -157.23868 17.274311 107 105 102
-181.24202 -157.28381 17.292091 112 121 113
-181.08476 -157.33768 17.31234 62 75 58
-180.4967 -157.33958 17.380922 55 72 68
-180.33443 -157.27061 17.349005 68 79 75
-180.11328 -157.31784 17.317429 66 81 76
-179.92584 -157.31758 17.336075 77 87 80
-179.72842 -157.30299 17.312992 62 75 68
-179.52393 -157.28531 17.320166 83 88 79
-183.30782 -157.11583 17.281094 93 101 97
-183.10269 -157.11427 17.306705 119 123 114
-182.89728 -157.11717 17.34153 126 131 117
-182.71104 -157.09958 17.291355 108 113 104
-182.51482 -157.07486 17.283031 109 114 106
-182.328 -157.07805 17.294363 101 106 104
-182.15474 -157.01111 17.29652 100 107 98
-181.20773 -157.12695 17.297638 104 111 103
-181.12248 -157.09659 17.27224 88 103 92
-180.48659 -157.15012 17.31669 70 83 80
-180.31013 -157.07002 17.336334 74 85 81
-180.11156 -157.06413 17.309818 65 73 71
-179.6834 -157.09082 17.314703 69 69 66
-179.57507 -157.09131 17.333963 85 82 79
-179.32309 -157.02444 17.327768 77 72 63
-183.25432 -156.90463 17.259052 98 105 99
-183.08183 -156.91277 17.301849 106 111 103
-182.87628 -156.90663 17.325077 115 123 110
-182.70689 -156.89532 17.302593 129 132 120
-182.51767 -156.90242 17.32505 106 110 104
-182.2718 -156.87267 17.282373 96 103 99
-182.13014 -156.88106 17.306288 80 89 86
-181.91336 -156.817 17.271671 68 77 76
-181.73149 -156.80302 17.251545 69 79 80
-181.08817 -156.90213 17.355797 99 112 101
-180.6438 -156.90764 17.289545 57 70 61
-180.54793 -156.84912 17.293318 51 61 54
-180.24689 -156.84482 17.255026 81 95 87
-180.11099 -156.90733 17.312098 70 81 77
-179.9205 -156.9035 17.331591 86 93 87
-179.70947 -156.89259 17.294359 104 106 102
-179.50044 -156.91626 17.348116 99 99 93
-179.30559 -156.85738 17.278564 98 93 88
-183.43893 -156.64154 17.313145 125 121 116
-183.28784 -156.73615 17.2855 115 118 109
-183.12761 -156.72249 17.316679 107 112 103
-182.86317 -156.69232 17.303875 103 108 102
-182.70374 -156.71577 17.303198 104 110 100
-182.49448 -156.71944 17.30657 116 116 113
-182.26772 -156.71684 17.308556 110 114 110
-182.13531 -156.69821 17.281109 92 99 96
-181.91156 -156.7533 17.328316 95 97 96
-181.76257 -156.77902 17.320667 77 83 81
-181.06673 -156.66058 17.300028 95 104 92
-180.94298 -156.675 17.297678 79 89 79
-180.70352 -156.71501 17.306742 82 94 84
-180.51131 -156.69527 17.290783 69 81 72
-180.31441 -156.66911 17.316193 71 82 79
-180.16061 -156.70474 17.330158 72 85 81
-179.86276 -156.69661 17.291731 79 86 81
-179.70679 -156.68646 17.312618 98 102 97
-179.50882 -156.70071 17.333693 106 108 100
-179.29971 -156.69298 17.286228 132 123 114
-183.42761 -156.58014 17.379803 61 64 60
-183.30136 -156.54272 17.331724 96 102 93
-183.13232 -156.49838 17.298182 115 123 111
-182.85773 -156.52019 17.299364 113 120 112
-182.71162 -156.48802 17.313574 114 118 110
-182.52515 -156.48682 17.303726 105 109 104
-182.29486 -156.50374 17.306265 101 106 105
-182.14101 -156.50447 17.262642 114 123 116
-181.8353 -156.51416 17.275314 86 95 94
-181.71463 -156.50447 17.274982 54 63 59
-181.53845 -156.50096 17.294779 69 80 71
-181.30275 -156.42508 17.248684 53 63 58
-181.08968 -156.50955 17.294209 76 86 77
-180.9055 -156.5159 17.268747 61 72 65
-180.74425 -156.45796 17.280602 72 83 78
-180.5098 -156.47267 17.287951 68 81 77
-180.32414 -156.4944 17.278652 77 90 86
-180.10187 -156.47443 17.34193 80 89 87
-179.86359 -156.48322 17.301659 92 102 92
-179.70081 -156.50386 17.310743 86 97 90
-179.52657 -156.52127 17.319304 96 104 96
-179.34294 -156.54346 17.332932 101 100 91
-183.875 -156.24799 17.280357 98 97 99
-183.7005 -156.30383 17.276392 125 125 120
-183.51991 -156.29195 17.258417 153 148 146
-183.23886 -156.31302 17.292458 100 112 99
-183.08696 -156.34363 17.29697 100 110 100
-182.9325 -156.31517 17.310862 112 119 109
-182.70833 -156.27089 17.286926 122 130 117
-182.48116 -156.30318 17.324987 112 116 109
-182.27907 -156.31284 17.329762 112 119 111
-182.1414 -156.28156 17.28945 98 107 101
-181.9238 -156.29735 17.255541 99 106 103
-181.64813 -156.33006 17.309113 74 88 84
-181.4713 -156.29414 17.320801 69 85 72
-181.30127 -156.26538 17.281172 68 78 74
-181.08206 -156.30165 17.287331 78 88 82
-180.89375 -156.28867 17.300421 68 80 75
-180.68724 -156.32014 17.305553 72 83 81
-180.52112 -156.30533 17.299383 74 87 82
-180.32869 -156.30981 17.26096 82 90 84
-180.08896 -156.30954 17.25176 92 100 93
-179.86058 -156.29863 17.321234 105 115 103
-179.71019 -156.33755 17.335121 100 111 102
-179.4893 -156.30713 17.323315 49 59 61
-179.3663 -156.33994 17.305765 80 89 85
-178.36438 -156.25471 17.366653 76 74 75
-183.8277 -156.1071 17.300768 89 88 91
-183.70699 -156.11253 17.317581 120 119 119
-183.52473 -156.11856 17.276495 116 121 114
-183.32996 -156.08118 17.319559 116 115 111
-183.08232 -156.08411 17.30508 102 110 100
-182.91788 -156.08603 17.298458 101 111 100
-182.71481 -156.08327 17.299183 108 116 105
-182.4731 -156.1263 17.311956 109 114 106
-182.29105 -156.10867 17.308929 100 107 101
-182.12038 -156.09268 17.286037 92 100 95
-181.90276 -156.13043 17.285494 87 97 96
-181.73236 -156.11111 17.282646 79 92 89
-181.48833 -156.09583 17.306368 67 80 71
-181.26692 -156.0755 17.320023 82 94 91
-181.09021 -156.10066 17.306929 79 90 86
-180.88948 -156.09331 17.271713 80 91 87
-180.73305 -156.08287 17.30624 71 82 77
-180.52219 -156.09467 17.326567 75 84 79
-180.36261 -156.10373 17.200535 82 84 81
-180.07899 -156.08961 17.217186 110 118 105
-179.71788 -156.11322 17.22509 94 103 99
-179.46031 -156.01131 17.22817 122 121 117
-179.35735 -156.06744 17.268284 71 78 76
-183.89288 -155.8985 17.281536 72 68 74
-183.69716 -155.88972 17.307459 79 74 81
-183.50948 -155.8924 17.310209 131 130 126
-183.2879 -155.95102 17.305433 108 110 104
-183.09917 -155.90398 17.31661 113 117 112
-182.88647 -155.89995 17.284559 106 114 105
-182.69751 -155.88937 17.312523 115 123 115
-182.52402 -155.91476 17.337492 113 118 112
-182.28485 -155.90965 17.29977 102 107 103
-182.12926 -155.91066 17.317863 97 102 98
-181.88261 -155.91133 17.253262 90 101 99
-181.68579 -155.94174 17.342075 69 79 80
-181.504 -155.87881 17.327116 76 86 85
-181.27742 -155.9077 17.287771 77 88 87
-181.12897 -155.91788 17.316042 71 82 79
-180.90448 -155.92543 17.288427 82 91 89
-180.72838 -155.95009 17.290955 86 93 86
-180.5206 -155.89874 17.369551 67 78 75
-180.00079 -155.83415 17.392666 94 90 81
-179.46336 -155.89079 17.286282 112 115 111
-179.28841 -155.88625 17.300257 98 102 98
-179.16757 -155.8456 17.358231 63 74 70
-178.8976 -155.88788 17.209003 57 50 42
-178.72084 -155.85371 17.237083 60 69 76
-183.87372 -155.67535 17.288874 53 57 60
-183.66199 -155.69405 17.317175 69 69 73
-183.50179 -155.67992 17.309261 115 116 113
-183.33202 -155.68382 17.268404 76 86 81
-183.07455 -155.68571 17.286264 105 110 107
-182.8924 -155.69273 17.289093 100 110 100
-182.69626 -155.70915 17.306843 98 100 97
-182.49217 -155.68896 17.289301 87 93 87
-182.30141 -155.71574 17.325111 97 103 97
-182.15675 -155.70747 17.299646 106 113 108
-181.77853 -155.6387 17.312485 92 103 100
-181.50723 -155.69173 17.293232 75 90 84
-181.32721 -155.74101 17.323984 71 85 81
-181.10767 -155.67178 17.302357 116 127 128
-180.88998 -155.71556 17.315056 106 115 115
-180.71455 -155.66541 17.34219 101 114 107
-180.54129 -155.63686 17.220505 97 101 99
-180.2352 -155.6123 17.227682 84 87 79
-180.07166 -155.65123 17.243235 101 107 107
-179.8837 -155.65564 17.27364 115 120 116
-179.71692 -155.68602 17.302847 104 113 114
-179.4735 -155.71764 17.274084 101 107 99
-179.31572 -155.69508 17.265018 100 102 101
-179.12431 -155.71313 17.277201 102 110 110
-178.85791 -155.64122 17.333078 145 149 148
-178.51273 -155.63879 17.37492 82 89 88
-183.69783 -155.55568 17.296118 73 79 80
-183.53479 -155.51451 17.353201 66 72 73
-183.23938 -155.53555 17.32 60 67 66
-183.08398 -155.49251 17.294142 111 114 113
-182.9207 -155.49277 17.308105 119 121 116
-182.72847 -155.52602 17.299288 94 100 93
-182.51173 -155.53351 17.29739 86 90 83
-182.35353 -155.52274 17.329424 106 116 104
-182.1102 -155.50056 17.3214 124 136 131
-181.88335 -155.52917 17.285109 98 108 105
-181.52293 -155.51357 17.29076 82 93 88
-181.25882 -155.48227 17.245024 100 104 98
-181.11295 -155.49985 17.322639 97 104 98
-180.90134 -155.52251 17.258028 100 106 105
-180.67519 -155.46869 17.248711 100 105 100
-180.4957 -155.49817 17.274481 108 114 111
-180.31619 -155.49274 17.259155 89 96 94
-180.12584 -155.50439 17.28825 94 101 98
-179.89418 -155.49719 17.270412 108 114 112
-179.71138 -155.51337 17.300833 92 99 94
-179.57755 -155.52274 17.319672 108 109 107
-179.27071 -155.53615 17.270782 99 101 100
-179.09253 -155.49428 17.308832 122 122 118
-178.94708 -155.55234 17.355976 79 86 88
-178.4502 -155.56094 17.349106 59 69 64
-178.321 -155.58359 17.305025 71 80 75
-177.56754 -155.40619 17.31665 57 66 61
-183.06419 -155.37604 17.277119 128 138 128
-182.87737 -155.34334 17.26454 106 111 107
-182.6875 -155.33026 17.308495 97 93 88
-182.11751 -155.38646 17.335934 152 157 153
-181.71249 -155.22128 17.288898 134 132 133
-181.46219 -155.28032 17.230658 104 112 110
-181.30547 -155.29025 17.311764 94 99 96
-181.10258 -155.35735 17.268047 128 128 130
-180.89893 -155.30452 17.275745 104 111 106
-180.70828 -155.30252 17.286598 114 118 116
-180.49896 -155.30164 17.290157 103 108 104
-180.29883 -155.3232 17.304335 107 115 111
-180.13524 -155.35713 17.296532 99 108 105
-179.92439 -155.32339 17.27784 109 116 114
-179.65776 -155.33064 17.313507 87 93 89
-179.55013 -155.33063 17.329769 64 79 73
-179.29123 -155.33496 17.299255 73 83 84
-178.80574 -155.39946 17.325262 70 77 70
-178.6993 -155.27705 17.340372 97 104 105
-178.56378 -155.21655 17.322069 81 91 93
-177.9021 -155.25397 17.354164 85 88 89
-177.71127 -155.3911 17.304174 104 108 111
-177.4594 -155.30807 17.343025 87 96 95
-186.84305 -155.00357 17.222618 133 121 127
-183.16315 -155.12729 17.307257 79 92 91
-181.95003 -155.04767 17.204292 72 83 77
-181.68008 -155.11635 17.294989 122 121 126
-181.50533 -155.1076 17.286659 127 126 128
-181.31435 -155.07826 17.261412 107 111 108
-181.11867 -155.03018 17.32243 114 118 114
-180.8593 -155.09937 17.300322 98 105 104
-180.67796 -155.10362 17.304785 104 115 113
-180.5079 -155.12929 17.319361 91 102 99
-180.31282 -155.12827 17.320616 111 117 114
-180.13087 -155.09877 17.301296 97 95 88
-178.68297 -155.07724 17.327553 86 93 94
-178.48711 -155.04002 17.291597 82 92 93
-178.39839 -155.09525 17.207268 43 53 54
-178.06842 -155.13605 17.295139 92 96 96
-177.89114 -155.0995 17.299395 105 114 107
-177.6409 -155.12781 17.343903 83 92 90
-177.51816 -155.0889 17.335524 65 72 75
-187.07899 -154.81073 17.306179 107 100 110
-186.92094 -154.90446 17.264774 137 123 135
-182.04282 -154.90654 17.218987 77 87 87
-181.87213 -154.87447 17.269749 149 155 151
-181.70013 -154.93817 17.309769 76 83 86
-181.4865 -154.92476 17.293943 106 112 114
-181.32147 -154.936 17.313263 99 103 101
-181.15105 -154.91592 17.269102 129 132 132
-180.90385 -154.89848 17.276525 94 105 96
-180.77292 -154.92662 17.35067 123 130 128
-180.5939 -154.94327 17.339796 133 146 144
-179.86072 -154.80043 17.374123 103 106 121
-178.82237 -154.94162 17.350124 72 77 83
-178.70695 -154.9101 17.310364 101 105 108
-178.51405 -154.87854 17.304052 75 84 84
-178.33383 -154.91472 17.308216 55 66 65
-178.09853 -154.83058 17.346054 80 87 88
-177.96909 -154.9921 17.335865 90 99 93
-177.72495 -154.91414 17.327299 96 103 100
-177.27322 -154.8315 17.392395 76 88 86
-187.4487 -154.71877 17.242115 103 105 116
-187.28409 -154.6888 17.275223 81 78 93
-187.06281 -154.70009 17.283783 116 104 117
-186.91597 -154.71576 17.295784 123 111 123
-186.78613 -154.67456 17.325729 116 105 120
-183.24269 -154.77188 17.206821 39 55 45
-182.01364 -154.78224 17.293175 173 179 179
-181.87717 -154.79086 17.31345 165 168 168
-181.38284 -154.72043 17.398735 108 118 120
-181.07344 -154.64722 17.392632 92 100 102
-180.90376 -154.7682 17.373398 106 112 115
-180.77438 -154.74562 17.399761 119 131 116
-179.84598 -154.77393 17.360308 64 69 75
-178.70782 -154.65674 17.263025 85 92 95
-178.4812 -154.68263 17.29323 77 86 86
-178.2959 -154.7115 17.286551 76 85 85
-178.14618 -154.65623 17.318556 83 87 87
-177.92935 -154.68565 17.296761 68 70 67
-177.47693 -154.66588 17.324919 51 62 62
-177.31082 -154.6795 17.35084 51 59 58
-187.63062 -154.50357 17.275635 81 85 94
-187.52216 -154.48712 17.294409 97 96 107
-187.29073 -154.50221 17.277704 102 95 107
-187.08783 -154.49054 17.316038 123 110 124
-186.91634 -154.5177 17.291409 140 126 140
-186.71686 -154.50162 17.274059 130 118 129
-186.59352 -154.44089 17.385695 94 75 84
-181.30652 -154.41754 17.288258 38 55 47
-180.8197 -154.50598 17.224167 81 83 98
-180.40614 -154.43555 17.349966 175 174 189
-180.36374 -154.44627 17.283138 124 119 126
-180.14571 -154.41095 17.267611 103 114 118
-179.63977 -154.47958 17.296448 80 85 90
-178.84665 -154.43875 17.287067 51 57 58
-178.70071 -154.47926 17.33119 79 84 87
-178.53577 -154.51869 17.326403 76 83 85
-178.30792 -154.49313 17.33839 77 85 86
-178.09409 -154.52344 17.337648 82 88 87
-177.86977 -154.49017 17.379505 64 72 73
-177.70209 -154.49316 17.338444 59 69 68
-177.55544 -154.46272 17.335487 55 62 61
-177.32257 -154.47058 17.33127 47 53 52
-187.85402 -154.21274 17.296993 101 101 111
-187.6729 -154.28629 17.27664 99 99 112
-187.47275 -154.28136 17.304022 108 104 116
-187.26826 -154.27412 17.283014 100 93 106
-187.08765 -154.31944 17.304726 124 112 124
-186.91977 -154.33928 17.304256 120 111 121
-186.71652 -154.3819 17.271511 105 99 106
-180.47812 -154.27261 17.386122 146 139 149
-180.07007 -154.30867 17.285595 152 150 161
-178.93192 -154.33347 17.28923 111 112 114
-178.68268 -154.29353 17.288668 86 94 94
-178.51013 -154.26851 17.313608 68 77 78
-178.26526 -154.2838 17.292824 71 78 78
-178.10233 -154.28259 17.31156 82 91 91
-177.88237 -154.30589 17.348663 66 75 76
-177.70013 -154.32652 17.339136 71 79 78
-177.51228 -154.35254 17.333338 66 76 73
-188.45158 -154.0347 17.221422 157 150 168
-188.2422 -154.02773 17.324549 120 112 125
-188.02951 -154.09351 17.26511 104 101 113
-187.86485 -154.03209 17.240015 99 99 113
-187.71735 -154.12657 17.263083 103 101 115
-187.50696 -154.09123 17.348146 105 106 118
-187.28528 -154.11957 17.270546 107 104 116
-187.07635 -154.11516 17.276339 125 113 126
-186.92082 -154.07588 17.324213 134 120 132
-186.77634 -154.18954 17.359615 140 123 135
-180.43759 -154.1069 17.360058 143 138 142
-180.28259 -154.04211 17.362625 145 140 143
-180.12402 -154.0955 17.313816 173 165 167
-179.89212 -154.07463 17.298557 121 120 124
-179.78154 -154.14185 17.332985 153 146 149
-178.87347 -154.09282 17.312241 65 74 75
-178.68065 -154.12166 17.311182 68 78 78
-178.49529 -154.09393 17.289167 68 76 77
-178.32068 -154.108 17.313717 63 71 71
-178.14235 -154.10619 17.309816 69 75 77
-177.89397 -154.11066 17.321802 67 74 76
-177.70746 -154.07777 17.345968 88 93 91
-177.54199 -154.12022 17.269592 64 72 71
-176.94946 -154.1311 17.351324 47 56 53
-188.20818 -153.98349 17.283783 115 106 119
-188.12395 -153.91512 17.291672 113 106 118
-187.96437 -153.981 17.275438 107 105 116
-187.65501 -153.98927 17.316832 105 108 121
-187.09698 -153.94121 17.280313 138 129 138
-180.84416 -153.85072 17.284437 153 147 149
-180.71687 -153.88097 17.308586 139 135 139
-180.47742 -153.83673 17.28698 133 129 134
-180.34276 -153.91667 17.266548 120 116 119
-180.07925 -153.92188 17.26561 124 124 124
-179.8714 -153.93939 17.322239 135 133 137
-178.80678 -153.91486 17.328449 51 59 58
-178.69823 -153.8886 17.298306 68 76 78
-178.4939 -153.93373 17.282497 66 76 78
-178.36069 -153.90739 17.319141 66 78 79
-178.12813 -153.98639 17.262888 70 72 77
-177.85643 -153.8679 17.34824 80 82 81
-177.75067 -153.92926 17.293663 71 76 76
-177.48456 -153.86646 17.33143 91 97 98
