ply
format ascii 1.0
comment PCL generated
element vertex 1108
property float x
property float y
property float z
property uchar red
property uchar green
property uchar blue
element face 0
element camera 0
property float view_px
property float view_py
property float view_pz
property float x_axisx
property float x_axisy
property float x_axisz
property float y_axisx
property float y_axisy
property float y_axisz
property float z_axisx
property float z_axisy
property float z_axisz
property float focal
property float scalex
property float scaley
property float centerx
property float centery
property int viewportx
property int viewporty
property float k1
property float k2
end_header
-2.1343074 -128.73598 28.18383 82 90 102
-1.9026649 -128.75911 28.075968 76 84 87
-1.6964967 -128.74374 28.109837 82 91 94
-0.88724577 -128.65134 28.085159 71 81 80
-0.7100485 -128.65355 28.113302 73 79 81
-0.53379613 -128.68504 28.133566 86 90 92
-0.069007754 -128.79539 28.07048 57 68 70
0.034160912 -128.6806 28.110546 55 63 66
0.31861857 -128.67488 28.163353 53 61 63
0.51193798 -128.62238 28.138691 77 85 86
0.6964829 -128.68575 28.136826 67 75 77
1.4905145 -128.75392 28.114025 104 106 110
1.6458577 -128.70955 28.135599 143 143 146
2.5958309 -128.70909 28.009285 97 96 94
2.6939824 -128.69237 28.104666 118 116 116
2.8203783 -128.69769 28.157431 133 122 124
-4.7327151 -128.46666 28.167616 120 117 126
-4.4401016 -128.44914 28.060076 149 142 156
-4.2840462 -128.45331 28.122187 150 152 162
-4.1086545 -128.47311 28.133533 116 120 130
-3.8956211 -128.5027 28.109901 99 106 114
-3.6815369 -128.50333 28.083235 104 109 116
-3.5192764 -128.4864 28.106897 106 107 113
-3.2919805 -128.45316 28.08983 97 100 108
-3.1057081 -128.47108 28.100843 105 103 110
-2.9257438 -128.49783 28.118736 160 159 165
-1.853911 -128.50595 28.069805 66 72 78
-1.7972927 -128.50481 28.01701 52 57 61
-0.95575875 -128.52538 28.067293 81 90 91
-0.75175542 -128.43231 28.032055 70 76 74
-0.38646579 -128.52754 28.123579 74 75 80
0.10433006 -128.46925 28.090979 66 77 79
0.31987154 -128.55075 28.170082 64 71 72
0.51517427 -128.5358 28.176006 67 76 77
0.67026716 -128.53828 28.172235 65 73 72
0.85605687 -128.49146 28.151794 100 108 111
1.3986161 -128.48805 28.098722 66 68 72
1.4802859 -128.49045 28.115154 68 73 77
1.6705393 -128.45816 28.123358 83 87 91
1.8886347 -128.49489 28.191227 92 103 97
2.1824787 -128.44171 28.150373 115 116 119
2.2291937 -128.40866 28.179489 136 135 135
2.5781231 -128.45018 28.167946 130 124 125
2.6772573 -128.51187 28.111935 115 112 114
-4.5710073 -128.33467 28.157324 66 80 83
-4.272099 -128.32753 28.074301 140 138 146
-4.1278319 -128.30194 28.099117 144 144 154
-3.9006221 -128.27484 28.141659 136 134 142
-3.7026656 -128.32571 28.117779 137 137 146
-3.5238912 -128.33919 28.097641 110 112 116
-3.2745819 -128.29192 28.101339 104 106 115
-3.0997109 -128.29507 28.09461 117 115 123
-2.9647057 -128.36589 28.146513 147 143 151
-1.3209755 -128.31721 28.179169 71 76 79
-0.52089161 -128.27629 28.122526 59 63 67
0.15107243 -128.36058 28.116282 66 76 77
0.30850774 -128.24939 28.15414 62 70 71
0.49916071 -128.32628 28.143625 65 69 72
0.68656462 -128.29549 28.161142 72 76 80
0.93913591 -128.32033 28.171165 65 76 77
1.5536542 -128.29294 28.09527 70 78 81
1.6911477 -128.3046 28.106562 86 90 94
1.9118162 -128.28004 28.148499 100 103 107
2.1244185 -128.32751 28.138241 111 109 113
2.2765014 -128.28053 28.169569 174 167 167
2.5510116 -128.32683 28.178869 130 124 126
2.7122362 -128.29932 28.1404 137 129 132
2.822057 -128.22969 28.188627 156 144 146
-4.065073 -128.10129 28.084774 140 139 149
-3.9118831 -128.08983 28.097775 123 124 130
-3.6760066 -128.09891 28.128609 140 137 143
-3.4837167 -128.14946 28.127726 88 95 104
-3.2651815 -128.09471 28.111021 94 98 105
-3.1230683 -128.07689 28.084652 133 134 141
-1.7139006 -128.16708 28.052547 92 96 97
-1.5540624 -128.08316 28.128057 83 91 88
-1.2643702 -128.1404 28.088337 83 93 92
-0.67708385 -128.07292 28.159626 63 68 68
-0.51723111 -128.1438 28.120438 68 72 75
-0.3743715 -128.09512 28.176506 111 107 109
0.33266574 -128.15482 28.114033 72 82 82
0.48567501 -128.09952 28.112015 77 85 87
0.6821062 -128.10258 28.129755 68 70 75
0.89652371 -128.0475 28.199993 69 73 76
1.1485158 -128.03204 28.138214 63 75 75
1.2178037 -128.00134 28.11624 66 71 75
1.4853575 -128.06044 28.118273 89 92 96
1.6956055 -128.06509 28.09108 118 118 121
1.9255908 -128.05887 28.123161 117 116 120
2.0542123 -128.07213 28.158484 111 110 116
2.6181564 -128.08221 28.172787 129 125 124
2.935087 -128.08287 28.132057 139 128 134
-4.2110295 -127.97947 28.008598 93 100 106
-4.0652585 -127.87044 28.109278 145 144 148
-3.9081318 -127.9054 28.137121 136 136 140
-3.7438293 -127.92835 28.122105 145 140 146
-3.4747832 -127.87015 28.111517 111 113 119
-3.2868469 -127.91489 28.114609 133 130 139
-3.1706362 -127.934 28.139902 155 153 158
-2.835783 -127.88224 28.070786 63 72 76
-2.7515125 -127.8737 28.130112 102 105 110
-2.2325068 -127.96293 28.102222 61 62 66
-2.1435716 -127.85745 28.024845 87 86 92
-1.7854383 -127.81106 28.112446 89 88 94
-1.5038639 -127.94666 28.13834 96 102 97
-0.33464864 -127.96122 28.133051 63 64 68
0.078781515 -127.82809 28.053875 77 82 85
0.5526464 -127.84304 28.003502 55 63 66
0.70675999 -127.90885 28.13999 88 89 92
0.90926921 -127.89824 28.174585 140 138 139
1.1198403 -127.88955 28.162207 80 84 86
1.2885056 -127.90095 28.158886 82 91 93
1.492655 -127.91385 28.157377 106 111 112
1.7055508 -127.94328 28.141285 124 124 124
1.8636436 -127.9411 28.162636 134 134 137
2.1108358 -127.91094 28.119413 99 101 105
2.2622674 -127.85022 28.138609 95 94 99
2.7231801 -127.88116 28.144585 163 162 158
2.9453936 -127.88794 28.144894 128 127 129
3.033947 -127.94709 28.166447 134 130 131
-4.2645779 -127.66834 28.116421 165 160 166
-4.1333084 -127.76581 28.139557 163 160 162
-3.8906448 -127.67836 28.099335 120 122 125
-3.7002642 -127.67986 28.140137 112 111 116
-3.5284803 -127.69595 28.094606 110 113 117
-3.2674422 -127.6831 28.120771 147 145 151
-3.1712751 -127.68949 28.13619 153 150 154
-2.6326299 -127.66945 28.127165 94 100 100
-2.5133457 -127.65527 28.095654 96 100 104
-2.3753746 -127.61324 28.182198 74 82 84
-1.5222654 -127.78178 28.14393 120 126 123
-0.54174238 -127.66766 28.111431 67 74 75
-0.046812743 -127.65524 28.160788 92 100 102
0.1725471 -127.69987 28.172926 69 68 73
0.27267623 -127.64795 28.057487 80 85 87
0.45485392 -127.66466 28.14399 109 111 113
0.7625972 -127.69077 28.085342 116 112 120
0.92587936 -127.71859 28.134253 84 86 90
1.0165726 -127.69672 28.143229 99 101 104
1.5630414 -127.72188 28.174683 91 98 101
2.1141491 -127.7198 28.110168 85 91 92
2.3133292 -127.72235 28.136084 108 103 109
2.4509416 -127.66011 28.155872 155 148 153
2.6757574 -127.65625 28.16703 155 152 157
2.9059119 -127.70509 28.133606 125 125 129
-4.2971749 -127.50694 28.086796 179 169 180
-4.0501733 -127.4435 28.063864 145 145 151
-3.8927658 -127.5324 28.09672 106 108 112
-3.6996233 -127.55676 28.070293 107 109 114
-3.4508214 -127.48554 28.016422 183 177 189
-3.3203321 -127.48386 28.11051 154 149 156
-2.471308 -127.49996 28.116419 100 104 108
-2.3302898 -127.49657 28.12236 78 84 86
-2.1420913 -127.52837 28.16181 75 80 83
-1.1604356 -127.52379 28.198092 72 81 86
-0.66821992 -127.54061 28.051451 61 66 69
-0.51315224 -127.49783 28.139004 78 81 86
-0.00090019405 -127.59019 28.041344 62 67 71
0.13605689 -127.54985 28.05352 73 77 81
0.25755662 -127.47308 28.114365 87 89 93
0.5033251 -127.46582 28.144299 82 88 88
0.68545443 -127.48686 28.135916 76 82 81
0.86814922 -127.53562 28.092566 103 106 107
1.3527009 -127.47369 28.15398 82 85 88
2.1445763 -127.54003 28.125971 132 129 129
2.2639179 -127.49564 28.14826 167 159 163
2.4829841 -127.49001 28.143456 118 115 120
2.7191696 -127.46153 28.135479 122 121 122
2.8842595 -127.4982 28.140739 130 128 131
3.07284 -127.53557 28.173735 75 71 72
-4.4502378 -127.37715 28.08934 55 57 70
-4.2688637 -127.3053 28.124151 173 164 174
-4.1242423 -127.28426 28.109158 159 155 160
-3.9421101 -127.35679 28.106472 122 123 126
-3.3176475 -127.30635 28.101025 132 130 138
-3.1347525 -127.22395 28.149975 124 127 130
-2.6463931 -127.3075 28.077349 115 115 120
-2.4915605 -127.3405 28.118917 88 91 93
-2.2954175 -127.33155 28.105423 83 88 86
-2.1140187 -127.30652 28.127117 118 122 121
-1.6891153 -127.27486 28.164135 133 136 138
-0.065646797 -127.3728 28.117096 106 107 111
0.095273048 -127.38919 28.101152 87 99 96
0.2878215 -127.36261 28.105083 65 74 71
0.45256606 -127.33068 28.146698 95 101 98
2.3148971 -127.30648 28.108765 131 128 131
2.4885857 -127.30546 28.128653 107 110 112
2.6979482 -127.29499 28.135927 124 127 126
2.8654077 -127.31052 28.146656 142 138 142
3.0548768 -127.31914 28.151489 148 144 148
-4.2981253 -127.17348 28.105906 109 110 119
-4.1569366 -127.17579 28.086248 116 115 119
-3.9311435 -127.17654 28.001934 140 144 147
-3.3370006 -127.18307 28.053896 97 94 106
-3.0404816 -127.09752 28.105721 163 164 164
-2.938869 -127.06335 28.180759 139 141 141
-2.4941521 -127.13687 28.146877 135 138 136
-2.3319976 -127.1282 28.129004 136 140 139
-1.9085958 -127.03329 28.165512 126 126 129
-1.05862 -127.12392 28.075748 80 85 89
-0.28488579 -127.06757 28.10817 77 82 85
0.083544612 -127.17774 28.08663 138 139 134
1.8761536 -127.01138 28.139751 91 96 100
2.3303945 -127.09364 28.120274 114 112 112
2.5084894 -127.08174 28.13509 136 135 139
2.7037668 -127.06711 28.137596 147 144 148
2.8401854 -127.07214 28.106979 157 152 157
3.0027361 -127.01762 28.129654 92 91 97
-3.2222064 -126.86449 28.01445 123 131 135
-3.0217097 -126.92831 28.103256 110 113 118
-2.9111576 -126.87933 28.1509 142 144 147
-2.6768582 -126.86703 28.17215 102 107 107
-2.5601792 -126.8515 28.138432 115 115 115
-1.859031 -126.96276 28.115166 128 131 124
-1.4901359 -126.954 28.064074 57 61 62
-1.2901832 -126.80946 28.138054 80 85 89
-1.1453415 -126.87873 28.154779 79 82 90
-0.93230677 -126.83637 28.120958 90 90 100
-0.76385254 -126.86474 28.165356 81 85 88
-0.13294706 -126.94131 28.088009 100 94 104
0.25996453 -126.80449 28.07077 75 79 82
0.50830585 -126.83582 28.122952 103 107 107
1.2316682 -126.92723 28.176914 116 119 112
1.6343852 -126.84062 28.133232 104 96 107
1.9036227 -126.95842 28.177879 83 88 90
2.1712747 -126.96222 28.139179 173 163 164
2.2708185 -126.94096 28.185196 151 151 154
2.5355949 -126.90679 28.126516 135 132 137
2.6723123 -126.90241 28.124386 131 129 134
2.8509834 -126.95598 28.126682 135 134 136
-4.1441607 -126.76284 28.132814 181 169 181
-3.8672588 -126.7277 28.03079 148 150 162
-3.7038736 -126.69565 28.11816 117 122 132
-3.2472532 -126.65326 28.005703 111 117 119
-3.007091 -126.62047 28.111071 136 142 146
-2.9126453 -126.67944 28.09841 158 159 163
-2.6840875 -126.70983 28.122284 138 140 142
-2.5560822 -126.74171 28.100225 113 116 116
-2.3423448 -126.64649 28.016699 92 92 104
-1.6167142 -126.65575 28.158195 80 83 88
-1.5333741 -126.7198 28.146301 72 75 79
-1.064116 -126.77536 28.075676 82 87 96
-0.94915468 -126.73907 28.149082 91 96 96
-0.70723462 -126.70042 28.121151 93 101 105
0.31817821 -126.69606 28.095936 79 81 86
0.47713608 -126.69289 28.12591 99 100 105
0.73790669 -126.71698 28.118059 85 89 91
0.84464037 -126.68783 28.151459 109 114 116
1.698971 -126.72135 28.038624 59 64 70
1.9328091 -126.68078 28.170782 132 136 144
2.1487293 -126.70348 28.143723 129 121 129
2.3639195 -126.66446 28.153662 123 123 128
2.5235267 -126.71708 28.123436 114 117 119
2.6549594 -126.76422 28.131233 111 118 118
-3.0908456 -126.46585 28.034788 141 147 153
-2.9195359 -126.51102 28.114601 152 156 160
-1.6721841 -126.50317 28.158422 71 78 80
-1.1412807 -126.52536 28.159172 71 73 77
-0.065350063 -126.49735 28.109426 68 73 72
0.14778194 -126.47734 28.0956 93 94 97
0.270825 -126.49836 28.096352 104 100 106
0.51495612 -126.55723 28.108326 165 163 169
0.75627965 -126.48527 28.126719 107 111 114
0.88548309 -126.48222 28.136606 116 117 122
1.1297618 -126.51849 28.085718 133 130 130
1.375728 -126.43484 28.123581 173 172 177
1.538915 -126.50814 28.13187 115 118 117
1.8736838 -126.5158 28.088821 101 107 114
2.1066427 -126.48885 28.12821 125 128 131
2.3041053 -126.46509 28.127468 107 113 115
2.4380891 -126.58475 28.141426 120 122 123
-3.6345701 -126.29938 28.03447 167 170 180
-3.5628991 -126.24538 28.017843 134 139 139
-3.3319039 -126.27473 28.03664 143 148 151
-3.0607736 -126.32122 28.037758 148 151 155
-2.9158709 -126.30456 28.07497 169 170 174
0.1034767 -126.33275 28.123741 126 126 127
0.51928371 -126.27761 28.148191 100 96 101
0.77734613 -126.37136 28.174444 94 98 101
0.93600261 -126.27017 28.113558 86 88 94
1.0804631 -126.35482 28.125486 158 152 158
1.3703645 -126.22585 28.153017 106 113 117
1.5025868 -126.34579 28.068811 99 104 107
1.8868062 -126.26511 28.176323 158 154 162
2.2858977 -126.37336 28.119888 126 127 130
2.4113498 -126.35519 28.122341 144 139 135
-3.5138974 -126.09534 28.058622 132 129 133
-3.0443683 -126.06998 28.078751 139 144 145
-2.9367671 -126.09391 28.098089 144 147 151
0.15058649 -126.09075 28.144165 86 98 91
0.27478665 -126.14473 28.155437 94 101 95
0.49784881 -126.11819 28.072487 81 84 84
0.62836671 -126.06434 28.145845 122 117 121
0.92709523 -126.10281 28.096573 98 101 105
1.0929714 -126.10358 28.133093 97 100 107
1.2668221 -126.17569 28.099287 102 103 107
1.5231315 -126.07596 28.180466 127 132 130
-3.2055249 -125.93669 28.01107 142 141 149
-3.0909643 -125.884 28.100903 152 152 152
-2.9043472 -125.88279 28.100805 117 119 119
-2.7118485 -125.87831 28.137537 147 150 154
0.13935931 -125.81397 28.062283 73 73 73
0.34369221 -125.88872 28.046343 115 113 110
0.51107287 -125.89609 28.154453 109 112 117
2.6759253 -125.85777 28.119289 76 89 80
-3.1077993 -125.68144 28.110443 153 149 148
-2.9201233 -125.65464 28.098286 99 99 95
-2.7132294 -125.73828 28.053909 125 120 123
-1.68578 -125.76915 28.180857 111 121 116
-0.061291378 -125.62972 28.051264 110 113 114
0.091507614 -125.6611 28.056807 99 101 98
0.37467286 -125.79103 28.068581 110 113 113
0.63689208 -125.68052 28.101089 134 135 140
1.366972 -125.75365 28.104162 121 127 130
2.6161528 -125.78532 28.180834 96 71 93
-3.0761366 -125.53878 28.127447 152 143 137
-2.9759274 -125.53152 28.073986 125 119 113
-2.2125325 -125.42986 28.183844 113 118 121
-0.84677941 -125.49416 28.110897 92 93 96
-0.062380876 -125.45943 28.093451 95 99 95
-2.6753728 -125.39935 28.127317 130 130 130
-1.885867 -125.36436 28.064877 182 177 183
-1.7313247 -125.27381 28.148609 143 146 150
-0.92685866 -125.26211 28.067198 72 76 77
-0.71811157 -125.35052 28.061909 135 128 135
-0.42650825 -125.22919 28.044535 84 86 85
-0.21502526 -125.20508 28.079561 134 137 132
-0.10767639 -125.31348 28.12532 110 114 111
0.12195273 -125.25114 28.113962 105 109 106
0.52055216 -125.33658 28.145655 158 158 160
-1.8787582 -125.08267 28.123907 116 115 115
-1.7450967 -125.04019 28.118711 127 127 130
-0.8070544 -125.02402 28.030418 110 106 105
-0.50481117 -125.16989 28.078543 101 100 102
-0.2955839 -125.12885 28.069412 128 128 127
-0.11132605 -125.02388 28.068886 130 128 124
0.12633863 -125.05145 28.047289 133 131 134
-1.8178257 -124.91644 28.080362 156 158 160
-1.7351497 -124.89767 28.111847 147 146 147
-1.2250597 -124.81263 28.065825 117 114 109
-1.1243335 -124.86683 28.112276 111 109 104
-0.27873755 -124.98976 28.031874 107 108 104
0.0047509372 -124.99605 28.069485 149 146 148
-1.8614311 -124.67877 28.123663 114 108 103
-1.7663796 -124.68579 28.073122 169 161 159
-1.2913389 -124.67235 28.095592 148 143 143
-1.1840824 -124.76641 28.188004 138 135 136
-2.4016461 -124.41243 28.186928 159 155 144
-2.2301364 -124.47755 28.147243 182 176 164
-2.0946827 -124.46493 28.112514 142 128 120
-1.8857081 -124.54179 28.15333 173 166 154
-1.6653613 -124.54443 28.08032 152 135 132
-1.4846255 -124.50992 28.123102 156 145 143
-1.3195175 -124.52301 28.022551 164 146 146
-2.4813602 -124.32383 28.123648 158 145 137
-2.2865188 -124.27108 28.094198 181 170 161
-2.0765102 -124.28403 28.116344 151 137 127
-1.4894906 -124.292 28.074213 172 146 139
-1.297032 -124.26894 28.115395 146 130 124
-1.1947417 -124.26604 28.177994 230 216 216
-2.4789128 -124.07021 28.025402 180 156 152
-2.3460445 -124.11169 28.102997 135 130 111
-2.0212626 -124.11875 28.067181 143 140 135
-1.8853927 -124.16498 28.149035 106 100 92
-1.744212 -124.03722 28.161245 169 152 144
-1.4609149 -124.12509 28.067841 170 141 134
-1.3218434 -124.18085 28.110546 159 146 139
-1.099041 -124.02161 28.102444 110 105 96
-2.436228 -123.91837 28.057297 179 162 151
-2.3457079 -123.87619 28.041143 189 170 156
-1.7181737 -123.89085 28.178804 168 143 139
-1.4717308 -123.8831 28.080469 203 167 164
-1.3479605 -123.84104 28.071951 190 160 154
-2.4421091 -123.72403 28.063984 159 148 141
-2.3865926 -123.73372 28.033504 140 137 122
-2.0660996 -123.68361 28.067312 170 154 144
-1.9669924 -123.73494 28.163115 161 152 140
-1.4771389 -123.71725 28.032806 204 175 170
-1.3289282 -123.69002 28.067957 189 159 155
-2.0525186 -123.46709 28.077864 190 161 153
-1.9314791 -123.46281 28.09737 165 146 137
-1.694779 -123.47865 28.017971 172 151 143
-1.5065999 -123.49008 28.083092 158 141 134
-1.327312 -123.52326 28.048677 172 151 146
-1.1985308 -123.55756 28.00057 176 158 148
-2.2739594 -123.34184 28.02116 210 176 169
-2.0904229 -123.2663 28.102285 189 158 155
-1.9155661 -123.30858 28.044888 189 163 158
-1.6773065 -123.26673 28.042965 114 107 99
-1.542973 -123.31943 28.046263 125 119 109
-1.3789995 -123.39299 28.012697 170 155 150
-0.84182191 -123.22718 28.024656 197 167 166
-2.2520638 -123.09779 28.053749 155 137 132
-2.0833967 -123.11904 28.067352 167 147 143
-1.9182258 -123.14072 28.054062 163 143 140
-1.664636 -123.11074 28.014343 128 118 108
-0.88293606 -123.14547 28.003786 123 109 106
-2.0849094 -122.91536 28.043747 153 135 129
-1.9536185 -122.62952 28.101686 173 147 150
-1.04424 -122.66875 28.061472 195 172 160
-1.0392761 -122.59783 28.089275 186 157 143
-0.95062369 -122.55078 28.067209 195 177 164
-0.79866028 -122.13112 28.058529 203 172 166
-3.1413336 -132.62735 28.224216 139 128 132
-1.6109974 -132.62592 28.238865 240 222 238
-1.5692472 -132.61958 28.246822 147 138 144
-3.1973927 -132.44862 28.258537 111 121 120
-2.8907368 -132.52873 28.297937 136 135 138
-2.6994057 -132.4527 28.294003 145 143 154
-2.5553517 -132.40114 28.210167 181 173 170
-1.8165299 -132.41612 28.207735 133 131 142
-1.6869749 -132.48795 28.248251 166 162 169
-1.5775733 -132.49358 28.238653 150 144 148
-1.3956376 -132.45892 28.218422 97 94 101
-3.065414 -132.327 28.301603 111 110 110
-2.8821833 -132.27722 28.290365 131 129 135
-2.1622634 -132.25636 28.310047 176 171 191
-1.8430028 -132.23569 28.213345 157 165 169
-1.6972648 -132.31232 28.297873 145 148 153
-1.4711609 -132.26115 28.252188 148 141 159
-1.3559837 -132.24542 28.30578 146 139 155
-0.85020292 -132.20708 28.371845 250 245 242
-0.70887089 -132.23241 28.277403 131 132 136
0.88468283 -132.20122 28.223946 184 179 178
1.314847 -132.27515 28.219835 131 119 124
-3.2906063 -132.07674 28.246456 128 118 129
-3.1098487 -132.03052 28.353565 144 130 145
-2.871357 -132.07965 28.331442 153 147 155
-2.6699235 -132.10301 28.392426 109 115 115
-2.5304258 -132.07803 28.315252 100 102 104
-2.3560066 -132.0735 28.274155 150 149 158
-2.1053681 -132.08127 28.280254 146 151 157
-1.9121044 -132.0694 28.272511 120 128 135
-1.7097031 -132.0984 28.313635 135 138 146
-1.4911492 -132.08948 28.267397 128 126 139
-1.3393821 -132.10326 28.288198 121 120 135
-1.0861653 -132.05759 28.292629 170 168 169
-0.90534991 -132.07106 28.281889 183 173 171
-0.72899365 -132.07407 28.304251 155 147 150
0.94097924 -132.01801 28.260056 174 167 168
1.0700765 -132.05345 28.233185 184 173 176
1.3371034 -132.11365 28.224268 155 147 151
1.4625287 -132.03217 28.240774 98 88 99
1.7091689 -132.07112 28.26264 147 144 143
1.8677738 -132.03781 28.253223 161 154 155
2.0143752 -132.00668 28.214645 147 142 140
-3.4578607 -131.80334 28.213024 187 176 193
-3.2997739 -131.84178 28.260035 135 134 144
-3.108546 -131.8526 28.291115 143 139 149
-2.9270408 -131.88277 28.318705 151 144 153
-2.761883 -131.86485 28.395353 90 88 99
-2.463541 -131.88557 28.284027 124 126 130
-2.3350029 -131.89847 28.266129 139 144 151
-2.0431426 -131.95895 28.335163 114 116 128
-1.9089531 -131.90358 28.264498 131 134 143
-1.6992962 -131.91605 28.284781 129 131 143
-1.5063177 -131.9167 28.286772 115 115 127
-1.2915679 -131.89301 28.317156 142 143 153
-1.0664748 -131.83354 28.297785 183 177 185
-0.91731757 -131.88863 28.359949 186 180 187
-0.71962845 -131.87971 28.309715 133 131 138
-0.5146215 -131.87674 28.30398 173 162 162
-0.30369818 -131.85971 28.338409 174 165 167
-0.14754923 -131.87195 28.329981 125 128 128
0.057568431 -131.80547 28.387283 162 156 158
0.309576 -131.87608 28.286423 178 172 171
0.49391922 -131.87408 28.23749 166 160 161
0.77355099 -131.86781 28.241177 165 160 161
0.88482708 -131.88899 28.226357 159 153 156
1.0844647 -131.86726 28.256844 159 155 158
1.2536132 -131.84932 28.236458 140 140 141
1.4648538 -131.89502 28.303011 126 113 120
1.6865692 -131.86285 28.272947 176 166 169
1.8616968 -131.87076 28.254337 171 166 166
2.1102202 -131.86432 28.289217 165 156 155
2.2473741 -131.83713 28.316109 185 174 178
-3.6256034 -131.76212 28.323704 155 153 158
-3.5026641 -131.65494 28.272221 163 157 165
-3.2912643 -131.69147 28.306139 143 140 147
-3.1127439 -131.70377 28.300404 124 126 134
-2.9474385 -131.71288 28.34432 170 162 173
-2.658479 -131.66463 28.28981 117 117 129
-2.5330977 -131.68597 28.284569 123 124 132
-2.2816601 -131.68787 28.312099 118 121 128
-2.1030953 -131.6671 28.280014 134 133 141
-1.8976815 -131.66209 28.287388 144 138 146
-1.697915 -131.67001 28.258791 134 129 144
-1.5126474 -131.66252 28.283911 139 138 148
-1.2959192 -131.70401 28.301941 144 142 151
-1.095708 -131.75708 28.286594 173 170 180
-0.90538621 -131.70732 28.336933 153 151 151
-0.74375945 -131.72968 28.304056 143 142 147
-0.50678998 -131.69789 28.298407 162 156 164
-0.32401329 -131.67979 28.272591 154 150 154
-0.14524871 -131.6862 28.330944 129 127 132
0.084493414 -131.63744 28.275726 168 161 173
0.33959189 -131.65564 28.269419 163 158 163
0.46125269 -131.69464 28.259274 141 137 143
0.7602734 -131.67935 28.261795 157 153 151
0.91466683 -131.70966 28.266167 167 163 165
1.103585 -131.6669 28.269505 169 164 168
1.3459579 -131.68292 28.285093 117 114 118
1.5445719 -131.73978 28.276461 171 164 166
1.7084565 -131.69424 28.356356 185 176 177
1.8559921 -131.72153 28.29423 172 165 170
2.0551252 -131.63559 28.329611 182 167 170
2.2688982 -131.69405 28.318575 156 142 149
2.4147487 -131.65149 28.266415 153 143 141
-3.4703999 -131.45973 28.291166 183 172 190
-3.2947094 -131.4926 28.337009 150 146 155
-3.1190903 -131.46532 28.345726 147 143 157
-2.9619124 -131.56233 28.321009 169 159 169
-2.6387384 -131.52913 28.259956 109 108 120
-2.4438863 -131.45099 28.266781 111 110 125
-2.2965038 -131.46217 28.273869 124 124 139
-2.1356752 -131.46289 28.293139 148 144 159
-1.8616165 -131.50682 28.275883 112 110 115
-1.7183415 -131.51314 28.291763 129 128 138
-1.5119447 -131.46716 28.282875 160 153 165
-1.3309517 -131.46671 28.297857 161 155 163
-1.1048543 -131.50615 28.328583 156 154 157
-0.91998416 -131.49196 28.368204 150 149 150
-0.70868731 -131.55646 28.351223 159 156 157
-0.42824963 -131.53775 28.230787 142 140 143
-0.23350549 -131.49576 28.270981 135 133 138
-0.13879211 -131.50047 28.295448 118 120 124
0.16227368 -131.48167 28.268562 142 143 143
0.27246505 -131.45493 28.250166 131 135 135
0.54477179 -131.53787 28.235424 143 143 148
0.69802654 -131.48149 28.276728 143 141 142
0.85279059 -131.5072 28.291622 154 153 153
1.1285002 -131.47369 28.337484 158 156 154
1.2736679 -131.53815 28.344767 157 153 154
1.5517102 -131.51486 28.368443 155 152 152
1.6977332 -131.51138 28.346594 161 155 156
1.8708229 -131.4808 28.358215 166 161 159
2.0717809 -131.51105 28.352442 165 154 156
2.2886479 -131.49615 28.329926 159 148 154
2.4711375 -131.47643 28.320095 154 146 146
-3.517463 -131.29343 28.270641 112 110 122
-3.3282106 -131.2812 28.309322 144 141 149
-3.129636 -131.27498 28.341213 130 130 136
-2.6457148 -131.33337 28.373199 110 107 114
-2.5226057 -131.3564 28.225683 113 114 120
-2.2995615 -131.36273 28.334763 119 118 132
-2.0778208 -131.35751 28.368441 150 142 156
-1.8670847 -131.35226 28.327862 167 164 177
-1.7271485 -131.35822 28.291599 149 144 153
-1.5347171 -131.28227 28.299377 148 144 147
-1.3432534 -131.34853 28.325897 158 152 163
-1.0913568 -131.31242 28.362904 127 129 130
-0.91093439 -131.33022 28.367437 143 142 142
-0.7478832 -131.34032 28.36758 154 157 162
-0.48249674 -131.27382 28.296049 110 117 120
-0.2853713 -131.2934 28.295588 107 111 114
-0.13821757 -131.2807 28.27733 115 117 121
0.093424007 -131.27895 28.295197 152 148 149
0.30041566 -131.3118 28.28829 134 133 135
0.5147388 -131.29887 28.282652 133 132 134
0.70888877 -131.29747 28.28854 133 131 134
0.89813232 -131.30609 28.298271 137 137 139
1.0497699 -131.32689 28.340851 140 138 138
1.2395028 -131.2749 28.370983 159 157 151
1.5207566 -131.32225 28.389385 164 156 155
1.6817247 -131.32874 28.373102 174 164 167
1.891273 -131.31294 28.325279 123 124 124
2.1009011 -131.30304 28.332247 142 137 138
2.2897792 -131.26889 28.346987 147 141 143
2.5057065 -131.29913 28.315073 161 151 154
2.6177087 -131.28056 28.304943 145 135 141
-3.6126306 -131.05067 28.302305 148 147 163
-3.438416 -131.13171 28.340515 160 156 169
-3.3086448 -131.09386 28.315819 127 127 134
-3.0897973 -131.10359 28.285917 137 136 143
-2.9241493 -131.08057 28.313074 128 128 135
-2.6867781 -131.05675 28.309807 121 119 129
-2.5445824 -131.08295 28.32457 110 110 120
-1.2135714 -131.1395 28.351368 100 104 109
-1.0912766 -131.08128 28.29351 103 104 109
-0.93734795 -131.12117 28.347317 123 122 126
-0.7296443 -131.09505 28.323788 143 140 145
-0.4606356 -131.09091 28.324205 91 98 101
-0.30692536 -131.10344 28.298681 82 88 92
-0.095558248 -131.10681 28.271484 119 119 124
0.073641665 -131.10097 28.324951 126 127 127
0.30731437 -131.09837 28.311966 113 115 114
0.49635822 -131.10851 28.282335 130 130 132
0.69593143 -131.10321 28.284681 131 129 132
0.90098721 -131.09254 28.304146 143 140 142
1.1386682 -131.15219 28.352196 131 130 130
1.2976264 -131.09744 28.376522 147 147 143
1.4709842 -131.08194 28.358862 143 141 141
1.7243804 -131.05215 28.361633 141 144 141
1.9054257 -131.09698 28.308069 136 130 132
2.1065605 -131.11198 28.353659 141 140 140
2.306777 -131.07146 28.294901 175 168 168
2.507268 -131.13155 28.280066 151 145 148
2.6326866 -131.11685 28.256031 143 137 140
-4.0513558 -130.82202 28.267767 163 156 163
-3.9283006 -130.84135 28.28717 147 141 147
-3.6500456 -130.8828 28.215199 113 107 117
-3.4840095 -130.85545 28.265017 160 157 178
-3.2759519 -130.90533 28.344898 147 145 154
-3.1757903 -130.90186 28.352158 120 121 130
-2.8295193 -130.95671 28.288395 105 105 114
-2.7156122 -130.91693 28.298788 114 115 123
-2.5792029 -130.9727 28.327408 119 113 125
-1.1200359 -130.99939 28.307219 154 153 158
-0.69458604 -130.80737 28.298679 92 92 97
-0.47122875 -130.91466 28.267403 92 99 103
-0.3280057 -130.89888 28.315128 72 81 85
-0.14726189 -130.86148 28.298986 84 94 93
0.12123978 -130.91338 28.272646 100 103 106
0.33185709 -130.90352 28.293167 135 136 137
0.53213525 -130.95798 28.283699 120 121 122
0.7218135 -130.9167 28.293177 107 109 114
0.91015315 -130.89227 28.333971 118 120 123
1.1069995 -130.89726 28.332628 112 114 116
1.2990884 -130.93697 28.340639 131 133 133
1.4768674 -130.95016 28.33432 122 126 122
1.6808045 -130.8685 28.332064 111 112 110
1.9035026 -130.8831 28.349846 136 131 135
2.1461539 -130.85315 28.337971 137 132 135
2.3229718 -130.88548 28.282629 131 129 130
2.4444375 -130.9702 28.295731 148 143 144
2.6027837 -130.99136 28.273176 141 122 126
-4.2750354 -130.63739 28.2064 52 51 56
-4.0716786 -130.70161 28.25802 141 141 149
-3.8963161 -130.69023 28.291803 139 138 149
-3.7202799 -130.70491 28.282578 143 142 153
-3.4943032 -130.72908 28.313581 115 111 124
-3.328697 -130.71141 28.306784 126 130 143
-3.0934258 -130.61562 28.290775 95 96 103
-2.9431069 -130.65051 28.326256 135 134 139
-2.6346095 -130.64244 28.380478 156 158 170
-2.4862564 -130.7169 28.315668 95 101 103
-2.3818142 -130.6617 28.331739 114 116 120
-0.66710216 -130.67972 28.31633 92 92 104
-0.50428677 -130.69902 28.31254 91 97 103
-0.28687727 -130.69487 28.292608 99 105 108
-0.10859647 -130.6933 28.31225 92 100 101
0.070474379 -130.694 28.320627 131 135 138
0.27037144 -130.74493 28.27343 127 131 133
0.5233323 -130.63113 28.276264 104 105 113
0.71028978 -130.74075 28.291935 120 122 127
0.91069484 -130.73994 28.287546 108 109 113
1.1152848 -130.7049 28.286774 116 117 119
1.2715067 -130.7092 28.293768 113 116 116
1.4776835 -130.70953 28.287682 97 106 105
1.7297307 -130.75124 28.274532 96 103 104
1.9364431 -130.69882 28.25576 118 118 119
2.0542021 -130.67155 28.353523 162 154 157
2.3615341 -130.68263 28.33423 157 148 154
2.4625099 -130.6772 28.310749 135 128 132
2.6404731 -130.67818 28.34922 111 89 98
-4.0576863 -130.55209 28.278311 127 129 140
-3.8591747 -130.48131 28.289709 146 147 157
-3.7014275 -130.46201 28.241026 128 128 142
-3.4866586 -130.54895 28.341473 144 139 150
-3.2813032 -130.52507 28.305704 124 125 134
-3.1005502 -130.49527 28.280897 112 113 115
-2.9186885 -130.48079 28.306824 127 123 130
-2.7917824 -130.41826 28.20797 104 107 116
-2.4640114 -130.52344 28.302986 107 111 115
-2.390054 -130.53525 28.253613 95 92 96
-1.1135048 -130.49582 28.266623 85 87 94
-0.63747799 -130.53036 28.238277 71 76 80
-0.51153493 -130.5106 28.266232 101 98 111
-0.29795751 -130.50232 28.317701 81 89 93
-0.095394604 -130.49059 28.308176 89 97 99
0.046908874 -130.52026 28.286148 103 108 110
0.56517553 -130.59145 28.363626 102 106 111
1.131449 -130.55457 28.290302 124 122 122
1.2843704 -130.50227 28.313702 123 125 127
1.4916661 -130.4828 28.311327 116 122 122
1.7197051 -130.51003 28.288256 108 116 113
1.9040664 -130.4855 28.306208 136 135 138
2.0986748 -130.52858 28.317818 144 144 142
2.3285341 -130.53557 28.310392 160 152 158
2.4758132 -130.49026 28.31258 142 135 140
2.6833022 -130.45857 28.304203 159 150 153
-4.5420661 -130.29309 28.353317 138 126 138
-4.2165146 -130.29211 28.204243 180 172 195
-4.0581064 -130.24915 28.294388 146 145 152
-3.9160101 -130.27861 28.278461 128 130 137
-3.663393 -130.31935 28.358109 124 123 138
-3.5263822 -130.31631 28.302019 150 150 161
-3.2898197 -130.33038 28.309256 119 124 135
-3.0703001 -130.31383 28.273628 101 107 109
-2.957159 -130.31273 28.26976 104 108 111
-2.7005572 -130.30881 28.306036 145 136 149
-1.9168279 -130.22304 28.256577 91 84 102
-1.7640408 -130.20633 28.22504 108 103 124
-1.0714952 -130.22256 28.217598 75 84 89
-0.86393005 -130.2756 28.261362 117 113 126
-0.75101954 -130.27873 28.248974 86 90 96
-0.48337042 -130.2654 28.298517 84 89 94
-0.29587162 -130.31033 28.300617 83 91 96
-0.13845985 -130.30237 28.324669 95 99 104
0.11100339 -130.28575 28.324694 77 82 85
0.25024492 -130.28314 28.306587 105 113 114
0.95083576 -130.25542 28.253191 79 85 87
1.0994331 -130.25908 28.337717 85 91 93
1.3194666 -130.30701 28.308222 106 111 112
1.4583213 -130.30276 28.290808 101 106 106
1.6848592 -130.2831 28.293768 124 128 129
1.9455432 -130.33353 28.31609 94 97 100
2.0879276 -130.29054 28.297056 125 127 128
2.3522494 -130.27007 28.354412 125 125 127
2.5247245 -130.26698 28.284206 142 137 140
2.6997948 -130.28845 28.263597 129 122 122
2.8555591 -130.29956 28.314636 150 144 148
-4.736402 -130.02031 28.343441 153 143 154
-4.0458379 -130.15053 28.343452 137 139 144
-3.9179449 -130.09697 28.288017 130 132 135
-3.7143569 -130.09592 28.304028 132 134 140
-3.5588918 -130.15903 28.3099 137 136 141
-3.3454752 -130.15225 28.317209 97 100 109
-3.1188834 -130.13411 28.287851 102 107 112
-2.9348619 -130.18335 28.227085 93 100 107
-2.6632168 -130.09697 28.32959 137 129 140
-2.4873986 -130.01602 28.308125 111 114 122
-1.7449751 -130.17343 28.303089 79 77 94
-1.0813246 -130.14893 28.313013 69 77 83
-0.8622424 -130.09576 28.301065 95 97 108
-0.71721601 -130.082 28.299343 97 96 105
-0.49569273 -130.10062 28.296143 81 89 96
-0.32703438 -130.1456 28.327068 81 89 95
-0.16973926 -130.14424 28.342062 81 87 97
0.1832884 -130.19196 28.375343 71 74 83
0.23418039 -130.1221 28.380955 64 65 73
0.47848657 -130.08041 28.201921 61 68 69
0.72158504 -130.04231 28.226343 99 103 106
0.9247663 -130.09943 28.273504 66 75 75
1.1202794 -130.09586 28.293741 90 94 95
1.2899041 -130.10811 28.300854 93 97 98
1.5285896 -130.07013 28.300962 116 119 121
1.681035 -130.05635 28.325899 135 135 137
1.9153427 -130.06921 28.297852 147 144 143
2.0841122 -130.13959 28.364548 145 146 145
2.3589168 -130.07727 28.279949 133 132 134
2.4620717 -130.09103 28.276112 151 150 148
2.6903241 -130.1631 28.343573 169 155 160
2.8794372 -130.0955 28.328901 133 127 128
3.0306985 -130.10562 28.291159 164 150 157
-4.7015572 -129.85974 28.356251 82 83 85
-4.2319193 -129.80893 28.222109 103 107 114
-4.1192584 -129.84889 28.283514 108 112 121
-3.8896022 -129.89764 28.33391 127 131 133
-3.7322803 -129.89218 28.289015 122 123 129
-3.5004313 -129.86974 28.292086 115 117 125
-3.3078694 -129.83914 28.273947 105 109 117
-3.1425455 -129.92395 28.237904 91 102 101
-2.6670537 -129.92502 28.293907 131 128 137
-1.1226931 -129.84752 28.271198 94 92 102
-0.85628051 -129.89 28.278784 78 77 91
-0.71061027 -129.90041 28.311081 70 79 82
-0.48478281 -129.90955 28.279243 96 103 108
-0.2937049 -129.88872 28.308258 76 83 83
-0.092770718 -129.90875 28.294353 63 73 75
0.0053911805 -129.81972 28.297613 68 75 83
0.32275119 -129.80237 28.242489 63 73 72
0.93038112 -129.88535 28.249289 84 86 87
1.1183703 -129.89253 28.30526 99 101 102
1.3010905 -129.90425 28.327021 116 117 118
1.551388 -129.92535 28.343143 142 141 143
1.6976579 -129.95053 28.334352 152 149 148
1.9246807 -129.96199 28.36277 157 153 150
2.0562391 -129.82953 28.303337 148 147 148
2.3037884 -129.91911 28.352304 161 154 156
2.4790361 -129.94481 28.314377 150 144 149
2.78057 -129.93051 28.346291 145 134 138
2.8484976 -129.87267 28.3216 124 116 119
3.0640037 -129.87106 28.325981 157 146 150
-4.4728374 -129.75775 28.247721 126 119 126
-4.2770314 -129.72786 28.297445 137 136 147
-4.1084948 -129.69481 28.284952 123 125 133
-3.8780155 -129.69727 28.289972 121 126 130
-3.7239847 -129.69463 28.272949 114 119 122
-3.5045762 -129.68254 28.349562 98 104 106
-3.2936642 -129.73906 28.271139 122 125 129
-3.1326284 -129.6553 28.279551 140 142 146
-2.6304579 -129.70714 28.205309 101 105 114
-2.4995198 -129.69518 28.326191 89 94 100
-1.6688814 -129.67413 28.338104 114 112 117
-1.2748656 -129.69395 28.315071 82 85 92
-1.1111157 -129.67383 28.323236 102 100 107
-0.8914358 -129.73534 28.293886 70 75 81
-0.6828773 -129.71262 28.297993 65 72 76
-0.53020823 -129.70088 28.330566 64 69 73
-0.32089943 -129.6998 28.301029 64 72 74
-0.080038056 -129.72551 28.318806 79 85 91
0.13967219 -129.74339 28.294378 103 109 108
0.30569953 -129.69325 28.311939 79 88 84
0.45492148 -129.64182 28.286846 70 80 80
0.78018081 -129.72591 28.293222 77 81 84
0.92033482 -129.67542 28.21447 65 74 76
1.1379908 -129.70552 28.316051 74 79 81
1.3172295 -129.66901 28.332117 86 89 92
1.5033562 -129.71089 28.346209 114 114 117
1.6372304 -129.65459 28.296572 144 141 139
1.9578851 -129.69725 28.34075 126 125 127
2.0992837 -129.70734 28.243427 98 99 100
2.3156738 -129.68935 28.315838 130 130 134
2.4497559 -129.65657 28.350906 143 143 148
2.8765757 -129.70457 28.324953 127 116 120
3.0809484 -129.71608 28.306446 164 154 158
3.2221715 -129.69794 28.282063 116 112 111
-4.4532213 -129.56709 28.247623 175 168 179
-4.2162309 -129.55721 28.232687 101 103 111
-4.0809345 -129.51518 28.317904 115 117 127
-3.8663566 -129.51541 28.27425 120 125 130
-3.7106996 -129.49561 28.273438 125 129 134
-3.5439887 -129.48039 28.26992 128 132 136
-3.2916648 -129.48085 28.287655 143 145 152
-3.1112688 -129.53883 28.306257 146 144 147
-2.9549747 -129.50055 28.302673 130 134 135
-2.5192306 -129.57347 28.361181 91 101 102
-1.7143352 -129.52753 28.268673 117 115 124
-1.2458611 -129.49429 28.328135 63 72 76
-1.1790063 -129.55394 28.335419 96 100 101
-0.86939383 -129.54597 28.221767 79 81 91
-0.68662965 -129.49025 28.335085 64 71 75
-0.51164907 -129.53081 28.314388 70 78 81
-0.29408261 -129.57559 28.338196 95 104 101
-0.089377224 -129.44409 28.317488 64 67 73
0.063515946 -129.58786 28.23295 91 99 103
0.28924787 -129.55965 28.329754 82 84 86
0.53415114 -129.51704 28.308702 62 72 71
0.65739596 -129.59831 28.342512 82 90 92
0.8121087 -129.43953 28.350563 78 79 84
1.0731876 -129.57036 28.303867 66 69 71
1.2973088 -129.55922 28.29685 68 74 74
1.4992698 -129.51605 28.31925 99 101 102
1.7013575 -129.48566 28.316427 99 102 102
1.8870045 -129.49033 28.309048 132 131 131
2.1443367 -129.53648 28.324434 104 112 110
2.2835155 -129.56104 28.264143 114 116 117
2.4984145 -129.48468 28.261553 151 152 150
2.7206149 -129.44415 28.306831 125 121 122
2.8870711 -129.47119 28.301115 128 126 126
3.0931692 -129.50542 28.29521 140 134 138
3.2782693 -129.49796 28.326717 165 155 154
-4.6009417 -129.24001 28.202045 131 127 142
-4.4666357 -129.23618 28.239765 154 151 162
-4.2865148 -129.27295 28.29644 150 144 158
-4.0785332 -129.30843 28.309618 151 145 152
-3.9229736 -129.29366 28.285105 126 128 134
-3.6854441 -129.3176 28.302437 112 117 124
-3.5404253 -129.32816 28.287521 109 113 121
-3.3001254 -129.3102 28.275805 134 141 150
-3.0763013 -129.27521 28.280136 100 105 113
-2.9509938 -129.26796 28.300079 93 99 108
-1.2920256 -129.30013 28.364634 69 79 81
-1.1672299 -129.32489 28.358585 74 84 88
-0.66254288 -129.28403 28.295761 60 69 71
-0.51427555 -129.29706 28.313171 76 82 86
-0.27202794 -129.33264 28.331751 70 74 85
-0.09838599 -129.38086 28.329844 77 87 86
0.055340499 -129.29443 28.347094 69 75 78
0.3079347 -129.3914 28.390526 89 94 100
1.1529827 -129.28273 28.293915 114 114 118
1.3116821 -129.28777 28.318512 90 92 91
1.5205542 -129.30479 28.368179 65 71 71
1.705471 -129.3674 28.302933 98 97 101
1.9032466 -129.30418 28.300835 117 113 118
2.0913019 -129.30054 28.33713 113 112 115
2.2437122 -129.31619 28.263966 120 124 120
2.5204988 -129.23407 28.28598 148 142 144
2.6586702 -129.31297 28.279654 145 141 141
2.8663714 -129.26506 28.288164 179 166 168
3.0256925 -129.34174 28.248131 150 145 144
-4.6344752 -129.16495 28.327185 156 154 165
-4.462131 -129.15659 28.356091 148 144 156
-4.315516 -129.13324 28.330027 156 152 161
-4.0675864 -129.10225 28.319273 123 126 135
-3.8990662 -129.10748 28.300884 113 116 125
-3.7038274 -129.09001 28.2801 128 129 136
-3.5137188 -129.05693 28.279791 146 144 149
-3.3036563 -129.10464 28.317108 121 123 133
-3.1100094 -129.10959 28.298479 104 111 118
-2.8490949 -129.12283 28.228872 94 100 107
-2.6767297 -129.07736 28.39131 138 138 148
-2.4972644 -129.07306 28.256628 164 159 159
-2.1213999 -129.10692 28.249435 75 83 85
-1.8759331 -129.07724 28.286182 71 79 86
-1.7074794 -129.06239 28.27227 84 93 99
-1.4771433 -129.09369 28.355204 86 93 99
-1.1970087 -129.1852 28.367374 79 89 91
-0.9026559 -129.08078 28.269964 58 62 67
-0.72318101 -129.11687 28.336525 67 69 75
-0.52217573 -129.1405 28.304684 100 104 104
-0.26148301 -129.06921 28.283772 98 94 107
0.1018897 -129.1067 28.231153 78 83 88
1.324859 -129.10452 28.288906 106 108 107
1.5270218 -129.04993 28.297998 88 91 92
1.7128216 -129.02563 28.315336 109 109 110
1.9218513 -129.09935 28.298529 128 129 130
2.1127009 -129.12363 28.350163 130 130 130
2.3288252 -129.11157 28.325974 143 140 138
2.4557753 -129.08047 28.343655 156 150 148
2.7059846 -129.12929 28.33786 139 132 134
2.8953915 -129.15398 28.257414 160 150 150
3.2296786 -129.1582 28.391674 106 95 99
-4.6176176 -128.9679 28.260765 87 99 99
-4.4802761 -128.91284 28.345219 102 105 108
-4.2871165 -128.88503 28.305841 155 151 158
-4.1320982 -128.86621 28.331188 151 142 148
-3.892153 -128.94897 28.274523 111 117 123
-3.7337387 -128.93314 28.322922 123 123 129
-3.4982846 -128.8781 28.28204 112 114 121
-3.308192 -128.87883 28.261515 108 109 112
-3.1395419 -128.90666 28.284245 102 107 116
-2.9468818 -128.91907 28.273205 161 165 172
-2.6912091 -128.88046 28.272791 152 149 150
-2.5596418 -128.98993 28.297729 139 142 140
-2.0969574 -128.8835 28.316368 85 92 101
-1.8767184 -128.91751 28.318295 88 96 103
-1.7345212 -128.91367 28.321728 85 93 97
-1.4498402 -128.8587 28.340574 79 87 90
-1.1247276 -128.86954 28.368433 71 78 83
-0.95219225 -128.94356 28.268347 69 75 80
-0.70739824 -128.87326 28.339558 54 61 66
0.23894426 -128.9576 28.39945 61 64 71
0.69205844 -128.87183 28.295237 73 81 83
0.97160375 -128.85371 28.256464 61 72 71
1.0762067 -128.82999 28.221922 67 77 76
1.2999203 -128.84242 28.282896 80 88 88
1.4792598 -128.86282 28.290123 85 90 90
1.7217201 -128.92363 28.324667 111 113 116
1.8963327 -128.92615 28.331528 120 122 124
2.0903165 -128.90991 28.360125 139 138 139
2.3129239 -128.94658 28.363998 162 157 157
2.4628859 -128.98749 28.362919 104 109 108
2.713129 -128.89659 28.308691 124 119 122
2.8574815 -128.91219 28.293232 112 104 108
-4.6072397 -128.64322 28.222895 153 155 167
-4.4637032 -128.64122 28.277325 200 197 216
-4.265429 -128.69017 28.315533 147 141 145
-4.1330485 -128.73854 28.336512 166 158 163
-3.8542569 -128.67763 28.302727 98 103 111
-3.688926 -128.67033 28.298113 92 98 106
-3.4933927 -128.70001 28.297907 95 100 109
-3.289664 -128.69957 28.288456 112 114 121
-3.1413474 -128.72937 28.295567 121 122 133
-2.8747089 -128.68204 28.28241 155 154 160
-2.7720804 -128.77391 28.330734 172 170 171
-2.0719969 -128.72066 28.3158 89 96 104
-1.9531314 -128.69604 28.344236 81 88 96
-1.6801515 -128.67822 28.288191 81 89 92
-1.5067909 -128.71753 28.296381 72 79 84
-0.69277537 -128.64737 28.297623 79 91 91
-0.56292319 -128.74722 28.261023 70 73 80
-0.39624241 -128.61592 28.240696 53 54 56
0.1530064 -128.60901 28.286911 134 133 138
0.30773962 -128.65781 28.24754 56 66 65
0.51068646 -128.6478 28.310308 67 76 77
0.6941905 -128.69011 28.266775 66 75 76
0.92195934 -128.72301 28.278276 74 75 81
1.0771909 -128.7374 28.290768 89 94 95
1.2452375 -128.72725 28.366119 73 84 82
1.551749 -128.72734 28.317316 97 101 104
1.7046295 -128.74019 28.245844 124 125 128
2.048492 -128.76363 28.353344 157 155 155
2.7122085 -128.68152 28.293926 116 113 115
2.8567159 -128.69127 28.261185 133 130 135
-4.4566321 -128.48778 28.311186 133 127 141
-4.2708244 -128.49127 28.34679 145 142 151
-4.1004615 -128.50644 28.322723 143 143 151
-3.8953338 -128.45514 28.297619 105 111 119
-3.7006061 -128.48656 28.283327 105 111 118
-3.4997835 -128.48148 28.291838 105 109 116
-3.2893567 -128.49504 28.314011 115 116 122
-3.1449919 -128.50166 28.298855 103 102 109
-2.9039688 -128.48294 28.2904 157 151 161
-2.0661857 -128.59506 28.341324 80 89 94
-1.811433 -128.59676 28.398563 74 78 87
-1.6235527 -128.5675 28.346172 77 85 84
-1.4553025 -128.45427 28.288948 80 81 85
-0.81683785 -128.54733 28.245907 73 73 83
-0.76439035 -128.59096 28.238152 87 96 95
0.17595717 -128.4662 28.288898 67 76 77
0.30865934 -128.48395 28.340668 71 80 81
0.5025745 -128.47807 28.294077 68 76 77
0.65524811 -128.51346 28.261946 70 78 79
0.83565354 -128.4894 28.382994 83 95 95
1.0109179 -128.55359 28.282026 79 80 86
1.5290527 -128.51083 28.273993 76 81 83
1.6885822 -128.48363 28.332329 83 88 92
1.8464146 -128.45157 28.285635 104 106 108
2.1653097 -128.46138 28.334888 93 89 93
2.2773721 -128.46371 28.336861 129 126 126
2.5672057 -128.50179 28.356646 125 122 122
2.7017758 -128.50862 28.322258 110 109 110
2.8984995 -128.519 28.266926 141 135 141
-4.5363178 -128.36964 28.27129 101 106 105
-4.2907491 -128.32114 28.34157 98 104 104
-4.0788069 -128.33241 28.303669 136 135 143
-3.8931732 -128.32063 28.332582 129 132 141
-3.7124918 -128.29247 28.317219 143 143 152
-3.4898963 -128.31311 28.313883 120 121 129
-3.2987816 -128.30345 28.284145 108 112 117
-3.1172023 -128.27977 28.278069 126 125 134
-2.9382164 -128.28734 28.280577 151 148 158
-2.4610131 -128.26221 28.214405 83 88 94
-2.2853389 -128.37531 28.332478 83 90 101
-1.4503696 -128.28955 28.340038 67 77 76
-1.3868588 -128.29787 28.356379 75 81 81
-0.70336336 -128.25688 28.338367 68 74 75
0.32913947 -128.31857 28.298908 66 74 75
0.48794091 -128.30475 28.299284 66 72 74
0.68216497 -128.26379 28.310965 75 80 83
0.92927009 -128.30807 28.298254 81 92 92
1.0443029 -128.31468 28.261932 82 93 91
1.557936 -128.27774 28.311777 67 77 77
1.6958226 -128.31807 28.295191 79 85 88
1.9179863 -128.26701 28.309992 84 88 92
2.10585 -128.27495 28.332026 112 111 115
2.2353928 -128.31181 28.333475 136 130 131
2.552233 -128.28874 28.340769 124 121 122
2.6967893 -128.28252 28.315075 147 140 140
2.8339167 -128.22141 28.31422 167 156 154
-4.050456 -128.13068 28.263483 141 143 155
-3.9119203 -128.1272 28.286333 130 133 140
-3.7330928 -128.08934 28.281471 142 141 147
-3.4976082 -128.09798 28.310888 131 131 138
-3.3048964 -128.10797 28.281679 105 108 115
-3.0786262 -128.08646 28.272013 134 135 143
-2.9368825 -128.08701 28.339941 127 128 133
-2.7072747 -128.02046 28.392635 153 154 160
-2.4610605 -128.14722 28.347866 60 66 71
-1.6608763 -128.07487 28.318613 74 81 78
-1.4852333 -128.12653 28.310335 103 107 101
-0.68353236 -128.08998 28.297848 60 67 69
0.55239642 -128.13443 28.314674 87 95 97
0.70421243 -128.10808 28.31839 78 83 87
0.90151507 -128.09435 28.291702 90 96 99
1.1270541 -128.08061 28.288546 91 101 102
1.2340509 -128.00299 28.295021 90 100 103
1.5297265 -128.1057 28.298382 86 89 92
1.6847842 -128.06395 28.304031 108 110 112
1.9007711 -128.09108 28.304401 122 122 126
2.0983763 -128.12486 28.238855 122 123 125
2.2421503 -128.03705 28.313879 132 133 136
2.4964504 -128.06184 28.334564 108 110 110
2.6739402 -128.1373 28.333895 152 143 142
2.9603419 -128.14459 28.344019 167 156 160
3.0554996 -128.06172 28.307514 131 124 127
-4.0384679 -127.84869 28.23554 125 129 135
-3.8925927 -127.87232 28.248756 126 129 136
-3.6794262 -127.90288 28.290127 145 143 152
-3.4955423 -127.8873 28.305908 115 115 120
-3.2892292 -127.91875 28.283493 117 119 127
-3.1087894 -127.91771 28.30225 146 145 148
-2.8985817 -127.9136 28.329885 114 117 120
-2.7282786 -127.89275 28.302965 102 105 109
-2.5586038 -127.83612 28.314259 111 114 118
-2.156975 -127.88696 28.340092 95 92 99
-1.8021358 -127.98902 28.398767 86 95 90
-1.6657176 -127.92382 28.389074 105 113 113
-1.5381109 -127.87965 28.317574 124 129 125
-0.41104057 -127.93484 28.396591 72 77 80
-0.32311544 -127.90971 28.391687 87 90 95
0.013443902 -127.86926 28.376888 62 74 70
0.57744569 -127.80319 28.279156 62 63 70
0.70251614 -127.92285 28.2994 86 87 92
0.88593245 -127.89702 28.254135 96 102 103
1.1434797 -127.9387 28.305323 80 88 90
1.2930462 -127.87395 28.31399 106 113 115
1.4358695 -127.87258 28.288448 138 150 151
1.6928051 -127.9729 28.362701 131 132 132
1.9307573 -127.9742 28.311176 139 139 139
2.1475976 -127.95378 28.287111 125 124 127
2.3389113 -127.92606 28.359331 104 108 110
2.4725237 -127.85903 28.340794 143 140 142
2.653131 -127.84701 28.32118 176 170 167
2.9285166 -127.91418 28.304995 129 126 130
3.062469 -127.89364 28.306452 133 130 133
-4.2542238 -127.68919 28.271534 145 140 151
-4.1032224 -127.6956 28.290604 154 151 155
-3.9187398 -127.69794 28.282522 137 135 140
-3.7038136 -127.71153 28.268658 137 136 143
-3.5422764 -127.72867 28.2845 126 128 136
-3.2441075 -127.71595 28.264278 144 143 150
-3.1167693 -127.71257 28.328272 156 155 155
-2.8688519 -127.74154 28.331736 116 119 121
-2.6732035 -127.73548 28.299341 99 103 105
-2.4931927 -127.68603 28.288437 87 92 96
-2.3290095 -127.65327 28.350698 86 89 95
-2.0693312 -127.64822 28.322193 100 106 106
-1.8956809 -127.74114 28.388609 83 90 90
-1.7137418 -127.72867 28.306208 106 111 108
-0.5693984 -127.66398 28.241428 74 80 79
0.11311068 -127.68054 28.301331 130 136 131
0.31893507 -127.69991 28.333824 66 68 71
0.50594234 -127.71293 28.32934 84 86 91
0.65745342 -127.68213 28.342487 85 89 93
0.86857432 -127.72894 28.29669 84 85 86
1.1373783 -127.71101 28.333635 95 98 100
1.2932968 -127.73973 28.305996 91 96 99
1.4614046 -127.69626 28.326361 97 105 107
1.7090679 -127.62518 28.386606 112 122 121
2.1578026 -127.71526 28.308392 104 104 107
2.336432 -127.67985 28.286655 120 122 125
2.4722431 -127.71505 28.289244 134 135 138
2.6900692 -127.64172 28.284605 171 162 165
2.9087884 -127.71197 28.298445 118 116 119
3.0190799 -127.67606 28.273054 150 141 148
