ply
format ascii 1.0
comment PCL generated
element vertex 1097
property float x
property float y
property float z
property uchar red
property uchar green
property uchar blue
element face 0
element camera 0
property float view_px
property float view_py
property float view_pz
property float x_axisx
property float x_axisy
property float x_axisz
property float y_axisx
property float y_axisy
property float y_axisz
property float z_axisx
property float z_axisy
property float z_axisz
property float focal
property float scalex
property float scaley
property float centerx
property float centery
property int viewportx
property int viewporty
property float k1
property float k2
end_header
-99.918816 -48.958862 21.332531 170 164 164
-99.741722 -48.877274 21.26705 163 161 159
-99.510536 -48.843494 21.272749 166 158 158
-99.28064 -48.912487 21.25326 174 168 168
-99.067032 -48.98156 21.276808 155 140 140
-98.856949 -48.971642 21.314205 93 85 86
-98.778595 -48.901279 21.278482 109 104 108
-105.478 -48.696686 21.317568 87 87 89
-105.27367 -48.620071 21.382528 152 149 158
-101.26781 -48.657169 21.254848 182 178 173
-101.16016 -48.693375 21.284237 196 189 183
-100.90457 -48.691101 21.318703 158 158 154
-100.67208 -48.692398 21.333324 156 154 142
-100.48574 -48.693432 21.286905 139 140 131
-100.34216 -48.724674 21.34086 132 132 124
-100.11595 -48.654121 21.361572 139 137 138
-99.83136 -48.779411 21.330296 148 149 141
-99.683975 -48.676239 21.35923 162 155 154
-99.494705 -48.698273 21.302982 191 176 176
-99.338043 -48.721512 21.253304 203 191 190
-99.089806 -48.642166 21.212074 182 179 174
-98.938263 -48.624577 21.239231 167 161 165
-98.764404 -48.721275 21.261078 145 140 141
-105.55346 -48.505341 21.313656 189 188 194
-104.89693 -48.575813 21.333466 111 112 117
-104.5545 -48.508373 21.373377 124 125 130
-101.89713 -48.408844 21.222597 140 129 133
-101.46115 -48.548641 21.241714 103 104 95
-101.27512 -48.540684 21.289314 199 191 191
-101.11011 -48.426952 21.353989 186 176 166
-100.88363 -48.452671 21.327307 162 158 150
-100.74031 -48.559669 21.274605 117 119 109
-100.47845 -48.496643 21.23802 109 116 107
-100.26314 -48.478638 21.296829 108 113 107
-100.0695 -48.456623 21.330933 147 143 137
-99.89724 -48.478008 21.302946 158 152 149
-99.721245 -48.451698 21.285461 187 180 177
-99.478729 -48.588791 21.272438 202 186 184
-99.339218 -48.492241 21.308517 163 166 154
-99.087517 -48.429916 21.278322 177 168 164
-98.965668 -48.472771 21.331352 115 111 111
-98.640465 -48.501953 21.218643 213 206 213
-98.5942 -48.434452 21.252274 213 208 214
-105.52151 -48.264507 21.324389 89 93 96
-104.74294 -48.230591 21.337055 80 92 90
-102.23555 -48.228764 21.208776 138 129 123
-102.06193 -48.328152 21.257235 110 109 105
-101.8479 -48.23418 21.293196 96 95 92
-101.73037 -48.339691 21.307631 67 75 67
-101.43642 -48.2864 21.257019 60 70 62
-101.29865 -48.321842 21.331305 164 158 146
-101.09674 -48.347809 21.295315 172 164 151
-100.88191 -48.319145 21.298573 135 139 130
-100.69802 -48.273987 21.287981 90 101 93
-100.55032 -48.294186 21.243992 122 129 121
-100.2808 -48.257702 21.335634 141 143 136
-100.07456 -48.286396 21.353823 146 149 143
-99.881981 -48.249516 21.301126 155 153 149
-99.674126 -48.303574 21.290474 134 133 131
-99.536003 -48.234955 21.259705 66 74 63
-99.280533 -48.276894 21.320831 169 173 165
-99.049217 -48.270149 21.218216 184 179 177
-98.954781 -48.284328 21.225014 142 139 135
-102.23122 -48.128571 21.249357 149 138 131
-102.10684 -48.086613 21.275324 133 122 117
-101.89201 -48.071148 21.268862 137 120 121
-101.77444 -48.122227 21.36853 98 93 92
-101.46889 -48.094429 21.342369 76 74 69
-101.36432 -48.107544 21.219971 75 68 68
-100.88809 -48.148304 21.225342 110 122 113
-100.62338 -48.071476 21.263777 124 133 123
-100.54114 -48.116203 21.252125 120 127 118
-100.3278 -48.137455 21.270348 136 135 130
-100.14145 -48.15575 21.313358 128 132 124
-99.888268 -48.074223 21.281424 157 153 151
-99.733551 -48.136517 21.292124 171 166 166
-99.509644 -48.073093 21.281796 109 114 108
-99.343933 -48.012589 21.22414 115 124 114
-99.130905 -48.131264 21.217485 195 185 184
-98.965919 -48.124405 21.264244 197 183 190
-102.08731 -47.867561 21.28434 126 123 116
-101.88565 -47.865532 21.32272 136 130 123
-101.73427 -47.870419 21.296679 134 131 123
-101.3739 -47.910114 21.355442 92 86 87
-100.89971 -47.987568 21.317276 71 85 75
-100.73097 -47.937775 21.262672 104 116 105
-100.51982 -47.949471 21.304935 102 112 102
-100.29701 -47.950195 21.27565 110 116 106
-100.02821 -47.960003 21.271282 132 135 127
-99.870598 -47.88755 21.289116 156 146 144
-99.680336 -47.909859 21.284718 148 151 146
-99.491028 -47.907692 21.268255 126 128 120
-99.289528 -47.90237 21.273689 144 144 137
-99.163879 -47.863911 21.247028 137 136 131
-98.994865 -47.976044 21.287022 155 150 156
-103.15257 -47.708199 21.311573 37 48 44
-102.22626 -47.730469 21.325554 148 133 126
-102.05026 -47.741798 21.262283 146 143 136
-101.88493 -47.6917 21.318789 120 122 116
-101.66562 -47.722023 21.345142 128 127 120
-101.52021 -47.72044 21.296265 152 140 134
-101.34962 -47.783024 21.299328 198 185 195
-100.45458 -47.761139 21.284143 113 120 111
-100.30309 -47.709053 21.283083 130 126 121
-100.1179 -47.724548 21.283003 130 129 122
-99.852333 -47.765614 21.360516 201 187 187
-99.683899 -47.694233 21.261471 193 182 179
-99.470276 -47.722828 21.347488 173 166 161
-99.331421 -47.721848 21.353918 175 169 163
-99.089195 -47.677956 21.343708 152 152 151
-98.958015 -47.748444 21.232029 142 137 138
-104.42675 -47.411476 21.277428 51 61 60
-104.13699 -47.465916 21.343592 68 72 74
-101.88736 -47.461952 21.359922 140 139 133
-101.70382 -47.456402 21.288406 166 160 152
-101.43547 -47.530159 21.313114 72 71 71
-101.38334 -47.595688 21.283632 55 53 56
-100.3085 -47.546619 21.309689 140 136 124
-100.0779 -47.546005 21.277489 107 107 101
-99.842995 -47.528553 21.255722 158 152 143
-99.658569 -47.458847 21.286938 172 164 155
-99.545288 -47.519482 21.283442 145 142 135
-99.233215 -47.453041 21.348667 220 210 208
-99.117104 -47.468327 21.306171 143 135 137
-98.961128 -47.551468 21.225159 170 167 172
-104.71362 -47.229168 21.308445 51 53 52
-104.45785 -47.274788 21.387785 70 79 78
-104.06911 -47.304199 21.329266 132 132 128
-103.90272 -47.286362 21.337517 132 138 133
-103.35245 -47.272461 21.289436 120 124 125
-101.80408 -47.322659 21.361061 117 114 97
-101.68736 -47.378235 21.367432 126 122 113
-101.50282 -47.385021 21.370602 213 196 191
-100.24123 -47.20895 21.213833 64 73 65
-99.824738 -47.31601 21.246475 129 135 123
-99.713409 -47.251652 21.258261 168 163 150
-99.435577 -47.221085 21.354866 217 204 201
-99.308014 -47.330322 21.245743 191 172 169
-99.073013 -47.219025 21.281544 116 105 105
-104.79004 -47.149769 21.39492 44 56 52
-104.26125 -47.082542 21.287235 141 138 136
-104.0398 -47.07999 21.340937 230 224 222
-103.92622 -47.066368 21.281033 174 164 158
-103.48935 -47.105682 21.228516 120 123 124
-103.3217 -47.094635 21.26844 102 104 103
-103.16064 -47.063873 21.30901 109 111 110
-102.98191 -47.013371 21.212729 189 190 185
-102.06499 -47.064529 21.310543 72 78 74
-101.90768 -47.039219 21.267847 153 151 147
-101.75706 -47.022129 21.375347 57 62 56
-100.31697 -47.04747 21.271957 73 79 76
-100.1252 -47.067432 21.260397 56 68 58
-99.81617 -47.168076 21.286715 158 153 137
-99.666092 -47.134979 21.264719 203 193 178
-99.529846 -47.181927 21.290691 212 194 183
-99.283173 -47.077774 21.357447 136 132 130
-99.081299 -47.134949 21.276789 168 163 161
-98.95755 -47.071316 21.235294 122 121 122
-104.28235 -46.939896 21.309614 160 159 156
-103.93882 -46.859615 21.294973 189 176 168
-103.67197 -46.823441 21.271919 172 166 164
-103.56035 -46.926506 21.260941 136 137 136
-103.22275 -46.992493 21.380135 143 143 134
-103.06317 -46.939964 21.348003 185 179 184
-102.84677 -46.92556 21.335037 95 98 97
-102.69049 -46.930164 21.281267 174 166 159
-102.52633 -46.86647 21.322565 101 101 99
-102.14118 -46.995724 21.357903 67 66 72
-101.88582 -46.905594 21.306799 192 184 177
-101.74947 -46.874485 21.28356 123 124 117
-100.41132 -46.927647 21.317944 133 128 125
-100.35266 -46.98082 21.266047 142 144 139
-99.654266 -46.948635 21.234921 106 106 99
-99.430931 -46.896744 21.299616 166 164 161
-99.288048 -46.869926 21.342571 168 161 158
-99.065582 -46.881653 21.306114 195 182 180
-98.95668 -46.874847 21.232317 199 189 185
-105.6672 -46.65675 21.38699 58 62 73
-105.43336 -46.676483 21.368885 142 143 151
-105.2132 -46.639809 21.391056 121 129 131
-103.90028 -46.680527 21.292046 175 170 159
-103.67142 -46.708374 21.324137 155 151 144
-103.54587 -46.776661 21.362555 122 116 106
-102.94295 -46.637188 21.33066 148 148 141
-102.61283 -46.775463 21.321692 158 152 156
-102.47053 -46.667343 21.29748 148 146 138
-102.33942 -46.648117 21.271173 101 106 100
-101.90578 -46.674278 21.269772 146 145 134
-101.72621 -46.74564 21.24399 115 110 116
-100.08148 -46.676754 21.299603 70 79 73
-99.932312 -46.671448 21.275646 69 80 72
-99.716431 -46.657032 21.231148 97 105 97
-99.457649 -46.696331 21.272095 151 152 146
-99.341507 -46.68251 21.280182 105 106 97
-99.149574 -46.734844 21.285547 166 159 154
-98.89827 -46.798737 21.24374 194 189 186
-106.01241 -46.591293 21.386507 63 68 62
-105.85348 -46.545242 21.384008 66 72 68
-105.11851 -46.515812 21.3703 123 132 132
-104.90386 -46.435844 21.31642 95 104 100
-104.77221 -46.427048 21.373053 87 98 90
-104.44897 -46.550217 21.29705 111 119 106
-104.25114 -46.47031 21.35594 107 122 104
-104.1427 -46.473141 21.308468 117 126 111
-103.90425 -46.463219 21.273272 168 170 158
-103.03246 -46.499714 21.349133 110 118 111
-102.88235 -46.45332 21.389967 125 131 120
-102.77397 -46.468323 21.387203 119 131 119
-102.42813 -46.500706 21.32588 141 140 140
-102.28516 -46.498951 21.273958 158 158 164
-102.09659 -46.503044 21.267155 186 180 175
-101.91294 -46.492203 21.288677 131 131 119
-101.7798 -46.469406 21.289074 102 106 97
-100.02019 -46.577732 21.346764 87 98 92
-99.263489 -46.556988 21.299107 172 162 157
-106.22581 -46.228535 21.36657 161 142 150
-105.36229 -46.251896 21.39389 219 213 215
-105.06848 -46.313477 21.361961 92 106 102
-104.88821 -46.290943 21.315077 92 98 92
-104.73187 -46.336601 21.354443 94 107 98
-104.05944 -46.320656 21.295221 99 111 97
-103.89255 -46.316521 21.315868 133 136 123
-103.71193 -46.313419 21.324947 127 131 115
-103.58342 -46.395611 21.346472 176 174 166
-103.10405 -46.274879 21.356419 83 96 83
-102.42952 -46.391521 21.346277 159 161 158
-102.23166 -46.331047 21.292103 182 181 182
-102.14114 -46.3358 21.265221 131 130 126
-101.84648 -46.256462 21.296528 129 133 127
-101.76907 -46.338715 21.273836 140 142 140
-99.873047 -46.337963 21.243874 61 73 64
-107.59863 -46.025421 21.299603 90 99 98
-106.42847 -46.042747 21.363201 155 150 147
-106.31082 -46.10812 21.375702 130 127 127
-105.45891 -46.002224 21.399372 193 184 186
-105.22869 -46.085712 21.375151 142 140 141
-105.05775 -46.156609 21.382919 108 121 113
-104.21329 -46.072227 21.37495 167 165 146
-104.09238 -46.098194 21.254992 118 121 105
-103.92269 -46.07513 21.307234 110 114 96
-103.75507 -46.052757 21.278107 81 82 72
-102.24588 -46.132164 21.252054 149 158 155
-102.06816 -46.14344 21.316246 166 165 158
-101.93559 -46.072124 21.351875 129 131 129
-101.75378 -46.061104 21.26689 113 121 115
-101.59392 -46.164593 21.321005 89 81 70
-101.20343 -46.045704 21.243031 223 219 209
-101.05381 -46.101822 21.222176 206 194 186
-100.92006 -46.035431 21.282139 194 190 183
-100.69331 -46.005337 21.280279 156 146 147
-107.77547 -45.994408 21.325754 96 105 104
-105.17357 -45.865482 21.398119 84 86 83
-104.20135 -45.935215 21.317116 122 124 108
-104.12629 -45.876797 21.316622 138 135 114
-103.86855 -45.954903 21.328056 130 129 111
-103.75412 -45.941238 21.321384 89 90 82
-101.85442 -45.87532 21.250755 148 144 149
-101.73641 -45.88068 21.331415 125 126 124
-101.27675 -45.880753 21.253792 145 144 133
-101.12169 -45.911301 21.307339 120 114 107
-100.86623 -45.963032 21.319284 163 156 146
-100.66917 -45.891605 21.268448 192 181 181
-100.52156 -45.840115 21.223886 97 96 94
-108.08238 -45.706184 21.277517 157 158 160
-107.91544 -45.683792 21.366989 130 133 141
-107.71328 -45.696888 21.353273 86 96 103
-107.52622 -45.659157 21.344959 100 109 112
-106.83303 -45.746029 21.367588 109 113 122
-106.73329 -45.718777 21.365103 144 153 158
-106.45274 -45.70311 21.370945 129 129 137
-106.29597 -45.609192 21.38529 136 133 141
-105.27354 -45.706505 21.29071 67 80 77
-105.1489 -45.717724 21.363981 77 89 80
-104.06441 -45.6754 21.339165 108 109 92
-103.79962 -45.7911 21.353609 69 74 65
-102.11309 -45.681164 21.281439 112 124 116
-101.84008 -45.749191 21.290237 136 141 138
-101.74406 -45.70282 21.221527 107 109 112
-101.49044 -45.677158 21.298811 175 176 169
-101.2785 -45.688923 21.258053 138 138 123
-101.10243 -45.771763 21.305428 117 124 113
-100.86598 -45.642551 21.257748 178 178 170
-100.67479 -45.656544 21.282236 168 163 162
-100.51514 -45.681202 21.260452 183 175 175
-107.02328 -45.532406 21.378761 118 121 128
-106.42072 -45.422688 21.358765 102 109 117
-106.32442 -45.486004 21.374624 76 82 78
-104.47722 -45.437794 21.364094 70 82 70
-104.06616 -45.447414 21.265432 150 145 131
-103.89514 -45.511978 21.347488 166 158 150
-102.07156 -45.496941 21.320635 80 91 85
-101.88768 -45.436298 21.271694 143 148 147
-101.75273 -45.543365 21.262373 170 170 172
-101.51531 -45.542686 21.34016 155 159 153
-101.2936 -45.495575 21.321966 204 200 194
-101.0677 -45.445042 21.227177 179 169 170
-100.95615 -45.430496 21.241047 178 175 172
-100.72751 -45.550526 21.293468 160 153 150
-100.54582 -45.488647 21.265905 167 159 156
-107.53377 -45.302597 21.387363 122 126 129
-106.50655 -45.283161 21.393154 73 76 82
-106.29958 -45.364853 21.368023 61 67 63
-104.73701 -45.250561 21.230316 104 112 103
-104.43866 -45.29958 21.247768 94 99 88
-104.2593 -45.234993 21.303909 118 119 106
-104.01778 -45.306549 21.263039 155 151 134
-103.95726 -45.339386 21.377415 111 108 99
-103.71726 -45.378799 21.320839 109 104 98
-102.92819 -45.305862 21.24894 54 66 61
-102.25746 -45.277119 21.280804 67 77 65
-102.07552 -45.25684 21.255615 139 149 142
-101.96264 -45.323685 21.301289 106 117 113
-101.66433 -45.393253 21.286232 195 192 185
-101.4427 -45.239342 21.364033 123 114 106
-101.21494 -45.341591 21.229904 166 161 161
-101.02036 -45.259808 21.27969 184 177 176
-100.88229 -45.335274 21.227531 173 163 165
-100.74381 -45.29689 21.315535 140 143 139
-100.57317 -45.26062 21.20842 135 130 133
-108.04996 -45.038158 21.388418 80 80 92
-107.95351 -45.055283 21.365183 150 146 155
-107.41122 -45.098274 21.336224 148 149 154
-107.30019 -45.163109 21.369844 120 123 128
-106.63586 -45.080917 21.363264 72 75 80
-106.4707 -45.111404 21.396015 100 101 106
-104.83487 -45.113274 21.223156 103 113 101
-104.46231 -45.052277 21.264019 91 97 93
-104.27322 -45.077583 21.335007 91 94 88
-104.11647 -45.134861 21.255606 121 123 109
-103.85435 -45.130692 21.279459 125 129 118
-103.12436 -45.097 21.314234 46 57 45
-102.91782 -45.099121 21.357687 62 72 61
-102.30057 -45.077751 21.376833 64 73 67
-102.0926 -45.046543 21.260767 122 132 130
-101.95409 -45.166485 21.291134 144 149 146
-101.70336 -45.130657 21.325005 171 172 170
-101.43066 -45.133537 21.37351 94 98 92
-101.28107 -45.120872 21.239101 100 97 93
-101.10825 -45.141235 21.233868 166 163 165
-100.94855 -45.15332 21.226017 158 155 155
-100.70564 -45.111176 21.287397 160 155 155
-100.55366 -45.19733 21.249876 126 122 125
-108.01633 -44.858475 21.308828 180 164 175
-107.87785 -44.899193 21.379366 164 155 164
-107.70084 -44.94693 21.373541 179 175 182
-107.10794 -44.895149 21.386639 112 115 118
-104.88989 -44.86385 21.294256 65 75 70
-104.70141 -44.944012 21.280537 70 78 73
-104.48375 -44.97303 21.289049 94 97 92
-104.29877 -44.90221 21.290735 110 113 107
-104.11706 -44.816513 21.32552 73 83 75
-103.9329 -44.936241 21.368246 101 110 108
-102.84077 -44.928806 21.356972 98 114 103
-102.72131 -44.834793 21.24431 83 92 87
-102.54877 -44.90556 21.315607 99 105 102
-102.33418 -44.858505 21.278843 110 116 117
-102.11598 -44.942276 21.276672 120 129 129
-101.94869 -44.959595 21.353256 189 181 180
-101.61237 -44.960098 21.322348 171 174 170
-101.50888 -44.818649 21.23127 99 103 105
-101.28873 -44.839409 21.254417 127 120 115
-101.08264 -44.89669 21.302334 89 92 88
-108.10521 -44.699249 21.377001 150 150 160
-107.86159 -44.766502 21.346725 145 132 140
-107.66943 -44.742989 21.362438 146 129 138
-107.03755 -44.704166 21.388933 114 118 123
-106.98634 -44.677193 21.372749 86 85 91
-104.9024 -44.769932 21.221422 84 96 86
-104.73681 -44.787861 21.37026 62 72 63
-104.30679 -44.70517 21.237516 98 109 102
-104.14288 -44.681358 21.263351 95 98 90
-103.90008 -44.764729 21.364853 82 89 82
-102.82335 -44.740707 21.332136 71 82 74
-102.68787 -44.732929 21.292562 73 82 76
-102.49496 -44.736336 21.33543 92 101 95
-102.2968 -44.708611 21.315872 127 134 135
-102.16923 -44.752247 21.266981 87 103 95
-101.84361 -44.630341 21.273991 56 64 63
-101.72713 -44.62912 21.268803 147 142 144
-101.48979 -44.630508 21.260824 174 166 171
-101.30013 -44.636501 21.229193 156 156 152
-101.16593 -44.724579 21.271448 151 150 144
-107.85132 -44.512817 21.3493 202 190 201
-107.77744 -44.480354 21.360794 141 131 139
-107.31195 -44.471806 21.371174 143 136 150
-107.07958 -44.471252 21.341467 90 95 100
-106.85973 -44.534966 21.242657 88 87 101
-106.69762 -44.504517 21.357555 123 126 137
-105.80743 -44.51178 21.317913 88 101 99
-104.14529 -44.486259 21.343891 110 111 102
-103.93153 -44.451401 21.269005 113 122 114
-103.75244 -44.5331 21.329416 134 130 129
-103.46017 -44.432396 21.269871 86 93 91
-103.3 -44.474731 21.28273 74 85 80
-103.08472 -44.554924 21.359657 87 93 87
-102.8836 -44.477238 21.31526 104 110 107
-102.66364 -44.452496 21.2966 105 108 104
-102.56296 -44.52047 21.302116 110 111 108
-102.35494 -44.527679 21.286022 130 128 127
-102.02311 -44.470203 21.391293 130 135 127
-101.82624 -44.502434 21.260063 128 124 124
-101.6765 -44.471577 21.310299 167 157 157
-101.47581 -44.50589 21.350203 189 180 179
-101.28347 -44.495251 21.270088 172 165 171
-101.15164 -44.498219 21.279671 110 100 99
-108.05264 -44.385426 21.331223 125 127 142
-107.85131 -44.377296 21.353855 133 129 141
-107.26691 -44.357109 21.341286 135 130 143
-107.13216 -44.367668 21.323664 97 102 108
-106.54611 -44.291641 21.320732 93 93 105
-106.08147 -44.283264 21.284061 123 129 133
-105.83025 -44.317589 21.279854 121 130 130
-105.70287 -44.295387 21.316471 110 118 118
-104.235 -44.293449 21.294903 89 99 88
-104.10925 -44.296543 21.237991 100 103 94
-103.97873 -44.267532 21.306854 121 119 110
-103.74294 -44.249405 21.311914 88 96 92
-103.49936 -44.318703 21.31296 88 95 95
-103.32142 -44.362942 21.257576 76 82 79
-103.08939 -44.335739 21.325401 83 88 84
-102.91074 -44.377121 21.303738 83 96 86
-102.66961 -44.37439 21.302053 97 106 102
-102.52797 -44.303856 21.323215 63 70 70
-102.34853 -44.229336 21.217627 96 111 105
-101.82722 -44.263008 21.254374 114 114 107
-101.69626 -44.300797 21.295544 142 135 129
-101.27228 -44.219757 21.298433 163 154 158
-101.17463 -44.269653 21.226339 144 141 137
-100.93517 -44.246262 21.259899 201 186 192
-106.54906 -44.031311 21.324268 97 101 111
-106.02731 -44.078014 21.208111 76 82 82
-105.91666 -44.166767 21.299625 87 97 96
-105.75319 -44.159279 21.385061 34 46 44
-104.20614 -44.14782 21.361925 81 88 81
-104.13167 -44.115959 21.299797 74 78 66
-103.90221 -44.144474 21.315937 161 151 141
-103.68968 -44.119583 21.297537 72 83 74
-103.59178 -44.04356 21.33316 47 58 54
-102.62227 -44.182613 21.362736 121 131 130
-102.49101 -44.162094 21.35033 88 95 96
-102.36765 -44.128967 21.262096 83 89 82
-102.04541 -44.03083 21.308086 145 143 136
-101.91205 -44.083374 21.32605 153 149 144
-101.70012 -44.184021 21.321156 139 136 128
-101.4428 -44.043617 21.322323 148 142 143
-101.32362 -44.049522 21.262682 156 150 150
-101.11477 -44.082142 21.268789 146 136 138
-100.94464 -44.065681 21.230839 145 142 142
-106.5826 -43.862118 21.213575 89 90 94
-106.27069 -43.805332 21.343464 98 106 109
-104.01221 -43.887215 21.375912 126 124 114
-103.95576 -43.878239 21.297333 112 108 101
-103.72055 -43.843048 21.368479 144 142 142
-102.4179 -43.992592 21.317217 144 153 143
-102.25417 -43.870079 21.309788 127 128 122
-102.10355 -43.846035 21.291645 137 136 126
-101.90973 -43.889202 21.307173 127 125 120
-101.79144 -43.948143 21.395409 208 198 196
-101.44661 -43.940697 21.333359 134 135 135
-101.30834 -43.899387 21.287359 162 156 157
-101.11899 -43.927849 21.261105 168 159 165
-100.98024 -43.879799 21.272501 132 135 132
-106.46158 -43.683571 21.305206 88 93 95
-105.0506 -43.633522 21.252804 104 108 101
-104.22047 -43.665966 21.303993 78 90 84
-104.11071 -43.648258 21.276758 111 116 109
-103.90629 -43.692249 21.367838 139 142 133
-103.70337 -43.767166 21.277271 112 118 116
-102.283 -43.756821 21.298878 119 120 120
-102.08186 -43.745586 21.317097 136 135 127
-101.93536 -43.713295 21.297699 120 120 113
-101.74141 -43.648293 21.354826 152 146 147
-101.42818 -43.745392 21.321796 87 96 75
-101.28513 -43.66861 21.322254 159 156 155
-101.18825 -43.690102 21.264324 153 148 150
-100.89263 -43.705055 21.224236 153 148 155
-106.86772 -43.430775 21.206926 171 163 174
-106.53546 -43.520309 21.353167 108 117 125
-106.165 -43.516968 21.3703 199 184 196
-105.04358 -43.481537 21.293777 53 65 55
-104.96246 -43.465343 21.354408 48 60 52
-104.63984 -43.490696 21.293404 71 80 75
-104.40582 -43.442585 21.322189 184 187 185
-104.07355 -43.511444 21.28027 109 114 109
-103.97392 -43.550621 21.388649 92 100 93
-102.29463 -43.591846 21.241379 82 87 87
-102.06854 -43.551903 21.293358 93 104 94
-101.93901 -43.533112 21.275288 97 96 92
-101.69454 -43.500126 21.287016 133 130 128
-101.5271 -43.403259 21.383091 155 148 161
-101.28985 -43.523003 21.349804 165 157 160
-101.16478 -43.549606 21.281479 174 166 171
-106.87083 -43.275677 21.227066 99 97 108
-106.15512 -43.331909 21.375881 93 91 97
-104.95964 -43.27932 21.290936 43 58 48
-104.7052 -43.331726 21.307655 74 82 77
-104.50741 -43.305988 21.303333 145 150 146
-104.31116 -43.304127 21.276018 123 123 121
-104.12939 -43.306519 21.250254 114 119 114
-103.93444 -43.295307 21.303608 130 130 132
-101.8549 -43.32653 21.271179 101 105 96
-101.7099 -43.304893 21.264566 120 123 119
-101.46335 -43.344353 21.310984 160 150 158
-101.27906 -43.321667 21.318096 175 162 168
-101.17502 -43.350872 21.240902 142 145 143
-106.79455 -43.134037 21.344757 50 55 61
-106.00744 -43.012444 21.365749 62 62 64
-105.98172 -43.196617 21.38158 106 100 102
-105.11946 -43.095345 21.291487 41 53 51
-104.65608 -43.145683 21.304287 89 98 93
-104.569 -43.128426 21.294323 83 97 94
-104.23131 -43.141743 21.312666 101 109 107
-104.09403 -43.095905 21.285749 117 119 110
-103.93569 -43.067913 21.273571 136 131 128
-103.26325 -43.028603 21.298561 50 54 53
-102.27319 -43.05122 21.304718 43 52 51
-102.05457 -43.057014 21.315235 74 82 80
-101.87915 -43.109562 21.313202 135 128 124
-101.71349 -43.145378 21.312662 95 93 94
-101.44831 -43.146248 21.271088 155 152 155
-101.34306 -43.149139 21.279276 156 150 151
-101.18919 -43.175629 21.217442 138 143 138
-106.84354 -42.817184 21.372997 72 79 87
-106.13442 -42.907822 21.284327 154 160 169
-105.93981 -42.990528 21.386303 207 204 213
-105.38834 -42.870464 21.391611 75 76 78
-104.84873 -42.818504 21.372131 78 79 83
-104.6287 -42.915062 21.248119 86 93 93
-104.52525 -42.915199 21.34481 115 122 120
-104.30565 -42.929413 21.331287 108 110 110
-104.0844 -42.915119 21.305206 137 130 122
-103.9065 -42.946747 21.280636 129 120 117
-103.71219 -42.822262 21.257355 88 84 88
-103.53754 -42.866829 21.287891 69 69 70
-103.23208 -42.94891 21.3262 41 51 42
-103.05043 -42.862373 21.327501 126 135 135
-102.93027 -42.894386 21.343323 72 80 83
-102.74797 -42.83976 21.327974 52 59 54
-102.41585 -42.868656 21.360054 122 132 124
-102.29041 -42.893524 21.339363 116 122 119
-101.80943 -42.998356 21.391659 164 150 150
-107.03059 -42.716259 21.28756 88 105 112
-106.04563 -42.736023 21.309053 123 131 135
-105.91368 -42.69239 21.320885 153 152 153
-105.72705 -42.70108 21.394857 125 131 129
-105.41628 -42.615562 21.271961 147 156 161
-105.10106 -42.683071 21.276903 148 155 161
-104.88032 -42.690842 21.231876 97 102 104
-104.65364 -42.771408 21.314144 129 132 132
-104.44804 -42.71925 21.272209 137 138 143
-104.32102 -42.704124 21.26922 159 155 154
-104.09608 -42.691147 21.34696 165 142 142
-103.86226 -42.758537 21.376934 101 95 98
-103.71552 -42.687271 21.311024 63 67 71
-103.51822 -42.681175 21.330246 129 135 136
-103.34743 -42.723213 21.333805 119 123 127
-103.18096 -42.734695 21.218243 72 80 76
-102.89268 -42.743683 21.324459 112 118 120
-102.68837 -42.739914 21.298281 107 112 108
-102.51825 -42.740681 21.371061 162 164 162
-102.27531 -42.732224 21.313572 69 70 67
-102.03926 -42.683163 21.287521 179 167 158
-101.91913 -42.710358 21.292812 99 97 91
-101.72253 -42.680622 21.31082 128 113 119
-101.54352 -42.643425 21.271603 168 151 153
-101.32232 -42.620369 21.306223 210 198 203
-105.92058 -42.595074 21.372749 198 197 205
-105.61336 -42.434177 21.227184 193 194 198
-105.28294 -42.474869 21.296663 91 94 96
-105.12526 -42.487099 21.343761 108 115 119
-104.93073 -42.478462 21.337128 90 99 100
-104.70589 -42.531197 21.281593 75 84 84
-104.54669 -42.570984 21.231127 83 91 92
-104.30756 -42.549484 21.224201 110 109 112
-104.05165 -42.541763 21.271587 107 113 115
-103.90498 -42.516853 21.256866 106 111 112
-103.74799 -42.55497 21.277033 87 93 92
-103.47203 -42.477253 21.255667 44 57 48
-103.32846 -42.571938 21.305187 61 69 62
-103.1214 -42.549839 21.305214 77 82 85
-102.84199 -42.486855 21.258446 116 119 121
-102.69838 -42.438454 21.215347 131 137 136
-102.53058 -42.476341 21.246304 115 117 113
-102.33735 -42.46711 21.238056 168 159 155
-102.16888 -42.466011 21.290163 122 126 121
-101.94755 -42.561638 21.25972 161 152 152
-101.67933 -42.520115 21.291142 203 186 185
-101.45332 -42.48127 21.342941 172 158 162
-101.34828 -42.44804 21.363588 179 157 170
-105.87779 -42.239738 21.255356 70 82 80
-105.65624 -42.206833 21.324242 66 80 79
-105.48511 -42.281937 21.33535 84 94 99
-105.27415 -42.279194 21.352842 69 82 80
-105.10663 -42.346527 21.307377 109 114 124
-104.89832 -42.226273 21.334463 145 148 150
-104.66269 -42.249199 21.360451 95 104 100
-104.53012 -42.230858 21.344995 103 110 105
-104.24504 -42.298988 21.285061 99 105 102
-104.15314 -42.255302 21.271843 85 92 89
-103.827 -42.273506 21.351212 71 78 81
-103.71584 -42.341095 21.280262 78 86 86
-103.49277 -42.337296 21.298468 74 76 83
-103.24218 -42.214821 21.320202 131 126 128
-103.11436 -42.216217 21.295635 176 158 157
-102.90742 -42.224716 21.285122 147 136 135
-102.71898 -42.240059 21.294796 119 117 111
-102.50118 -42.309353 21.232521 143 138 140
-102.33459 -42.331017 21.281033 161 157 157
-102.17712 -42.298813 21.262672 101 105 102
-101.8867 -42.25695 21.249687 125 128 127
-101.67372 -42.267166 21.248909 129 125 125
-101.49893 -42.243717 21.240356 150 149 149
-101.35495 -42.330379 21.258497 129 124 129
-106.0796 -42.142384 21.240206 100 107 108
-105.88013 -42.163181 21.339804 81 91 89
-105.74715 -42.11216 21.249432 63 73 72
-105.46016 -42.184856 21.248947 50 62 60
-105.25054 -42.102394 21.292688 144 146 156
-105.11278 -42.042023 21.330956 164 166 171
-104.92198 -42.072723 21.308537 159 161 158
-104.68016 -42.109085 21.326607 161 163 161
-104.56846 -42.020119 21.29343 142 148 145
-104.22147 -42.047096 21.263962 133 144 138
-104.17477 -42.035583 21.269966 127 138 132
-103.94606 -42.115456 21.267584 123 131 124
-103.73063 -42.130474 21.358723 51 45 47
-103.44611 -42.091927 21.278364 156 151 157
-103.30254 -42.131886 21.318966 151 141 140
-103.09626 -42.143539 21.293077 151 144 142
-102.95285 -42.171349 21.305468 181 161 161
-102.75349 -42.108101 21.246769 144 134 131
-102.49023 -42.101273 21.245615 131 135 132
-102.34842 -42.101418 21.22966 138 132 135
-102.01202 -42.045341 21.24901 158 161 166
-101.861 -42.076157 21.219795 158 153 156
-101.65791 -42.104664 21.239069 183 175 183
-101.5529 -42.154045 21.217388 171 160 167
-106.07627 -41.875908 21.222424 156 147 142
-105.89528 -41.88446 21.3293 117 118 125
-105.24251 -41.964317 21.318367 150 152 163
-105.10222 -41.970154 21.281269 141 140 147
-104.89686 -41.960861 21.352688 126 129 132
-104.6918 -41.885681 21.335388 144 150 150
-104.52414 -41.864605 21.299274 142 148 147
-104.31477 -41.876663 21.275946 138 143 141
-104.1543 -41.874535 21.298519 113 123 116
-103.90298 -41.917187 21.32325 80 83 90
-103.61823 -41.945236 21.2421 131 138 139
-103.52217 -41.860474 21.313698 127 128 136
-102.61094 -41.937592 21.333065 129 131 128
-102.56105 -41.858006 21.290594 116 119 118
-102.28471 -41.951752 21.239771 119 122 122
-102.06803 -41.849525 21.23856 144 142 147
-101.89334 -41.958733 21.281641 149 152 155
-101.69254 -41.962616 21.240763 143 144 152
-100.35713 -41.81926 21.335506 139 123 131
-106.01477 -41.761986 21.225269 140 139 145
-105.42741 -41.680664 21.206116 162 167 176
-105.29691 -41.688976 21.305841 154 156 163
-104.82449 -41.775944 21.250925 122 131 128
-104.731 -41.700439 21.282545 120 129 125
-104.50526 -41.729191 21.276173 142 147 145
-104.32129 -41.707455 21.231277 139 144 141
-104.15533 -41.741219 21.312378 116 126 120
-103.87136 -41.623325 21.278536 100 108 106
-103.63297 -41.669487 21.320992 98 109 107
-103.49503 -41.741566 21.33663 152 147 155
-102.62683 -41.659389 21.210253 129 138 133
-102.46767 -41.678589 21.240406 139 137 129
-102.25146 -41.629215 21.247385 169 163 160
-102.08417 -41.706264 21.244394 143 136 140
-101.9637 -41.638 21.257729 145 141 143
-100.66587 -41.625481 21.27515 205 189 196
-100.47379 -41.676739 21.337662 203 184 194
-100.2619 -41.766277 21.311827 166 153 163
-100.10864 -41.700031 21.311541 166 147 161
-106.27298 -41.476566 21.260124 154 155 164
-106.14264 -41.44236 21.374428 188 190 197
-105.98117 -41.489376 21.394564 201 195 205
-105.45649 -41.437084 21.27018 160 165 170
-105.30115 -41.536716 21.296928 155 161 165
-105.09896 -41.425812 21.317692 124 133 129
-104.89082 -41.518253 21.345127 123 133 135
-104.7272 -41.495613 21.341539 159 165 160
-104.47943 -41.545933 21.325111 138 145 140
-104.31065 -41.526165 21.306198 137 140 134
-104.14352 -41.453648 21.272732 114 125 119
-103.91469 -41.453625 21.320328 126 136 132
-103.69237 -41.49007 21.338707 145 143 151
-102.42657 -41.517487 21.246815 138 136 129
-102.30237 -41.498848 21.29311 138 138 133
-102.09442 -41.509644 21.333366 131 123 124
-101.94047 -41.552177 21.314224 145 137 142
-101.75358 -41.460613 21.338758 115 117 122
-101.49396 -41.424454 21.332157 112 102 107
-100.67582 -41.5182 21.28973 174 158 166
-100.51294 -41.479813 21.227798 185 168 177
-100.32681 -41.422413 21.366318 203 183 197
-100.1494 -41.447311 21.310642 138 120 137
-106.21725 -41.311371 21.360764 196 198 211
-106.11635 -41.321938 21.348644 137 140 147
-105.51241 -41.233719 21.327793 165 168 179
-105.27841 -41.295471 21.334547 144 150 149
-105.10202 -41.31781 21.351744 127 138 131
-104.89446 -41.342281 21.325752 136 144 139
-104.73894 -41.379044 21.398232 136 143 134
-104.56046 -41.220276 21.33754 77 77 75
-104.26376 -41.347351 21.297817 121 129 125
-104.07116 -41.272591 21.256836 151 153 156
-103.92987 -41.330853 21.311325 143 144 150
-103.67056 -41.254837 21.304916 129 128 137
-102.63712 -41.333702 21.293362 112 107 113
-102.44215 -41.385834 21.280319 132 131 128
-102.03931 -41.258308 21.373177 100 101 110
-101.92284 -41.242882 21.353041 178 169 180
-101.76596 -41.354195 21.271404 148 140 146
-101.44856 -41.245522 21.260696 180 167 178
-101.37921 -41.278145 21.318174 176 161 173
-100.84885 -41.312767 21.266613 104 99 108
-100.71217 -41.248581 21.293442 138 125 137
-100.47835 -41.344048 21.307436 133 118 135
-100.37145 -41.238106 21.314259 208 179 200
-100.12332 -41.332138 21.274393 72 66 73
-105.60452 -41.161663 21.31214 112 118 134
-105.52793 -41.110195 21.267105 172 171 187
-105.37547 -41.190811 21.326912 130 135 143
-104.6361 -41.033215 21.314842 110 109 115
-104.56138 -41.126095 21.287331 76 72 71
-104.29836 -41.148041 21.306702 114 121 117
-104.13222 -41.055939 21.323603 144 149 150
-103.95829 -41.090149 21.306702 144 146 152
-103.66203 -41.155563 21.315079 183 176 187
-103.55698 -41.051407 21.261011 168 166 172
-103.10732 -41.035557 21.38331 148 148 160
-102.25806 -41.050652 21.277523 138 135 150
-102.11182 -41.105347 21.267662 168 160 171
-101.85828 -41.149059 21.236534 135 129 136
-101.6935 -41.020416 21.24482 150 147 144
-101.48128 -41.127209 21.258484 201 186 194
-101.3825 -41.118935 21.285582 184 173 182
-100.63232 -41.132729 21.354298 185 167 174
-100.40454 -41.080822 21.206045 228 197 215
-100.35308 -41.112785 21.240591 178 158 166
-105.44036 -40.863262 21.200937 179 180 198
-105.29388 -40.884811 21.295788 155 157 170
-105.1248 -40.907921 21.363056 146 148 158
-104.90529 -40.829834 21.335922 137 141 146
-104.69598 -40.89212 21.367744 130 133 138
-104.30547 -40.894909 21.382095 139 146 151
-104.06794 -40.917675 21.309359 141 144 149
-103.90282 -40.907791 21.300217 140 143 150
-103.73095 -40.938705 21.290569 141 147 152
-103.45734 -40.913757 21.288298 147 144 156
-103.32088 -40.85783 21.322002 160 153 165
-103.10438 -40.876389 21.297392 126 124 135
-102.97306 -40.96109 21.393097 139 138 145
-102.43464 -40.863453 21.317244 190 195 192
-102.31482 -40.87252 21.340076 148 144 151
-102.10893 -40.819893 21.31616 125 130 133
-101.93467 -40.812382 21.346502 127 127 129
-101.6693 -40.863544 21.238297 172 163 161
-101.51302 -40.874741 21.250967 178 164 171
-101.37147 -40.870068 21.281973 151 141 149
-100.61934 -40.982601 21.354961 205 178 188
-100.57718 -40.890678 21.344181 188 164 183
-100.37003 -40.932507 21.305801 209 188 204
-106.22664 -40.729874 21.225311 232 224 236
-106.11372 -40.672989 21.329023 162 164 181
-105.45364 -40.666561 21.284309 87 92 98
-105.06717 -40.743488 21.303829 171 166 180
-104.94817 -40.651108 21.281733 138 139 146
-104.64581 -40.634556 21.389076 158 158 167
-104.12109 -40.683834 21.327736 140 140 148
-103.8999 -40.682022 21.360455 147 149 155
-103.77199 -40.622536 21.258175 134 140 144
-103.48917 -40.728767 21.234047 147 149 151
-103.33313 -40.735725 21.299809 149 148 151
-103.07642 -40.699951 21.246391 148 148 157
-102.95209 -40.661194 21.359596 161 156 168
-102.68518 -40.633118 21.298901 137 131 141
-102.42503 -40.675629 21.353718 87 87 98
-102.3051 -40.736271 21.299042 134 131 133
-102.0955 -40.670307 21.230383 144 145 149
-101.9803 -40.698994 21.299923 134 139 143
-101.62732 -40.685303 21.265934 179 169 167
-101.50459 -40.703918 21.313457 183 170 175
-101.38393 -40.717041 21.30073 167 161 164
-105.94288 -40.473598 21.309254 158 154 167
-105.77401 -40.528316 21.322132 201 194 212
-105.21822 -40.428261 21.24567 132 131 134
-105.07587 -40.460308 21.248829 164 161 167
-104.86826 -40.508842 21.341225 154 154 160
-104.7256 -40.441551 21.356697 154 150 156
-104.21169 -40.496323 21.309772 84 89 88
-104.14404 -40.4776 21.304892 139 138 140
-103.92433 -40.472942 21.343952 160 155 164
-103.74709 -40.558392 21.236702 94 107 104
-103.49399 -40.470722 21.25316 162 155 161
-103.37222 -40.479507 21.294983 178 170 181
-103.04688 -40.548721 21.236435 161 156 167
-102.96085 -40.544754 21.302521 131 130 138
-102.67096 -40.479553 21.264225 133 131 132
-102.52805 -40.494282 21.319954 155 150 156
-102.25208 -40.523281 21.267212 139 140 142
-102.1684 -40.510372 21.243896 136 135 137
-101.89775 -40.450073 21.240776 122 125 123
-101.65396 -40.473885 21.285843 180 170 173
-101.45067 -40.467972 21.32954 188 175 183
-101.38156 -40.489731 21.264334 162 153 162
-106.03987 -40.357845 21.282169 175 183 196
-105.79359 -40.393887 21.255251 199 195 210
-105.26847 -40.278286 21.255247 193 181 196
-105.06638 -40.334229 21.34107 187 183 196
-104.98678 -40.395584 21.395128 167 163 171
-104.5263 -40.273365 21.36385 130 127 133
-104.28351 -40.289387 21.308107 142 142 144
-104.06169 -40.349884 21.266914 157 157 160
-103.96147 -40.300797 21.237003 132 137 139
-103.64635 -40.366779 21.233788 109 114 121
-103.52838 -40.314781 21.240452 172 169 182
-103.26957 -40.265198 21.256897 157 151 162
-103.12089 -40.29916 21.249411 150 147 153
-102.89916 -40.309772 21.241987 147 145 150
-102.71923 -40.324165 21.288319 176 169 174
-102.51543 -40.340767 21.282063 132 129 133
-102.08819 -40.300602 21.283028 132 130 129
-101.91101 -40.258553 21.291027 158 153 154
-101.65704 -40.311035 21.247211 187 176 185
-101.52875 -40.273621 21.325478 174 161 172
-101.38066 -40.333111 21.313992 153 143 152
-105.13499 -40.044357 21.295753 172 171 191
-104.24078 -40.102955 21.333664 146 146 150
-104.14398 -40.113651 21.322598 139 142 147
-103.9212 -40.083866 21.261705 120 128 132
-103.67696 -40.123528 21.239229 143 147 152
-103.53178 -40.112591 21.273956 171 161 170
-103.29971 -40.135185 21.251637 143 141 148
-103.1629 -40.14463 21.248264 183 178 188
-102.8728 -40.096535 21.246166 139 140 146
-102.73851 -40.086891 21.260323 157 150 157
-102.42339 -40.171604 21.299156 143 140 145
-102.02128 -40.188774 21.26165 150 147 149
-101.92353 -40.13472 21.256662 172 162 168
-101.77919 -40.080994 21.290054 163 150 156
-101.54001 -40.176193 21.237663 172 160 169
-101.35348 -40.129036 21.306622 153 142 153
-105.06975 -39.899452 21.350946 180 176 193
-104.44808 -39.897068 21.359291 143 136 147
-104.28554 -39.896957 21.293007 150 148 158
-104.14481 -39.87315 21.299507 161 163 174
-103.85034 -39.842587 21.24963 128 136 150
-103.67136 -39.973442 21.249069 133 133 141
-103.54088 -39.929695 21.245438 175 171 177
-103.22197 -39.865829 21.262201 193 181 191
-103.15547 -39.888969 21.318174 170 160 170
-102.88195 -39.89402 21.252926 150 147 154
-102.72206 -39.887276 21.337965 145 136 151
-102.44678 -39.837288 21.356232 149 137 153
-102.3006 -39.866428 21.301748 154 143 154
-102.15253 -39.848373 21.275749 155 145 151
-101.74407 -39.964294 21.278708 164 153 160
-101.53593 -39.916061 21.245426 165 157 168
-101.34422 -39.837959 21.246241 200 183 199
-105.84152 -39.685051 21.309801 196 190 208
-105.76054 -39.797012 21.397583 181 173 186
-105.0629 -39.795975 21.284569 115 116 136
-104.61597 -39.646706 21.371477 179 174 197
-104.45603 -39.695923 21.296951 164 162 181
-104.29453 -39.697224 21.314882 151 147 163
-104.12839 -39.67767 21.293688 147 148 166
-103.89986 -39.652691 21.302589 136 138 150
-103.73821 -39.672752 21.290272 136 131 143
-103.50455 -39.722733 21.282866 160 157 170
-103.30935 -39.736881 21.254642 171 165 179
-103.14768 -39.70097 21.261549 193 177 193
-102.86885 -39.673485 21.222383 179 172 183
-102.67578 -39.761086 21.3118 180 166 180
-102.46938 -39.698936 21.323593 114 109 118
-102.29918 -39.720264 21.259506 164 151 164
-102.15987 -39.703495 21.285479 178 164 179
-101.82803 -39.6217 21.371311 192 168 200
-101.64355 -39.746048 21.278673 131 123 132
-101.43927 -39.748825 21.280689 169 155 177
-101.35146 -39.765846 21.234941 148 130 150
-104.66249 -39.526363 21.220337 143 138 154
-104.44939 -39.553391 21.215549 178 172 191
-104.10275 -39.504429 21.226521 149 147 168
-103.9169 -39.560787 21.258551 144 143 163
-103.50114 -39.558319 21.258896 154 151 172
-102.86894 -39.449181 21.32671 178 165 176
-102.66982 -39.501053 21.292881 157 145 153
-102.49482 -39.479805 21.238846 153 143 152
-102.32801 -39.527958 21.247688 101 101 109
-102.15208 -39.515617 21.338604 152 143 155
-101.81391 -39.496243 21.290956 182 163 192
-101.79556 -39.487846 21.255178 159 136 164
-101.42529 -39.568085 21.343899 190 157 195
-101.38113 -39.517689 21.263618 172 151 178
-103.65719 -39.225273 21.255775 202 184 214
-103.4518 -39.228622 21.323507 162 147 173
-103.29291 -39.267723 21.371513 210 185 214
-103.01625 -39.207756 21.216043 195 185 194
-102.96064 -39.261131 21.325897 160 154 163
-102.69067 -39.345345 21.34609 166 152 163
-102.51456 -39.306965 21.283297 133 125 136
-102.36349 -39.380882 21.29254 113 109 122
-103.91483 -39.160812 21.366102 201 177 211
-103.54513 -39.074894 21.262825 175 165 187
-103.35031 -39.115715 21.301964 163 147 174
-103.06599 -39.124088 21.353724 177 164 179
-102.61118 -39.046963 21.33161 131 119 145
-102.49577 -39.144264 21.277824 103 100 110
-102.31579 -39.182117 21.329493 173 158 189
-103.33027 -38.954304 21.265858 90 87 104
-103.07428 -38.9841 21.229649 175 156 172
-102.82175 -38.92099 21.309971 114 108 124
-102.71985 -38.901367 21.317036 158 140 163
-103.31622 -38.722408 21.297693 96 81 112
-102.24982 -54.206314 21.478954 59 77 77
-101.39944 -49.947582 21.479921 51 69 71
-100.46642 -49.882263 21.465097 107 102 103
-100.31138 -49.856163 21.487173 117 113 113
-104.85271 -49.708328 21.435062 121 115 125
-101.46165 -49.739708 21.560762 115 111 103
-100.62142 -49.65237 21.448891 137 124 123
-100.51498 -49.67968 21.516184 159 149 155
-100.33372 -49.681156 21.516603 164 155 155
-100.19018 -49.67717 21.492149 62 71 76
-101.47665 -49.416321 21.576263 196 182 186
-101.3768 -49.474106 21.532425 178 162 167
-101.07887 -49.439804 21.457989 155 144 148
-100.66653 -49.442482 21.455469 165 160 158
-100.49989 -49.551239 21.500961 172 158 160
-100.35367 -49.458534 21.452599 172 163 158
-100.10785 -49.484413 21.438536 152 141 145
-99.616806 -49.486385 21.482393 156 147 154
-101.85732 -49.260605 21.430431 181 165 165
-101.71243 -49.285767 21.524101 127 131 135
-101.4858 -49.318867 21.488373 151 142 142
-101.35345 -49.245243 21.440115 192 186 188
-101.06433 -49.263283 21.436642 186 175 171
-100.9002 -49.280014 21.467476 156 154 149
-100.74693 -49.286263 21.431936 150 147 141
-100.49564 -49.344826 21.500885 172 164 160
-100.28249 -49.290173 21.502441 173 165 164
-100.12192 -49.317192 21.498314 186 173 173
-99.677086 -49.39439 21.492653 197 188 193
-99.275772 -49.280163 21.458271 178 169 167
-99.098564 -49.285725 21.431635 44 53 52
-101.43516 -49.062325 21.535643 82 87 80
-101.32318 -49.090763 21.552443 76 70 72
-100.89613 -49.131248 21.465416 189 179 178
-100.66283 -49.076241 21.455441 148 147 137
-100.53273 -49.105125 21.427166 104 107 99
-100.23901 -49.1213 21.50029 177 170 165
-100.13921 -49.077953 21.474512 166 161 153
-99.930878 -49.048859 21.422977 160 158 154
-99.583855 -49.0121 21.441593 109 112 107
-99.325935 -49.073971 21.530422 124 125 123
-99.181786 -49.168385 21.43457 84 79 87
-101.47099 -48.952629 21.555176 101 100 94
-101.32016 -48.884312 21.485718 121 118 117
-101.0071 -48.888443 21.459969 128 129 118
-100.87902 -48.902374 21.45849 152 150 140
-100.75243 -48.891975 21.502159 157 154 148
-100.5237 -48.929508 21.510519 126 129 120
-100.30804 -48.907795 21.467386 125 132 123
-100.12192 -48.87064 21.45179 143 148 139
-99.967644 -48.865791 21.432907 181 175 170
-99.737854 -48.829906 21.493307 124 123 122
-99.499367 -48.910461 21.480453 171 161 157
-99.364891 -48.953201 21.48399 134 129 128
-99.015656 -48.898369 21.457226 82 87 84
-98.919937 -48.887432 21.470623 66 67 65
-105.41068 -48.710484 21.448769 76 77 81
-105.35501 -48.654945 21.477465 161 157 163
-101.22035 -48.63332 21.438148 165 161 158
-101.09683 -48.678265 21.45093 174 169 165
-100.89641 -48.731567 21.418972 167 163 158
-100.7172 -48.697102 21.444387 189 180 176
-100.52565 -48.735985 21.489996 197 187 182
-100.31767 -48.7159 21.535009 133 136 129
-100.12932 -48.646942 21.547419 178 175 171
-99.892334 -48.693939 21.434273 147 146 141
-99.673302 -48.682167 21.443867 158 154 149
-99.507629 -48.691074 21.46006 142 134 136
-99.368279 -48.69912 21.493744 104 109 100
-99.117043 -48.656136 21.560061 171 167 171
-98.86264 -48.680874 21.409351 132 133 127
-105.46006 -48.502934 21.421387 121 122 122
-101.24494 -48.506744 21.524822 162 158 153
-101.10287 -48.482723 21.559793 187 177 174
-100.94125 -48.515068 21.509197 169 164 159
-100.75759 -48.559986 21.506556 170 162 155
-100.42736 -48.469589 21.438942 159 156 151
-100.31398 -48.518166 21.45747 185 176 177
-100.10213 -48.444542 21.464308 178 173 171
-99.888252 -48.462334 21.500278 188 181 181
-99.736374 -48.47876 21.452463 225 217 218
-99.581741 -48.571426 21.521593 190 181 180
-99.243759 -48.507446 21.551731 157 154 150
-99.071533 -48.475117 21.518641 177 167 168
-98.906113 -48.528229 21.474609 172 166 168
-105.44843 -48.300358 21.445482 112 115 122
-105.28401 -48.241562 21.421551 131 136 136
-101.69302 -48.217545 21.448967 57 62 53
-101.22841 -48.294075 21.52062 173 165 155
-101.07059 -48.342655 21.511843 216 202 197
-100.95925 -48.336441 21.522511 189 182 172
-100.69291 -48.300335 21.477877 101 108 99
-100.46744 -48.281952 21.45842 146 146 140
-100.29861 -48.327255 21.512894 166 161 156
-100.12331 -48.273041 21.464264 153 151 147
-99.868347 -48.275997 21.469986 175 169 165
-99.76123 -48.316948 21.453106 144 140 136
-99.267395 -48.334644 21.556997 127 132 126
-99.139732 -48.284306 21.509085 147 149 143
-101.85516 -48.199059 21.417822 73 76 70
-101.71514 -48.130039 21.488651 69 76 67
-101.51214 -48.072437 21.497187 55 66 55
-101.21978 -48.179935 21.548431 201 189 175
-100.84109 -48.194057 21.556868 116 106 107
-100.69337 -48.146641 21.449879 98 108 99
-100.43436 -48.087746 21.475735 137 140 133
-100.25919 -48.133713 21.488831 134 136 133
-100.07004 -48.177536 21.452679 143 146 139
-99.907478 -48.077454 21.50897 170 165 164
-99.750748 -48.066147 21.495419 136 133 126
-99.43219 -48.027695 21.465509 180 177 171
-99.292053 -48.009182 21.408571 142 143 135
-99.110565 -48.056213 21.491953 133 130 135
-101.81852 -47.811516 21.491844 153 144 129
-101.69455 -47.851337 21.510824 144 137 135
-101.45419 -47.873123 21.489382 75 76 68
-101.39795 -47.973614 21.479919 52 62 53
-100.87166 -47.941929 21.452566 95 107 95
-100.4884 -47.93367 21.504364 125 131 120
-100.33554 -47.969662 21.543318 145 150 142
-100.15388 -47.935181 21.503439 82 89 82
-99.857803 -47.862465 21.446007 165 156 154
-99.730042 -47.87793 21.511864 150 146 139
-99.536308 -47.87532 21.551609 143 143 137
-99.301559 -47.833736 21.429468 152 145 140
-99.159134 -47.922398 21.516571 166 156 156
-103.16226 -47.613384 21.550247 47 53 51
-101.64822 -47.720818 21.489933 141 136 129
-101.50422 -47.720749 21.525232 142 128 126
-101.39244 -47.742142 21.503876 71 67 61
-100.43174 -47.7202 21.469843 124 130 123
-100.35284 -47.663883 21.475864 110 110 103
-100.11852 -47.687157 21.527538 101 100 94
-99.872665 -47.6968 21.498035 184 171 170
-99.681061 -47.690044 21.425034 158 157 152
-99.525291 -47.691341 21.449615 161 162 155
-99.325226 -47.663788 21.421585 164 160 156
-99.188911 -47.735531 21.55352 217 203 205
-104.26356 -47.411636 21.535118 126 123 125
-104.1255 -47.438892 21.458607 108 106 105
-103.66633 -47.502621 21.554897 105 90 93
-101.83546 -47.444954 21.453964 122 118 114
-101.68208 -47.516895 21.490112 93 94 87
-101.54712 -47.481613 21.509148 92 93 90
-100.44163 -47.564945 21.419348 250 241 244
-100.30202 -47.59333 21.503412 139 132 128
-100.11751 -47.564293 21.563274 133 129 128
-99.830246 -47.508926 21.507465 214 200 194
-99.665047 -47.547291 21.471786 203 196 195
-99.447952 -47.525837 21.462008 209 197 195
-99.28125 -47.518467 21.537964 159 159 158
-99.177811 -47.467224 21.486132 86 85 85
-104.6128 -47.281887 21.566938 118 126 128
-104.42354 -47.238106 21.518333 115 119 125
-104.30396 -47.255478 21.552942 116 118 124
-104.1048 -47.307533 21.543629 151 148 147
-103.95589 -47.200802 21.419044 154 157 151
-102.43681 -47.369835 21.424637 49 63 50
-101.87616 -47.349052 21.437366 131 124 114
-101.70588 -47.349556 21.478615 132 128 121
-101.53367 -47.339489 21.518797 156 148 144
-99.822418 -47.323578 21.454105 167 162 151
-99.659515 -47.316761 21.474344 204 189 182
-99.466927 -47.300159 21.494062 215 204 199
-99.359711 -47.296829 21.486053 204 190 187
-99.160332 -47.389229 21.518211 49 55 55
-104.72707 -47.057968 21.495798 79 86 83
-104.52669 -47.122471 21.529644 113 115 114
-104.23492 -47.107185 21.493374 114 114 113
-104.09755 -47.14019 21.497066 137 137 131
-103.89111 -47.101311 21.487881 139 138 131
-103.12288 -47.003864 21.470234 104 105 99
-101.89999 -47.141811 21.531763 123 116 108
-99.818832 -47.168358 21.513287 139 141 126
-99.652489 -47.169182 21.487461 230 212 202
-99.54274 -47.145008 21.465355 226 210 200
-99.156082 -47.074295 21.41383 194 184 191
-104.85805 -46.883621 21.498322 119 120 114
-104.75864 -46.953896 21.549747 128 127 125
