ply
format ascii 1.0
comment PCL generated
element vertex 1113
property float x
property float y
property float z
property uchar red
property uchar green
property uchar blue
element face 0
element camera 0
property float view_px
property float view_py
property float view_pz
property float x_axisx
property float x_axisy
property float x_axisz
property float y_axisx
property float y_axisy
property float y_axisz
property float z_axisx
property float z_axisy
property float z_axisz
property float focal
property float scalex
property float scaley
property float centerx
property float centery
property int viewportx
property int viewporty
property float k1
property float k2
end_header
-33.498642 -137.50296 22.907597 86 93 83
-33.318626 -137.50023 22.90749 89 96 85
-33.109051 -137.51204 22.892801 96 105 95
-32.67141 -137.51105 22.896505 118 119 108
-32.507217 -137.48892 22.897614 126 123 114
-32.287369 -137.48254 22.894073 115 110 105
-32.110901 -137.4836 22.904837 125 119 116
-31.851748 -137.43764 22.905243 103 102 102
-31.707945 -137.48537 22.904913 124 120 117
-31.469757 -137.52858 22.881538 152 144 144
-31.308411 -137.49179 22.8894 149 140 142
-31.116259 -137.5105 22.861593 134 134 133
-30.912979 -137.45978 22.864712 170 163 163
-30.755306 -137.47838 22.911022 142 141 144
-30.567448 -137.5985 22.875648 195 190 187
-37.450943 -137.23613 22.882868 134 133 134
-37.299263 -137.2886 22.938883 151 136 137
-36.938358 -137.32158 22.9872 125 116 114
-36.424004 -137.28221 22.812607 90 107 97
-36.27705 -137.31175 22.933725 98 110 105
-36.110153 -137.26237 22.899473 89 100 95
-35.935562 -137.29848 22.878916 77 89 83
-35.734016 -137.28067 22.873383 82 88 88
-35.554104 -137.23154 22.946922 95 98 95
-35.244122 -137.29668 22.810646 73 80 73
-35.026466 -137.35437 22.885437 95 105 100
-34.913338 -137.36186 22.881136 90 98 91
-34.680496 -137.31821 22.868422 113 113 103
-34.502163 -137.31439 22.911802 91 97 88
-34.236843 -137.3757 22.896025 59 65 57
-34.158508 -137.30115 22.930794 82 87 81
-33.871147 -137.27715 22.902857 77 87 77
-33.687515 -137.28183 22.925381 89 99 85
-33.488987 -137.30959 22.896826 76 84 73
-33.304546 -137.29105 22.881987 89 98 87
-33.087635 -137.29842 22.890739 95 102 92
-32.930252 -137.28497 22.887941 85 90 82
-32.676643 -137.29584 22.879887 108 110 101
-32.488838 -137.30334 22.888536 113 111 104
-32.317711 -137.31259 22.921522 123 120 116
-32.095207 -137.31665 22.921423 125 120 120
-31.896496 -137.29697 22.913801 114 114 115
-31.733282 -137.31995 22.919319 111 109 109
-31.514496 -137.33881 22.928988 152 146 146
-31.29159 -137.32242 22.915894 143 137 138
-31.080162 -137.33382 22.895895 152 147 147
-30.898819 -137.35228 22.855721 163 158 161
-30.7397 -137.2617 22.882641 201 184 192
-30.490984 -137.30046 22.870331 134 127 132
-30.369768 -137.31853 22.993916 137 129 127
-37.699741 -137.1523 22.897003 59 65 60
-37.565773 -137.07382 22.812195 109 115 117
-37.303772 -137.17438 22.802492 134 132 133
-37.098461 -137.17215 22.903215 136 138 137
-36.829376 -137.19826 22.938362 133 129 125
-36.781952 -137.18867 22.848066 96 96 95
-36.300896 -137.14407 22.888365 102 113 108
-36.080639 -137.13565 22.920404 80 93 86
-35.888489 -137.12312 22.854342 73 84 79
-35.708138 -137.09738 22.911739 74 82 78
-35.562771 -137.12259 22.825294 82 87 81
-34.893894 -137.17804 22.965178 83 90 88
-34.632259 -137.08641 22.825714 86 91 84
-34.47887 -137.105 22.880051 74 80 72
-34.298672 -137.10968 22.881775 71 78 70
-34.055561 -137.18666 22.964514 51 53 48
-33.890526 -137.19086 22.934278 90 97 87
-33.674629 -137.16728 22.92205 85 94 82
-33.492115 -137.11116 22.924236 93 100 90
-33.305882 -137.11913 22.897949 90 97 88
-33.119675 -137.13168 22.881817 95 101 91
-32.875912 -137.08051 22.878721 90 94 89
-32.69294 -137.1145 22.921829 109 109 105
-32.511612 -137.10532 22.897161 102 104 99
-32.301064 -137.10387 22.931932 115 117 114
-32.100983 -137.08395 22.942827 106 110 110
-31.862675 -137.14961 22.930204 122 122 122
-31.762848 -137.14883 22.921976 115 117 117
-31.422638 -137.19691 22.923388 127 127 119
-31.343529 -137.16879 22.926109 142 141 137
-31.053909 -137.10858 22.907282 128 124 124
-30.890547 -137.07828 22.861567 141 138 140
-30.711588 -137.09993 22.911774 154 149 147
-30.525757 -137.07848 22.901337 161 160 156
-30.280329 -137.08255 22.866104 157 150 152
-30.132694 -137.06015 22.848803 159 150 153
-29.979059 -137.00359 22.836096 59 57 62
-29.569344 -137.03046 22.80302 69 61 68
-37.822559 -136.80162 22.850832 184 171 180
-37.750557 -136.80765 22.888565 104 101 105
-37.495678 -136.85684 22.909508 113 113 112
-37.284359 -136.85794 22.876631 143 130 130
-37.143963 -136.88327 22.898218 140 131 130
-36.859951 -136.93066 22.93943 122 121 120
-36.763794 -136.90356 22.877924 123 120 119
-35.664707 -136.93013 22.896353 65 77 69
-34.338387 -136.92197 22.929392 71 80 73
-34.085426 -136.88866 22.937227 61 68 60
-33.504025 -136.9254 22.810572 80 86 72
-33.297264 -136.95387 22.932474 79 85 76
-33.098682 -136.96664 22.911705 63 69 63
-32.954254 -136.99425 22.821846 59 67 61
-32.672115 -136.90654 22.910309 100 103 101
-32.491295 -136.92183 22.914268 91 95 92
-32.266338 -136.95744 22.875484 106 113 111
-32.107101 -136.91324 22.898384 96 101 99
-31.246244 -136.99255 22.964279 96 93 86
-31.101246 -136.91321 22.885599 139 137 135
-30.812244 -136.93263 22.928577 82 86 89
-30.678635 -136.92673 22.854797 113 118 117
-30.485771 -136.89879 22.872904 102 101 101
-30.28021 -136.89951 22.891169 169 157 160
-30.145237 -136.92766 22.873957 168 156 160
-29.880764 -136.8671 22.880001 102 103 104
-29.694145 -136.86952 22.867514 106 103 106
-29.522234 -136.83762 22.841408 90 90 92
-29.294668 -136.88582 22.839937 67 69 68
-37.896019 -136.69106 22.898951 114 115 117
-37.709187 -136.73459 22.887808 102 105 105
-37.458023 -136.74405 22.928802 133 121 122
-37.290794 -136.67715 22.964233 144 136 136
-37.142281 -136.76305 22.995251 114 114 115
-36.899452 -136.69057 22.914604 110 112 108
-36.731361 -136.6781 22.909109 107 106 102
-33.211403 -136.67342 22.992729 77 75 81
-32.80677 -136.75539 22.920259 91 92 94
-32.687206 -136.74043 22.874786 82 85 87
-32.569969 -136.72865 22.9459 67 75 76
-32.372437 -136.74409 22.905104 71 82 81
-32.110317 -136.71495 22.895039 69 78 78
-31.972309 -136.71457 22.954353 93 102 99
-31.595127 -136.65894 22.976347 110 111 105
-30.701229 -136.64336 22.832825 98 87 103
-30.444288 -136.72615 22.879303 136 128 131
-30.324066 -136.72739 22.898346 145 139 139
-30.104416 -136.69905 22.892935 124 121 121
-29.88047 -136.68828 22.871403 139 130 131
-29.68741 -136.70227 22.905056 134 126 128
-29.519634 -136.68951 22.871725 125 114 119
-29.358589 -136.65666 22.879459 98 94 98
-29.098389 -136.64737 22.836706 66 73 69
-37.916729 -136.48479 22.829744 122 123 123
-37.75441 -136.51892 22.943727 170 151 158
-37.449444 -136.52084 22.893484 123 128 124
-37.337692 -136.53412 22.923988 129 132 127
-36.913559 -136.50298 22.935638 113 115 111
-36.775326 -136.54779 22.941391 126 122 123
-33.450523 -136.53255 22.885422 57 58 60
-32.664764 -136.41199 22.909084 69 78 75
-30.45257 -136.44781 22.996109 104 102 108
-30.316814 -136.47037 22.939178 160 148 153
-30.093914 -136.52614 22.874363 150 145 146
-29.878904 -136.49908 22.88686 152 144 144
-29.691988 -136.49519 22.901188 155 145 147
-29.481262 -136.50435 22.911579 146 135 139
-29.287077 -136.492 22.878845 113 105 109
-29.123209 -136.50476 22.8559 101 97 99
-37.919117 -136.27379 22.946676 137 132 131
-37.657852 -136.30931 22.91094 145 138 140
-37.529076 -136.26147 22.930998 137 132 133
-37.320507 -136.35011 22.857489 107 116 111
-37.069408 -136.22133 22.912985 119 113 117
-36.879482 -136.29546 22.928942 97 100 97
-36.682522 -136.3011 22.908834 97 97 98
-36.509148 -136.30273 22.962658 102 99 98
-35.511345 -136.35136 22.948267 66 78 76
-35.324436 -136.2103 22.900482 64 72 75
-34.307003 -136.26981 22.818806 77 85 78
-33.333923 -136.29414 22.892736 86 90 91
-31.70174 -136.25763 22.822269 90 88 93
-31.280161 -136.28674 22.909042 102 109 107
-31.176775 -136.36902 22.956263 165 167 166
-30.432333 -136.28329 22.806746 135 130 134
-30.294498 -136.30766 22.891912 127 122 124
-30.06064 -136.31929 22.891851 145 143 143
-29.914057 -136.30099 22.886421 139 135 135
-29.706392 -136.32913 22.850618 150 142 142
-29.487024 -136.31941 22.892181 155 147 148
-29.299519 -136.33374 22.876396 157 144 149
-29.153687 -136.33261 22.880472 160 144 150
-38.258286 -136.00957 22.938683 120 123 116
-38.049805 -136.03661 22.900284 107 115 113
-37.881626 -136.08022 22.888002 122 122 124
-37.725292 -136.08505 22.893061 118 120 119
-37.540188 -136.15054 22.905712 164 150 154
-37.343212 -136.05013 22.928047 145 139 139
-37.104111 -136.10854 22.963469 111 106 111
-36.883873 -136.09204 22.925135 102 108 105
-36.725418 -136.06709 22.897722 98 100 100
-36.469978 -136.13531 22.927387 137 133 136
-35.406544 -136.13373 22.804394 65 75 77
-35.267357 -136.03571 22.902025 56 64 61
-35.081551 -136.14438 22.958351 66 70 72
-34.888474 -136.17896 22.944153 84 87 90
-34.697346 -136.06279 22.918053 86 88 92
-34.3634 -136.02638 22.961292 77 88 84
-33.27924 -136.08626 22.911518 81 86 84
-33.125736 -136.13246 22.911789 77 79 75
-32.968113 -136.08386 22.900919 97 96 96
-32.737652 -136.13377 22.83095 88 92 93
-31.725765 -136.07761 22.899134 103 108 106
-31.295923 -136.09682 22.85235 108 114 112
-31.163107 -136.14026 22.94338 128 130 127
-30.854652 -136.12842 22.832458 81 90 89
-30.298357 -136.04988 22.844322 120 112 115
-30.147556 -136.16409 22.893076 139 136 138
-29.916988 -136.13156 22.857981 128 123 127
-29.707645 -136.07297 22.817314 115 115 119
-29.589659 -136.16461 22.90097 124 123 118
-29.377369 -136.19386 22.838913 130 122 124
-38.262794 -135.89157 22.933727 123 119 120
-38.092346 -135.92642 22.960995 123 125 122
-37.893253 -135.87122 22.905348 124 122 125
-37.730324 -135.9061 22.912687 122 124 123
-37.595695 -135.89999 22.840351 139 135 139
-37.310825 -135.90977 22.919252 144 143 143
-37.060284 -135.89159 22.903872 83 93 90
-36.874187 -135.92119 22.924545 95 104 101
-36.736156 -135.90718 22.909416 104 105 107
-36.554871 -135.88066 22.870687 93 95 93
-35.074028 -135.94606 22.943039 59 62 67
-34.74506 -135.94398 22.806309 81 74 82
-33.673637 -135.90125 22.883377 65 76 67
-33.379471 -135.86929 22.897873 87 93 93
-33.101227 -135.9527 22.903744 70 76 72
-32.888096 -135.9438 22.997257 111 111 109
-32.411827 -135.88472 22.927538 70 73 80
-30.4592 -135.91919 22.85191 152 136 140
-30.321104 -135.89368 22.856564 141 132 135
-29.911354 -135.85886 22.935057 81 81 84
-29.680235 -135.82916 22.918409 74 83 82
-29.507324 -135.85242 22.910366 76 79 79
-29.355284 -135.82025 22.936562 56 63 55
-29.152231 -135.8161 22.894186 88 91 91
-38.233562 -135.78488 22.924303 150 145 147
-38.090588 -135.69125 22.884668 174 170 173
-37.884335 -135.73775 22.90354 140 139 142
-37.736969 -135.71249 22.933037 122 124 125
-37.433601 -135.60176 22.929775 151 154 159
-37.245796 -135.71701 22.921711 136 135 136
-37.067348 -135.6234 22.994732 134 128 133
-36.884689 -135.69861 22.921297 126 123 126
-36.736538 -135.67059 22.912264 109 113 112
-36.54784 -135.75906 22.914808 106 110 106
-35.624008 -135.79372 22.945545 136 139 130
-35.059223 -135.78346 22.962799 69 75 78
-34.801468 -135.73824 22.845453 74 74 76
-34.671543 -135.78719 22.853828 75 75 83
-33.289906 -135.69171 22.963888 68 73 72
-31.864607 -135.70758 22.892662 60 67 74
-31.555929 -135.71988 22.886917 112 112 112
-30.442322 -135.71426 22.9002 147 139 140
-30.307232 -135.68436 22.868368 125 121 122
-30.089207 -135.64211 22.879465 139 133 134
-29.860237 -135.65724 22.884916 124 119 123
-29.699657 -135.66623 22.882193 122 118 119
-29.501591 -135.69258 22.903069 127 118 122
-29.308426 -135.70612 22.917717 120 111 115
-29.126915 -135.70006 22.912909 102 92 96
-28.928308 -135.66003 22.923311 57 59 57
-38.044518 -135.52634 22.854837 132 133 136
-37.918373 -135.53818 22.894745 121 125 127
-37.709534 -135.52298 22.953323 177 164 172
-37.477478 -135.50182 22.904655 130 135 133
-37.272465 -135.48692 22.887791 112 120 116
-37.071701 -135.4859 22.887148 116 114 117
-36.8885 -135.5034 22.93458 101 104 105
-36.74033 -135.51529 22.868214 91 98 98
-34.875435 -135.45686 22.847393 69 73 74
-34.765804 -135.58986 22.81061 71 76 80
-33.901169 -135.55583 22.991793 46 51 45
-33.27623 -135.57437 22.958942 78 84 84
-33.002811 -135.57228 22.809586 80 84 85
-32.850124 -135.51402 22.914942 95 93 98
-32.726646 -135.46698 22.833153 85 88 90
-32.143818 -135.47418 22.904522 119 118 116
-31.715889 -135.47339 22.849945 89 92 93
-31.407757 -135.46503 22.968943 97 98 102
-31.265974 -135.47542 22.814104 95 95 93
-30.452843 -135.5415 22.942574 133 124 127
-30.274126 -135.51054 22.894693 130 124 125
-30.099876 -135.51558 22.920942 146 139 139
-29.892326 -135.52184 22.914234 139 133 134
-29.701605 -135.55113 22.924532 142 136 138
-29.486185 -135.51764 22.931913 151 142 142
-29.300079 -135.49794 22.925331 156 145 145
-29.102013 -135.4929 22.891687 135 120 125
-28.917437 -135.47632 22.855223 101 93 101
-28.794636 -135.41174 22.834698 89 77 91
-38.041759 -135.2072 22.847744 182 186 189
-37.867432 -135.31375 22.892328 129 129 132
-37.711765 -135.24702 22.896523 104 104 106
-37.50806 -135.24779 22.964258 156 151 157
-37.277191 -135.29807 22.941179 121 125 124
-37.122261 -135.30505 22.917313 112 115 116
-36.898602 -135.29352 22.909317 113 115 117
-36.756107 -135.28938 22.893509 97 101 100
-36.545406 -135.27136 22.905121 89 88 88
-36.352524 -135.25638 22.840485 131 123 126
-35.667965 -135.38455 22.853922 68 81 74
-34.9146 -135.27637 22.81251 112 109 108
-34.742653 -135.27312 22.984196 101 98 99
-33.917847 -135.379 22.853531 69 78 75
-33.010094 -135.31116 22.9118 101 102 107
-32.893795 -135.29463 22.892206 79 81 84
-32.711143 -135.30197 22.966368 77 75 86
-32.519653 -135.2728 22.991573 65 73 71
-32.222885 -135.26019 22.963486 117 118 122
-32.052723 -135.29721 22.990269 119 119 117
-31.837288 -135.3721 22.821678 195 189 191
-31.448425 -135.28224 22.911331 81 85 88
-31.348669 -135.37486 22.905294 110 112 107
-31.191687 -135.36969 22.960876 95 96 98
-30.887012 -135.23802 22.816458 111 116 109
-30.657423 -135.37224 22.87702 106 98 101
-30.487122 -135.29692 22.883921 105 100 102
-30.25946 -135.31361 22.866726 118 115 115
-30.104506 -135.28896 22.918833 131 127 127
-29.940693 -135.28514 22.942451 134 132 132
-29.702837 -135.26607 22.886339 125 122 117
-29.46105 -135.34767 22.932018 142 133 134
-29.310753 -135.32094 22.89115 139 131 135
-29.100414 -135.2944 22.845364 132 127 130
-28.950596 -135.30865 22.831757 148 138 143
-38.096207 -135.09009 22.939175 166 171 175
-37.985855 -135.07889 22.860062 112 117 122
-37.693066 -135.08177 22.860312 122 128 134
-37.509945 -135.10092 22.928741 131 125 129
-37.283009 -135.09454 22.892458 121 124 126
-37.092506 -135.09563 22.906206 118 122 122
-36.91383 -135.10582 22.912796 121 117 118
-36.705067 -135.12384 22.928516 114 113 113
-36.544979 -135.12592 22.933933 105 102 102
-36.108509 -135.03426 22.874249 71 75 76
-35.927513 -135.03773 22.807369 148 128 137
-35.127373 -135.12726 22.950178 137 131 132
-34.965603 -135.04445 22.990986 156 147 148
-32.826904 -135.18507 22.981125 142 138 135
-32.654205 -135.08011 22.974659 82 86 85
-32.45068 -135.08673 22.88768 78 81 84
-32.313744 -135.19737 22.829979 84 89 93
-32.139885 -135.07358 22.931988 70 76 78
-30.760633 -135.1338 22.924253 144 143 141
-30.517235 -135.11014 22.890135 109 105 107
-30.27951 -135.12312 22.88352 116 109 110
-30.0956 -135.12033 22.914843 132 128 127
-29.911951 -135.08116 22.906256 130 126 126
-29.70509 -135.08316 22.8985 142 135 134
-29.520952 -135.06802 22.922159 163 152 151
-29.285746 -135.11082 22.90399 148 137 141
-29.12331 -135.08179 22.897879 108 103 107
-28.975058 -135.13867 22.896919 92 82 92
-37.848579 -134.98289 22.922485 117 124 130
-37.687572 -134.89868 22.911356 115 114 117
-37.49152 -134.90137 22.934679 145 137 141
-37.306744 -134.8858 22.896332 135 134 138
-37.134937 -134.90718 22.909883 137 138 140
-36.917389 -134.95901 22.954113 112 111 111
-36.743969 -134.96625 22.946741 119 114 115
-36.495392 -134.93243 22.952246 91 89 90
-35.583305 -134.94652 22.995998 73 71 76
-35.018745 -134.86198 22.981073 69 73 72
-34.283295 -134.95874 22.892319 62 68 66
-34.162811 -134.93576 22.913509 73 73 76
-33.317162 -134.93375 22.837017 108 109 102
-32.628551 -134.99953 22.805641 62 60 65
-32.268269 -134.83882 22.915586 59 66 74
-31.55827 -134.97118 22.891905 79 86 90
-31.272194 -134.80995 22.879875 85 80 86
-30.550314 -134.81929 22.864178 100 106 106
-30.059711 -134.95761 22.885212 131 122 125
-29.86499 -134.89688 22.882542 123 122 123
-29.677355 -134.92122 22.866219 116 117 116
-29.488123 -134.90315 22.900658 139 133 134
-29.302975 -134.89038 22.906635 160 145 148
-29.080402 -134.897 22.908768 123 112 117
-28.936493 -134.89217 22.838987 77 68 72
-37.80122 -134.77312 22.825806 89 99 100
-37.671501 -134.73395 22.92016 148 153 156
-37.490955 -134.71422 22.903139 128 127 128
-37.317989 -134.70052 22.914309 131 131 133
-37.126743 -134.70656 22.936415 147 140 144
-36.991394 -134.65295 22.846035 166 153 161
-36.531509 -134.62267 22.966515 85 75 83
-36.001648 -134.74622 22.962193 83 84 86
-35.838074 -134.63637 22.917702 86 87 90
-35.702652 -134.62718 22.899319 85 82 86
-35.568989 -134.77031 22.946045 95 94 95
-35.208084 -134.70088 22.843254 80 87 95
-34.877575 -134.61179 22.932755 65 67 64
-34.789864 -134.60107 22.87365 65 65 67
-34.550804 -134.79739 22.826307 59 53 57
-34.232899 -134.73125 22.92606 98 85 92
-34.109291 -134.68044 22.822563 83 89 89
-33.97131 -134.67903 22.835884 69 71 70
-33.27869 -134.79448 22.96343 62 62 60
-32.253174 -134.76956 22.876537 61 66 77
-31.846695 -134.66299 22.934669 85 94 91
-30.89967 -134.66864 22.872059 117 114 114
-30.729961 -134.65633 22.92918 119 115 117
-30.489386 -134.66579 22.859194 128 121 125
-30.352018 -134.68558 22.825571 133 127 129
-29.867828 -134.70107 22.865843 128 128 125
-29.70241 -134.70956 22.860411 131 128 129
-29.514463 -134.7668 22.867779 118 115 116
-29.279968 -134.74181 22.913839 155 138 140
-29.132061 -134.73544 22.883043 167 147 151
-28.9382 -134.75888 22.910059 92 88 92
-37.737247 -134.56889 22.856838 130 139 136
-37.480171 -134.55301 22.864452 118 120 123
-37.324196 -134.47623 22.894691 99 105 105
-37.098171 -134.52109 22.909044 139 134 140
-36.928585 -134.49767 22.919411 149 137 142
-36.718967 -134.49561 22.919647 117 114 117
-36.547356 -134.53011 22.952261 92 91 95
-36.27066 -134.58116 22.950035 93 84 85
-36.119957 -134.43057 22.898912 104 101 102
-35.887562 -134.49182 22.894003 100 100 102
-35.756001 -134.42668 22.900953 87 89 88
-35.484062 -134.4415 22.943958 73 68 72
-35.052444 -134.45557 22.826191 65 64 62
-34.695591 -134.50226 22.883343 103 98 100
-34.499336 -134.44508 22.924685 109 108 109
-34.323101 -134.42747 22.858088 103 98 100
-34.177166 -134.57355 22.887833 106 110 113
-33.973957 -134.57811 22.949781 47 48 50
-33.335342 -134.45801 22.95006 95 97 99
-33.091629 -134.49582 22.890499 85 77 84
-32.961033 -134.49742 22.91324 92 91 93
-31.934744 -134.453 22.922611 167 166 162
-31.073961 -134.40314 22.848297 133 124 130
-30.852011 -134.51114 22.907448 105 104 104
-30.685541 -134.48106 22.876682 117 114 117
-30.520414 -134.49176 22.877584 124 121 124
-30.361692 -134.46198 22.830055 118 116 118
-29.831249 -134.54147 22.922024 149 145 145
-29.689051 -134.55252 22.854815 146 138 144
-29.589579 -134.58589 22.824537 54 59 55
-29.197573 -134.59995 22.821068 186 155 160
-28.997637 -134.53754 22.971083 52 42 50
-37.662918 -134.31772 22.849903 122 121 124
-37.465366 -134.27274 22.897072 141 136 139
-37.311401 -134.30405 22.903662 127 128 130
-37.107029 -134.30061 22.912752 123 124 129
-36.906242 -134.31192 22.932962 119 117 119
-36.712692 -134.32661 22.944582 129 133 135
-36.206982 -134.39888 22.935246 104 98 102
-36.050705 -134.31465 22.904112 101 103 100
-35.89555 -134.29533 22.907619 96 98 99
-35.700123 -134.29808 22.890215 96 96 98
-35.520279 -134.30211 22.881996 89 90 89
-35.330902 -134.23849 22.853868 87 88 85
-35.094521 -134.28065 22.873461 88 88 87
-34.91003 -134.27568 22.860804 88 89 90
-34.727051 -134.28471 22.858564 90 87 87
-34.514267 -134.31505 22.876957 93 95 96
-34.082054 -134.26598 22.894787 82 83 90
-33.254234 -134.32599 22.894272 61 62 66
-33.049881 -134.25192 22.852564 95 99 105
-32.036823 -134.25349 22.854994 78 77 82
-31.823862 -134.22876 22.903931 86 86 85
-31.726379 -134.37935 22.872322 151 142 143
-31.005627 -134.33987 22.972563 116 107 114
-30.910023 -134.29404 22.893297 102 102 105
-30.671242 -134.31021 22.880045 123 121 120
-30.509254 -134.32225 22.86566 124 121 123
-30.307306 -134.29791 22.850212 110 105 109
-30.195797 -134.26251 22.890192 114 113 118
-37.661633 -134.13246 22.911461 118 120 120
-37.48241 -134.11391 22.919125 140 133 136
-37.281651 -134.10391 22.887745 135 133 138
-37.123371 -134.09943 22.905134 139 138 142
-36.889103 -134.06789 22.928637 144 142 145
-36.755142 -134.11102 22.965267 137 145 143
-36.055439 -134.07846 22.926712 90 96 93
-35.907036 -134.13225 22.93712 96 98 99
-35.725487 -134.11267 22.920839 103 106 107
-35.498901 -134.10283 22.905693 116 115 117
-35.286037 -134.09685 22.895947 89 88 87
-35.106697 -134.09804 22.873272 96 97 96
-34.905952 -134.09111 22.903708 101 99 100
-34.697407 -134.11008 22.877476 103 100 102
-34.525513 -134.12183 22.926216 77 80 82
-34.306721 -134.10704 22.93416 76 80 79
-34.165272 -134.1805 22.930138 97 99 101
-33.241188 -134.17227 22.803947 67 69 66
-32.882618 -134.05287 22.882818 93 95 91
-32.433067 -134.13516 22.930344 120 114 114
-31.90382 -134.12714 22.926832 118 117 121
-31.690393 -134.09895 22.943285 106 113 114
-30.87957 -134.13025 22.930635 89 89 92
-30.649801 -134.16071 22.875267 113 109 108
-30.551275 -134.14624 22.858372 133 127 130
-30.366966 -134.15172 22.964899 160 146 157
-30.190065 -134.17276 22.803295 139 134 140
-29.697186 -134.1123 22.860373 55 60 53
-29.500671 -134.14029 22.837322 69 67 68
-37.475971 -133.92543 22.854929 164 155 159
-37.276039 -133.88658 22.889702 122 123 122
-37.11858 -133.90205 22.906384 138 137 141
-36.928291 -133.89975 22.919294 116 115 120
-36.733494 -133.92368 22.921978 125 117 126
-36.584 -133.83852 22.88773 103 97 99
-36.071724 -133.88568 22.939737 98 100 99
-35.927868 -133.90169 22.912235 103 103 107
-35.688843 -133.90947 22.911055 118 117 120
-35.489433 -133.87587 22.928329 93 92 94
-35.32518 -133.89838 22.907349 97 97 97
-35.099335 -133.91745 22.878695 98 102 101
-34.91436 -133.88295 22.89921 96 98 99
-34.703064 -133.9102 22.957462 87 91 93
-34.523449 -133.89345 22.919687 67 74 75
-34.282372 -133.81654 22.834507 81 89 91
-34.172577 -133.92651 22.982294 126 124 128
-33.337364 -133.88887 22.860891 100 98 99
-33.178234 -133.90546 22.894333 106 111 110
-32.430977 -133.86227 22.864489 78 82 83
-32.366421 -133.94579 22.83313 113 105 103
-32.112335 -133.99008 22.832455 121 112 112
-31.795118 -133.90164 22.895161 78 74 75
-31.520815 -133.86026 22.850056 69 70 72
-30.809509 -133.80443 22.98979 103 101 108
-30.760254 -133.95378 22.924978 53 56 63
-30.002483 -133.80197 22.916172 50 46 60
-29.712912 -133.91806 22.84362 94 91 96
-29.558369 -133.89983 22.81233 136 127 132
-29.29034 -133.8275 22.811991 115 110 114
-28.900784 -133.84041 22.808058 148 145 159
-37.28017 -133.78516 22.92399 126 128 128
-37.080383 -133.70261 22.89393 126 127 126
-36.887726 -133.68832 22.88953 140 133 141
-36.661407 -133.7487 22.920055 123 111 119
-36.480537 -133.68179 22.972456 136 131 136
-36.362522 -133.61667 22.985657 152 149 158
-36.056831 -133.73499 22.933277 87 90 89
-35.880825 -133.67993 22.915619 95 100 101
-35.700787 -133.69714 22.946934 99 102 103
-35.447197 -133.69237 22.950954 91 97 94
-35.293457 -133.69022 22.917261 88 91 89
-35.08992 -133.69489 22.899353 75 78 81
-34.914867 -133.67656 22.888351 80 83 83
-34.681728 -133.66399 22.943144 92 88 92
-34.523632 -133.68401 22.93894 102 101 106
-34.379551 -133.6171 22.823528 100 103 106
-34.098518 -133.70247 22.876993 79 75 80
-32.418388 -133.68903 22.942535 90 88 91
-32.299206 -133.68857 22.92012 85 84 84
-32.147743 -133.70569 22.962786 93 95 92
-31.790451 -133.64301 22.855419 73 72 77
-31.053432 -133.67705 22.830454 76 79 86
-30.813887 -133.7628 22.882412 81 84 89
-30.225769 -133.64494 22.921553 116 120 119
-30.078217 -133.65343 22.855055 103 105 105
-29.928644 -133.61737 22.906599 126 124 125
-29.72719 -133.6537 22.852324 129 124 129
-29.564896 -133.75636 22.834097 143 137 148
-29.304869 -133.70447 22.810278 145 140 148
-28.909161 -133.72104 22.842878 133 130 140
-28.42029 -133.6405 22.95706 167 156 170
-28.330004 -133.65945 22.860321 150 136 150
-37.047226 -133.52882 22.897001 125 127 125
-36.896851 -133.4789 22.921385 133 127 132
-36.751587 -133.49976 22.870068 131 120 128
-36.497375 -133.45157 22.950481 144 139 145
-36.310623 -133.504 22.897358 141 135 142
-36.082596 -133.45741 22.917139 120 121 125
-35.899456 -133.48167 22.917542 99 105 105
-35.722572 -133.51865 22.938185 112 111 114
-35.555019 -133.48575 22.982048 104 101 105
-35.26675 -133.50606 22.944172 102 106 103
-35.125004 -133.49141 22.9105 80 84 85
-34.910633 -133.49779 22.90654 91 90 92
-34.680691 -133.49844 22.947048 104 101 104
-34.501411 -133.48439 22.939102 109 110 112
-34.32378 -133.44667 22.961481 127 122 125
-33.296097 -133.48669 22.96764 69 66 72
-33.197117 -133.57889 22.847431 66 67 72
-32.296066 -133.57607 22.939287 104 106 103
-32.117691 -133.49124 22.878223 97 95 96
-31.991388 -133.42326 22.82262 106 101 107
-30.688553 -133.51939 22.881769 84 78 79
-30.473967 -133.47295 22.879717 125 125 128
-30.278994 -133.47496 22.875805 108 111 116
-30.120243 -133.49915 22.912228 119 119 126
-29.915211 -133.48112 22.882616 106 106 112
-29.694258 -133.50108 22.885017 122 118 124
-29.525631 -133.487 22.854515 114 110 119
-29.205372 -133.50136 22.812429 134 133 139
-29.077852 -133.49402 22.835409 139 133 138
-28.903358 -133.54109 22.829676 146 138 145
-28.611431 -133.44405 22.802532 135 133 139
-28.502541 -133.47865 22.858618 129 124 133
-28.322243 -133.51959 22.878513 145 137 150
-28.154848 -133.485 22.8626 104 99 108
-27.753334 -133.43976 22.834305 149 142 156
-27.407866 -133.53494 22.831787 153 149 164
-37.085918 -133.33073 22.903337 104 107 108
-36.911896 -133.31325 22.926624 123 116 121
-36.67651 -133.29784 22.937906 146 140 144
-36.507912 -133.29407 22.918076 140 135 140
-36.283119 -133.2966 22.9219 140 136 144
-36.083191 -133.28412 22.908352 113 115 118
-35.902615 -133.29898 22.93709 113 112 114
-35.696716 -133.29066 22.947624 123 119 123
-35.528259 -133.28499 22.883448 128 118 125
-35.234993 -133.27643 22.943632 127 115 116
-35.080944 -133.29239 22.904264 97 98 99
-34.925007 -133.29585 22.935009 102 101 103
-34.694664 -133.28711 22.927221 112 110 114
-34.509041 -133.29787 22.910179 114 112 118
-34.352142 -133.26398 22.877285 141 136 141
-33.352009 -133.32993 22.862671 64 54 62
-32.25943 -133.37695 22.968464 87 90 92
-32.098171 -133.33003 22.914228 102 102 104
-31.968077 -133.27573 22.886087 112 110 113
-31.695704 -133.27835 22.88056 93 92 96
-31.283667 -133.2365 22.85153 83 85 88
-31.123047 -133.24666 22.836128 132 126 132
-30.9063 -133.26219 22.881021 101 100 104
-30.701191 -133.26501 22.891191 91 90 94
-30.504711 -133.26158 22.896133 90 92 98
-30.309162 -133.33203 22.927948 108 112 118
-30.137396 -133.32916 22.891094 135 138 145
-29.881372 -133.28128 22.913651 128 125 129
-29.719561 -133.30264 22.900902 121 116 126
-29.542719 -133.39516 22.820015 120 118 127
-29.273029 -133.26566 22.830145 102 102 106
-29.091085 -133.26469 22.89555 89 90 97
-28.864946 -133.24762 22.900242 102 101 108
-28.686914 -133.28719 22.916193 113 112 120
-28.508141 -133.33916 22.916019 130 128 136
-28.339716 -133.34377 22.903791 131 125 135
-28.095135 -133.3427 22.877771 112 106 119
-27.939016 -133.31021 22.878143 122 119 130
-27.787092 -133.30396 22.904833 138 130 146
-27.531139 -133.29483 22.883608 134 133 145
-42.26804 -133.08234 22.906887 64 64 66
-42.187992 -133.04529 22.884455 101 92 97
-36.831165 -133.11525 22.918552 140 134 142
-36.698341 -133.09712 22.930349 120 118 124
-36.505405 -133.09631 22.911266 153 145 153
-36.268181 -133.0918 22.9424 125 131 131
-36.121975 -133.10248 22.923534 114 118 121
-35.897079 -133.10394 22.926004 105 108 109
-35.71516 -133.09914 22.915628 105 110 113
-35.504242 -133.0808 22.932447 115 111 116
-35.288261 -133.09961 22.937063 130 116 120
-35.081646 -133.12778 22.918322 103 100 101
-34.920628 -133.12105 22.906523 106 106 107
-34.707455 -133.09872 22.90625 119 119 123
-34.541477 -133.09222 22.886337 105 106 111
-34.273735 -133.12724 22.908932 117 111 116
-34.170452 -133.10815 22.897091 130 126 130
-33.873951 -133.06819 22.895983 79 87 89
-33.753132 -133.07867 22.944397 65 75 78
-33.263142 -133.05653 22.94986 65 65 73
-32.748199 -133.00563 22.931862 95 99 102
-32.493576 -133.10574 22.855627 104 93 99
-32.335896 -133.08072 22.947798 95 95 101
-32.112244 -133.10997 22.911919 116 108 112
-31.911005 -133.10097 22.884163 109 105 108
-31.756454 -133.06087 22.933451 83 87 89
-31.469152 -133.09093 22.875134 108 106 109
-31.289398 -133.07777 22.867138 108 108 114
-31.106806 -133.09274 22.870747 94 97 102
-30.90806 -133.10124 22.880859 107 104 109
-30.691809 -133.13927 22.883556 98 99 104
-30.492476 -133.1571 22.905151 85 90 94
-30.37228 -133.16173 22.913441 104 109 114
-30.062445 -133.0618 22.988213 115 117 122
-29.907829 -133.09831 22.94912 118 120 127
-29.758684 -133.12236 22.867378 92 92 101
-29.400852 -133.06091 22.980232 142 143 146
-29.299046 -133.08281 22.901356 100 100 106
-29.182287 -133.15428 22.851561 111 110 116
-28.898746 -133.15356 22.885124 98 99 105
-28.652 -133.09599 22.951698 100 100 110
-28.499027 -133.11404 22.913069 111 111 119
-28.355158 -133.121 22.927816 119 116 126
-28.04056 -133.12115 22.918936 120 119 128
-27.953484 -133.1497 22.857037 130 128 139
-41.994652 -132.88058 22.983696 103 105 110
-41.706665 -132.81195 22.904642 81 87 93
-37.027512 -132.85902 22.875906 140 145 152
-36.92347 -132.91101 22.916059 108 107 110
-36.687973 -132.92041 22.896605 127 129 130
-36.495541 -132.90468 22.925282 133 133 136
-36.291744 -132.8918 22.887217 131 129 132
-36.100315 -132.87868 22.891491 124 128 132
-35.893673 -132.90147 22.893562 127 129 131
-35.689754 -132.88864 22.925112 119 123 123
-35.485256 -132.90369 22.927183 121 119 121
-35.331509 -132.89644 22.941763 126 124 128
-35.096024 -132.89719 22.913076 94 96 96
-34.899761 -132.92657 22.920689 116 117 121
-34.704365 -132.89738 22.900101 116 116 122
-34.548214 -132.89784 22.853712 100 103 109
-34.336388 -132.90071 22.852474 101 99 108
-34.064316 -132.97803 22.936422 125 122 124
-33.85244 -132.91263 22.882435 86 96 98
-33.70528 -132.91179 22.940456 105 108 111
-33.511219 -132.90979 22.864738 190 181 182
-33.276016 -132.99939 22.835821 69 74 78
-32.92572 -132.9057 22.9126 80 87 88
-32.735775 -132.93071 22.887993 88 95 97
-32.485531 -132.92606 22.918306 104 101 108
-32.362858 -132.89386 22.874899 83 78 84
-31.831274 -132.96208 22.889231 121 113 118
-31.666489 -132.91217 22.876368 57 50 57
-31.456379 -132.92281 22.88636 110 108 112
-31.29434 -132.91235 22.883383 107 111 116
-31.105104 -132.91019 22.884544 103 109 113
-30.896641 -132.8976 22.88036 97 99 105
-30.730148 -132.8871 22.896742 95 98 100
-30.571648 -132.90433 22.879108 106 110 106
-30.05448 -132.94218 22.970119 112 115 120
-29.900082 -132.88837 22.921467 92 97 103
-29.75391 -132.8754 22.883755 94 97 103
-29.541449 -132.87332 22.85799 83 87 90
-29.347393 -132.90526 22.878475 122 122 129
-28.664673 -132.99742 22.989079 173 169 177
-28.42927 -132.97137 22.95009 108 110 119
-28.296942 -132.87808 22.924227 95 98 106
-28.102219 -132.89812 22.941568 99 101 110
-42.030243 -132.72447 22.818233 64 69 72
-41.885181 -132.73239 22.912006 80 88 89
-41.677258 -132.70476 22.891489 83 90 92
-41.457008 -132.66467 22.900335 93 95 101
-41.303799 -132.68753 22.900145 91 95 100
-37.050419 -132.6796 22.886711 102 111 109
-36.935978 -132.70392 22.872726 136 137 140
-36.764053 -132.75124 22.891817 104 112 113
-36.481602 -132.73416 22.892809 136 136 137
-36.280197 -132.68785 22.898081 134 133 136
-36.100075 -132.6987 22.872175 120 124 127
-35.910881 -132.68217 22.901705 140 137 144
-35.690968 -132.69168 22.91571 132 130 132
-35.484756 -132.68698 22.90885 127 124 128
-35.319439 -132.69356 22.931171 128 128 133
-35.129696 -132.68486 22.895866 132 122 130
-34.897316 -132.6982 22.921694 123 121 126
-34.703094 -132.71832 22.913662 121 123 127
-34.527206 -132.68672 22.893099 117 122 127
-34.28677 -132.67693 22.903557 99 100 108
-33.856358 -132.72386 22.821117 79 82 92
-33.725967 -132.75517 22.824701 78 87 96
-33.511826 -132.67812 22.960602 94 92 98
-32.932663 -132.75615 22.856071 59 65 71
-32.452366 -132.67743 22.958391 105 101 110
-32.364376 -132.63304 22.953388 87 85 96
-32.096252 -132.68416 22.962173 85 82 91
-31.927408 -132.67444 22.904482 118 113 124
-31.68009 -132.65439 22.875763 125 124 131
-31.486105 -132.65889 22.8897 103 105 108
-31.297941 -132.70018 22.91367 95 100 105
-31.108276 -132.71617 22.907598 82 87 92
-30.898445 -132.69456 22.883711 90 94 97
-30.755041 -132.64478 22.940079 109 111 114
-30.539684 -132.78683 22.884312 106 108 105
-29.866566 -132.75891 22.927311 91 95 100
-29.719498 -132.69211 22.906691 79 84 89
-29.523962 -132.66628 22.876709 71 76 81
-29.293089 -132.72417 22.892502 109 110 117
-29.187613 -132.7094 22.928061 120 118 130
-28.448601 -132.76501 22.921793 48 55 60
-28.314919 -132.74854 22.806751 52 60 63
-41.660595 -132.51109 22.896683 72 77 79
-41.511841 -132.52498 22.896585 92 96 101
-41.299206 -132.49992 22.854063 88 93 97
-41.1558 -132.45311 22.915916 92 95 101
-36.649601 -132.53482 22.852453 46 54 57
-36.533604 -132.50987 22.881784 111 113 122
-36.289406 -132.50327 22.886976 113 115 115
-36.102943 -132.50519 22.901524 126 131 134
-35.908733 -132.49922 22.883177 130 127 134
-35.723423 -132.49437 22.860542 130 124 127
-35.490116 -132.50023 22.912189 134 134 136
-35.293907 -132.49702 22.899977 122 124 127
-35.084782 -132.48573 22.919558 107 110 115
-34.91729 -132.49406 22.907984 117 117 122
-34.707233 -132.48927 22.929501 90 95 98
-34.522038 -132.56509 22.867489 119 125 132
-34.204052 -132.55138 22.908493 141 133 144
-34.163185 -132.50656 22.886604 154 148 158
-33.392673 -132.44754 22.849571 156 143 150
-32.232224 -132.5015 22.962217 145 140 154
-32.122112 -132.54543 22.86869 109 106 117
-31.915752 -132.49905 22.844753 114 108 118
-31.679903 -132.5311 22.856499 87 88 93
-31.502819 -132.48856 22.916088 118 118 125
-31.295113 -132.51926 22.925386 104 110 113
-31.056351 -132.54562 22.955467 90 94 97
-30.872179 -132.49753 22.909025 85 90 96
-30.729216 -132.48683 22.933912 92 97 103
-30.589165 -132.44687 22.948559 95 97 104
-30.352369 -132.40494 22.909155 80 77 84
-29.879137 -132.57233 22.929539 93 95 98
-29.709803 -132.5295 22.878166 62 66 72
-29.46092 -132.53418 22.901899 75 79 85
-29.331532 -132.48865 22.91633 74 77 85
-28.62512 -132.50307 22.959381 59 64 70
-28.563108 -132.46529 22.864929 54 60 67
-41.842667 -132.26138 22.941406 73 79 81
-41.679081 -132.28435 22.936659 66 72 75
-41.51405 -132.3351 22.940323 91 99 99
-41.235863 -132.31596 22.877583 101 105 110
-41.131721 -132.29318 22.898872 97 98 105
-36.441433 -132.34477 22.833099 112 115 122
-36.074543 -132.3343 22.818649 50 61 62
-35.857471 -132.34036 22.871574 143 135 140
-35.698402 -132.31261 22.908709 130 126 131
-35.49522 -132.30661 22.910065 126 127 131
-35.30307 -132.29747 22.882631 97 103 105
-35.122608 -132.33551 22.889286 99 98 106
-34.903393 -132.34125 22.895376 85 85 94
-34.731873 -132.31885 22.943007 57 61 66
-34.13892 -132.2872 22.885651 116 115 128
-33.907688 -132.24921 22.870161 116 111 123
-33.47747 -132.25639 22.879246 93 94 100
-33.350384 -132.26299 22.90336 91 89 96
-33.174026 -132.21716 22.925436 92 94 100
-32.815266 -132.39337 22.952713 49 59 60
-32.731697 -132.31567 22.970577 105 103 107
-32.350163 -132.33501 22.820509 91 98 106
-32.096088 -132.28709 22.890448 76 75 82
-31.851477 -132.37814 22.839609 122 116 126
-31.670935 -132.38722 22.866512 197 179 193
-31.451302 -132.2872 22.884912 119 119 126
-31.318935 -132.28 22.937407 108 109 116
-31.07843 -132.2655 22.945339 118 115 121
-30.887768 -132.285 22.898304 88 92 98
-30.710135 -132.30446 22.906885 89 96 102
-30.5298 -132.26932 22.92589 81 85 91
-30.338381 -132.24995 22.829384 67 67 76
-29.427496 -132.28833 22.980204 52 56 65
-29.286316 -132.3441 22.918121 72 75 86
-28.638254 -132.28175 22.901318 55 54 62
-28.587799 -132.35313 22.926472 106 104 118
-41.899124 -132.09723 22.834332 63 71 71
-41.770008 -132.15262 22.804367 46 54 57
-41.526657 -132.05241 22.974485 52 57 60
-41.183559 -132.12535 22.855814 84 86 91
-35.659359 -132.13017 22.86779 150 148 154
-35.525242 -132.12541 22.887001 128 125 132
-35.333214 -132.158 22.860739 100 108 108
-35.031258 -132.1066 22.912331 142 144 152
-34.892002 -132.08871 22.90999 91 95 98
-33.629807 -132.1647 22.956821 80 87 87
-33.573231 -132.03163 22.803612 110 109 114
-33.287453 -132.08562 22.885372 123 120 125
-33.152859 -132.05696 22.902418 121 120 124
-32.891819 -132.10219 22.888172 70 71 77
-32.66066 -132.05283 22.881929 76 76 82
-32.466511 -132.04453 22.909489 106 111 117
-32.312824 -132.04282 22.906284 104 109 115
-32.19347 -132.02182 22.956703 58 65 73
-31.457993 -132.10172 22.862888 117 118 125
-31.313896 -132.09233 22.929228 104 107 115
-31.123684 -132.07669 22.907936 83 87 95
-30.887684 -132.10785 22.891361 93 96 103
-30.702919 -132.12923 22.883223 80 87 93
-30.564999 -132.12025 22.865463 70 73 80
-29.498535 -132.17796 22.92831 42 49 55
-29.31649 -132.12805 22.91135 64 68 77
-41.646778 -131.92912 22.824881 45 53 56
-41.234726 -131.81882 22.987736 65 75 77
-38.506149 -131.86029 22.844292 104 110 122
-38.28186 -131.86343 22.895107 120 124 139
-38.195023 -131.81767 22.802015 100 106 117
-35.573288 -131.9541 22.871916 114 115 124
-35.040134 -131.97971 22.855759 106 107 113
-34.003681 -131.80685 22.817928 133 122 132
-33.901573 -131.85292 22.956312 124 117 124
-33.692368 -131.86984 22.906563 111 112 118
-33.504665 -131.871 22.895304 133 130 137
-33.297058 -131.90569 22.930067 124 123 130
-33.086143 -131.89311 22.927336 106 107 112
-32.897121 -131.87987 22.920567 99 103 108
-32.705257 -131.8885 22.888727 100 103 109
-32.513287 -131.89078 22.910458 105 107 114
-32.282005 -131.89905 22.908169 96 101 107
-32.174084 -131.87791 22.88756 92 99 104
-31.997211 -131.9984 22.840809 60 67 75
-31.424034 -131.92206 22.857264 122 123 132
-31.30378 -131.90164 22.890528 108 112 120
-31.115891 -131.90749 22.865179 87 93 101
-30.933752 -131.92958 22.852743 88 90 100
-30.693624 -131.88757 22.893534 120 123 135
-40.645763 -131.67836 22.837372 52 62 64
-38.629288 -131.67688 22.869749 107 110 122
-38.479183 -131.63628 22.885387 117 124 132
-38.320717 -131.65366 22.914345 119 125 131
-38.180092 -131.79857 22.82877 108 116 127
-34.043098 -131.68987 22.936056 143 137 145
-33.884598 -131.6879 22.925308 130 123 131
-33.724834 -131.6685 22.899229 116 115 122
-33.48019 -131.70702 22.900927 121 120 126
-33.326557 -131.69951 22.945374 128 125 131
-33.109898 -131.68283 22.911135 124 120 123
-32.877491 -131.70755 22.888634 91 95 99
-32.71106 -131.71602 22.895638 83 88 94
-32.510315 -131.72469 22.942575 102 106 111
-32.274807 -131.71654 22.932188 103 107 112
-32.151253 -131.67805 22.882509 73 81 85
-31.458902 -131.73575 22.877842 115 116 118
-31.280022 -131.68349 22.864767 101 104 112
-31.110218 -131.69228 22.894011 91 97 102
-30.932747 -131.68077 22.901758 86 93 99
-30.683527 -131.68707 22.867821 94 95 105
-30.573769 -131.7748 22.945169 47 51 62
-41.341431 -131.46474 22.92309 83 89 91
-40.673229 -131.55879 22.811775 90 98 97
-38.823013 -131.4789 22.939322 112 117 123
-38.654266 -131.47295 22.854588 110 116 123
-38.498295 -131.50238 22.903996 111 121 127
-38.304604 -131.49312 22.938484 115 122 128
-38.111507 -131.48987 22.892265 122 131 136
-37.693081 -131.4212 22.907391 93 95 105
-34.221111 -131.4301 22.879044 138 139 144
-34.09684 -131.50592 22.906662 137 134 142
-33.892902 -131.5108 22.903906 130 132 142
-33.695709 -131.51474 22.903366 115 117 121
-33.504696 -131.50436 22.901878 108 111 115
-33.296211 -131.47963 22.938635 113 113 117
-33.109951 -131.51378 22.915596 101 99 102
-32.886368 -131.49466 22.898909 82 85 88
-32.735996 -131.52878 22.909777 77 80 85
-32.450031 -131.52443 22.942375 80 87 91
-32.308727 -131.48148 22.950777 84 89 95
-32.101604 -131.49004 22.89189 76 82 87
-31.9757 -131.46413 22.882391 68 78 82
-31.637398 -131.47115 22.877295 108 111 114
-31.451412 -131.48289 22.886023 100 102 110
-31.29188 -131.52341 22.870623 100 105 113
-31.09524 -131.52727 22.890888 68 75 80
-30.901762 -131.51393 22.872721 73 77 85
-30.626635 -131.5937 22.84811 81 89 98
-30.502182 -131.48743 22.897276 110 115 121
-30.039536 -131.55353 22.919815 98 98 110
-39.072586 -131.20909 22.850805 94 100 101
-38.8778 -131.23933 22.91235 130 135 139
-38.706249 -131.27786 22.89537 113 122 121
-38.501728 -131.30902 22.924229 105 112 118
-38.266052 -131.33264 22.914682 110 117 125
-38.134979 -131.29649 22.882105 101 113 113
-37.909855 -131.30162 22.884766 98 111 114
-37.682941 -131.27411 22.828197 121 125 136
-37.550083 -131.32886 22.89629 118 125 134
-34.503437 -131.25291 22.853601 129 127 133
-34.263046 -131.29025 22.854267 131 126 135
-34.126968 -131.28641 22.927238 131 128 135
-33.913956 -131.28844 22.924385 127 131 142
-33.70705 -131.31371 22.957624 112 114 117
-33.475628 -131.32889 22.937653 113 112 114
-33.305424 -131.31952 22.959352 103 106 107
-33.079716 -131.27985 22.928955 81 86 92
-32.901985 -131.31883 22.950607 70 74 80
-32.711411 -131.36719 22.879314 96 99 103
-32.39439 -131.39854 22.938576 56 67 68
-32.073849 -131.35909 22.893276 74 80 83
-31.929878 -131.30399 22.89255 65 74 76
-31.778551 -131.25166 22.993694 89 87 92
-31.461008 -131.2841 22.907415 80 84 95
-31.303951 -131.3524 22.864586 113 115 127
-31.06291 -131.3152 22.913708 66 71 77
-30.852722 -131.3045 22.920691 46 52 57
-30.778194 -131.3392 22.902718 49 52 59
-30.467585 -131.25803 22.887516 72 78 84
-30.347672 -131.285 22.935776 76 85 88
-29.892323 -131.25819 22.965183 103 108 116
-40.014919 -131.04539 22.923643 117 127 125
-39.877419 -131.04747 22.880392 110 123 123
-39.689129 -131.05753 22.874687 118 130 128
-39.278065 -131.03342 22.908583 73 78 81
-39.130238 -131.07024 22.905422 112 119 122
-38.910488 -131.09644 22.885454 131 132 139
-38.684788 -131.13483 22.914913 106 112 114
-38.505283 -131.11908 22.91258 103 110 116
-38.331982 -131.11116 22.926525 107 115 121
-38.126328 -131.11234 22.875443 95 106 108
-37.967304 -131.11421 22.817312 88 98 95
-37.695389 -131.08171 22.873655 99 108 114
-37.590816 -131.02893 22.853638 86 93 98
-34.607529 -131.14552 22.865458 162 148 159
-34.492085 -131.10242 22.847878 135 134 139
-34.259033 -131.08475 22.878769 138 137 146
-34.101551 -131.10397 22.917532 137 138 147
-33.893509 -131.07666 22.907932 129 129 137
-33.736542 -131.09033 22.907253 119 118 124
-33.546535 -131.08028 22.914587 110 109 117
-33.260536 -131.08659 22.954723 75 78 86
-33.060696 -131.10683 22.9132 62 66 72
-32.89259 -131.11656 22.879623 59 67 69
-32.772224 -131.18054 22.8818 69 72 77
-32.089962 -131.0531 22.97241 97 101 104
-31.876135 -131.11206 22.909208 67 74 79
-31.708847 -131.07024 22.888414 96 98 107
-31.483191 -131.12834 22.941105 80 82 91
-31.31839 -131.12321 22.887123 72 78 85
-31.038733 -131.15021 22.88763 71 79 85
-30.910837 -131.12648 22.911028 75 82 88
-30.551632 -131.15929 22.973097 35 36 40
-30.248428 -131.15765 22.897072 119 126 133
-30.00086 -131.06738 22.835695 77 81 90
-29.819712 -131.06299 22.900782 59 66 72
-29.742443 -131.06013 22.869148 66 76 80
-40.047993 -130.85506 22.862083 93 106 103
-39.892387 -130.90451 22.889231 112 124 126
-39.69746 -130.89528 22.904312 104 116 115
-39.539558 -130.8782 22.914793 100 115 113
-39.283081 -130.92592 22.896645 88 97 99
-39.109447 -130.89619 22.910955 123 129 136
-38.917759 -130.93178 22.892462 116 118 125
-38.72113 -130.92513 22.896811 106 113 117
-38.516087 -130.91472 22.893053 93 99 107
-38.309113 -130.93347 22.904718 112 119 126
-38.13279 -130.8849 22.908152 92 103 105
-37.683708 -130.88068 22.88027 101 112 115
-37.518047 -130.88075 22.860867 118 127 131
-37.3111 -130.8891 22.874002 102 105 121
-37.119205 -130.85571 22.882807 108 114 125
-34.469677 -130.92067 22.84198 141 138 145
-34.299084 -130.92194 22.870768 143 141 151
-34.091888 -130.91629 22.889791 123 126 136
-33.893726 -130.88358 22.870022 126 128 138
-33.708313 -130.89276 22.904854 124 128 133
-33.548759 -130.88113 22.91489 102 105 112
-33.296185 -130.9109 22.914978 87 95 102
-33.127811 -130.94684 22.857971 80 83 91
-32.832535 -130.97026 22.809389 103 107 118
-32.113331 -130.9055 22.903835 64 70 73
-31.874786 -130.89842 22.919699 58 62 68
-31.716646 -130.903 22.894621 90 95 105
-31.527145 -130.9529 22.863127 110 115 123
-30.610924 -130.92949 22.983208 75 75 83
-30.282293 -130.82736 22.911835 95 97 108
-30.066446 -130.89665 22.88633 57 61 69
-29.905266 -130.92293 22.911537 62 65 76
-29.732492 -130.87083 22.948589 80 87 94
-29.577423 -130.80936 22.905279 44 53 60
-40.642448 -130.67679 22.85014 90 94 95
-40.480877 -130.66057 22.879696 92 103 100
-40.106651 -130.67197 22.873438 89 101 101
-39.926918 -130.71109 22.920431 86 97 97
-39.709297 -130.74744 22.889105 85 96 101
-39.528244 -130.67058 22.908897 75 91 87
-39.255001 -130.67372 22.865467 74 82 84
-39.118618 -130.76018 22.920784 107 114 119
-38.947514 -130.69359 22.949524 145 151 165
-38.529575 -130.77812 22.962963 92 95 105
-38.278271 -130.68137 22.898506 78 82 89
-38.078053 -130.7028 22.879101 79 91 91
-37.859379 -130.70302 22.877474 80 95 93
-37.694946 -130.70166 22.867662 95 106 108
-37.496513 -130.70485 22.863813 114 124 126
-37.316956 -130.68944 22.933878 92 106 110
-37.127811 -130.70766 22.883751 100 116 120
-36.873123 -130.70911 22.830473 90 93 108
-34.31319 -130.77972 22.835524 137 133 144
-34.090214 -130.78883 22.845984 121 125 139
-33.874813 -130.73943 22.852276 108 108 118
-33.708569 -130.69948 22.89473 120 122 129
-33.492252 -130.69943 22.914095 98 102 111
-33.358376 -130.68387 22.932024 82 83 98
-32.46283 -130.73364 22.971453 102 106 108
-32.294338 -130.69818 22.928072 80 85 88
-32.066128 -130.65765 22.912931 72 77 82
-31.917322 -130.69623 22.887186 58 65 71
-31.699461 -130.73763 22.820305 74 79 88
-31.592752 -130.63812 22.894075 82 81 89
-30.663336 -130.77606 22.847961 66 68 80
-30.484344 -130.73575 22.915262 55 60 70
-30.277534 -130.73055 22.854774 63 65 78
-30.110037 -130.69035 22.887882 59 62 71
-29.865231 -130.66272 22.979141 57 66 72
-29.691704 -130.67316 22.889076 52 59 66
-29.557398 -130.77211 22.940079 50 61 67
-40.479092 -130.46869 22.863882 88 98 99
-40.305202 -130.50124 22.915253 80 92 92
-39.989635 -130.59035 22.918816 108 121 120
-39.498112 -130.54927 22.930605 71 88 84
-39.284798 -130.50569 22.970306 82 97 96
-39.142326 -130.46559 22.918114 70 80 84
-38.212296 -130.55475 22.903803 92 96 101
-38.103306 -130.49588 22.881948 72 83 82
-37.899437 -130.48038 22.890753 79 90 89
-37.691936 -130.49683 22.880728 91 101 102
-37.506748 -130.50821 22.85393 103 113 115
-37.307659 -130.49263 22.891336 108 114 117
-37.114796 -130.48334 22.847626 108 116 121
-36.849674 -130.44351 22.877459 99 106 113
-36.673588 -130.44846 22.861763 97 111 116
-34.064945 -130.41649 22.951992 134 135 148
-33.821346 -130.54723 22.838043 129 128 133
-33.698189 -130.50557 22.885984 128 127 136
-33.497353 -130.52107 22.882092 95 99 109
-33.304005 -130.50493 22.881943 94 99 107
-33.165638 -130.44943 22.996185 147 143 146
-32.473698 -130.4549 22.964703 99 103 103
-32.279388 -130.54614 22.905792 63 68 72
-32.046627 -130.51424 22.86183 60 64 70
-31.856409 -130.53235 22.881334 59 70 74
-31.786522 -130.52136 22.903473 53 59 63
-31.564432 -130.5441 22.896122 110 114 125
-30.319775 -130.55849 22.973328 53 51 64
-29.879705 -130.5417 22.855583 58 68 74
-29.739994 -130.54398 22.85743 49 58 64
-40.38332 -130.38968 22.952532 85 96 97
-39.271732 -130.27727 22.899946 60 73 71
-39.102554 -130.34006 22.943974 98 105 110
-38.221085 -130.33325 22.988581 121 125 135
-38.066063 -130.3403 22.906963 82 92 95
-37.860733 -130.31001 22.920301 84 95 95
