ply
format ascii 1.0
comment PCL generated
element vertex 1118
property float x
property float y
property float z
property uchar red
property uchar green
property uchar blue
element face 0
element camera 0
property float view_px
property float view_py
property float view_pz
property float x_axisx
property float x_axisy
property float x_axisz
property float y_axisx
property float y_axisy
property float y_axisz
property float z_axisx
property float z_axisy
property float z_axisz
property float focal
property float scalex
property float scaley
property float centerx
property float centery
property int viewportx
property int viewporty
property float k1
property float k2
end_header
41.944168 7.9359188 -8.4983749 103 100 115
42.190056 7.9144063 -8.4999285 119 98 143
42.311146 7.9990449 -8.5546417 132 112 148
42.489922 7.8853073 -8.5239096 109 102 122
42.722363 7.8566136 -8.5691805 120 106 133
42.924835 7.8541813 -8.5374603 132 123 143
43.15374 7.8456502 -8.5611267 114 110 125
43.227608 7.8519096 -8.5638428 114 109 120
43.69257 7.9966292 -8.5737963 144 123 131
43.88089 7.8542495 -8.5096645 126 110 123
44.177326 7.860476 -8.5565166 135 120 133
44.246723 7.8659983 -8.5179615 152 129 146
44.43882 7.8605175 -8.5488567 126 110 112
44.664154 7.9680343 -8.4175863 184 150 172
44.83527 7.9484849 -8.4688511 162 135 147
45.095081 7.8719215 -8.5164309 128 110 125
45.306469 7.9000025 -8.5152016 117 115 124
45.467323 7.9049654 -8.4908676 122 119 127
45.686974 7.9053574 -8.5029287 135 113 111
45.834629 7.9013586 -8.5747271 160 146 147
46.090576 7.8600574 -8.5470562 100 108 99
46.299885 7.88866 -8.5080738 100 107 108
46.528061 7.8275099 -8.5774651 140 138 133
46.656105 7.9301548 -8.5066156 112 113 121
46.87912 7.8868618 -8.5154247 98 98 97
47.040367 7.8890572 -8.550952 169 152 150
47.296726 7.9116421 -8.5569658 80 84 84
47.562935 7.9136777 -8.539299 98 95 100
47.749596 7.8264008 -8.5658245 110 107 106
47.924088 7.8640718 -8.5353813 132 134 138
48.107117 7.9132905 -8.4976454 120 126 130
48.292648 7.8532372 -8.5119343 96 111 108
48.559692 7.9075756 -8.5247393 134 138 144
48.734055 7.9439507 -8.4960594 119 124 136
48.892624 7.9319816 -8.5172071 122 130 136
49.074203 7.8905344 -8.5300484 98 103 113
49.303196 7.9340248 -8.4889154 140 140 146
49.477753 7.8302741 -8.4827251 92 98 96
49.669464 7.9306831 -8.4720411 97 105 106
49.888855 7.9432564 -8.4489689 168 168 175
50.094563 7.8925681 -8.4441376 84 95 93
50.308235 7.9054937 -8.501092 107 111 118
50.461334 7.8737125 -8.4721842 95 101 106
50.676662 7.9152336 -8.4715767 107 114 107
50.876076 7.8948078 -8.4151993 120 120 112
51.152359 7.9017563 -8.4946346 130 126 119
51.32983 7.9130659 -8.5327253 115 121 112
51.50338 7.9028959 -8.4864979 121 123 116
51.651909 7.8958712 -8.5620117 110 110 101
51.959122 7.9953189 -8.5344315 87 92 85
52.174854 7.9688063 -8.4694633 134 138 138
52.296581 7.9134507 -8.461482 132 133 132
52.422283 7.8763146 -8.5348959 130 128 130
52.671829 7.9172201 -8.5307598 107 108 107
53.069489 7.9708619 -8.4907284 95 99 92
53.244324 7.8833566 -8.5137968 89 97 88
53.539108 7.9426765 -8.5756435 103 107 99
53.617916 7.8559957 -8.5806742 103 115 101
41.676701 8.0979099 -8.5439196 120 120 120
41.876495 8.1349678 -8.5027885 122 111 123
42.129204 8.0997438 -8.5177984 120 100 137
42.280289 8.0777435 -8.562748 122 102 146
42.480335 8.1776943 -8.5850525 115 105 140
42.72332 8.0829849 -8.5548077 114 91 134
42.904991 8.0805588 -8.5795746 112 88 137
43.099182 8.0943356 -8.5396805 143 128 157
43.923485 8.1527309 -8.5705633 119 105 113
44.068794 8.1363382 -8.5567322 107 88 96
44.32613 8.0399313 -8.4927149 124 105 115
44.532181 8.0829134 -8.5038805 131 116 129
44.683975 8.044899 -8.5259542 139 126 135
44.861198 8.0675564 -8.5151882 138 130 125
45.162315 8.1007481 -8.5557699 101 93 97
45.314934 8.0775375 -8.5469685 113 107 108
45.491043 8.1377354 -8.5535927 172 156 160
45.639172 8.0615931 -8.5758038 135 133 136
45.846916 8.0467968 -8.5881042 197 199 193
46.330566 8.0484457 -8.4952106 103 91 109
46.521076 8.0983124 -8.5832071 92 82 101
46.683464 8.0410252 -8.5070286 95 94 107
46.907829 8.1030846 -8.5552645 102 96 102
47.027267 8.1479988 -8.5681725 94 88 93
47.263161 8.1507015 -8.592392 88 95 98
47.46817 8.0453768 -8.5411339 107 96 92
47.725288 8.0563431 -8.5491743 136 129 125
47.878994 8.0580273 -8.4605913 111 112 109
48.122429 8.0267715 -8.5002384 114 113 115
48.27494 8.1282167 -8.5608072 129 140 138
48.518574 8.0837889 -8.4911871 143 148 154
48.727676 8.0735397 -8.5060368 107 119 120
48.859863 8.1076593 -8.4781609 116 129 131
49.110382 8.105588 -8.5023317 107 125 118
49.294273 8.1248398 -8.4678917 107 120 116
49.504837 8.0736399 -8.4866829 133 142 136
49.690624 8.044219 -8.5067091 118 133 125
49.903793 8.0810108 -8.5377731 117 131 123
50.128349 8.1181078 -8.4593372 92 99 100
50.320602 8.0985394 -8.4693317 95 107 107
50.468891 8.0846281 -8.4558449 103 110 113
50.684753 8.1396542 -8.5361824 134 135 131
50.862415 8.0778666 -8.4405317 114 116 107
51.104652 8.1065998 -8.4564457 120 124 119
51.259697 8.0822668 -8.5015526 126 134 128
51.471119 8.049696 -8.4746113 113 121 113
51.722557 8.1323757 -8.5253515 117 124 120
51.866058 8.1407356 -8.5206041 112 115 108
52.099133 8.1069098 -8.5674133 106 107 97
52.359806 8.1140471 -8.5567646 146 139 140
52.4818 8.1595116 -8.521678 116 112 120
52.717888 8.0430546 -8.4742661 117 114 112
52.905266 8.076601 -8.4537754 105 103 108
53.066109 8.1052914 -8.5335436 155 146 153
53.306004 8.0974874 -8.5549192 116 115 121
53.549088 8.1248846 -8.4649801 114 112 115
53.696999 8.0783863 -8.4234543 124 119 121
53.889797 8.0435143 -8.4380341 129 125 128
54.042267 8.1130676 -8.4053612 142 142 140
54.295826 8.1790543 -8.5521326 153 147 147
41.535175 8.3723392 -8.5030966 116 96 138
41.726059 8.2616386 -8.5350056 116 108 121
41.93993 8.2402859 -8.5672503 151 132 147
42.058197 8.3303003 -8.5746698 102 95 109
42.368095 8.3331356 -8.5465422 138 121 163
42.419949 8.3641214 -8.5774403 117 100 139
42.686172 8.3046618 -8.5810957 121 112 137
42.916931 8.2559137 -8.5293274 118 113 134
43.098427 8.3014545 -8.5771723 96 86 102
43.297371 8.2022533 -8.4949541 55 54 52
43.751228 8.3458385 -8.4778652 158 136 141
43.893543 8.2698421 -8.5691919 113 99 103
44.081146 8.2644835 -8.4787149 143 113 130
44.315563 8.292594 -8.5520573 148 129 135
44.53212 8.3041525 -8.5615826 171 146 164
44.618645 8.3715897 -8.5751648 171 149 153
45.524132 8.2474422 -8.5569382 128 106 105
45.772301 8.3267565 -8.484086 110 106 113
45.849354 8.3323946 -8.5392923 167 156 170
46.091053 8.2961254 -8.521389 108 106 104
46.386921 8.3200235 -8.4922733 91 89 85
46.576088 8.3779259 -8.4965267 123 118 122
46.761459 8.2797966 -8.5145626 90 87 93
46.938118 8.300806 -8.5570869 151 146 150
47.069077 8.3220272 -8.5640507 120 127 122
47.302128 8.3225288 -8.533989 97 108 102
47.513298 8.3555241 -8.5464458 107 127 111
47.695454 8.311244 -8.5651808 103 116 107
47.934685 8.2945671 -8.5365543 137 135 129
48.114361 8.271327 -8.539403 139 139 138
48.324047 8.2796946 -8.5095844 149 153 162
48.488625 8.3441925 -8.5137987 169 161 168
48.672535 8.2741585 -8.4908543 138 138 146
48.908714 8.242321 -8.4908905 137 138 143
49.122196 8.3208284 -8.4918909 113 122 118
49.330029 8.2554007 -8.4508562 130 136 131
49.561356 8.2969475 -8.4399223 139 154 136
49.699844 8.2793293 -8.4724751 129 141 120
49.938381 8.2792883 -8.479187 148 152 150
50.332958 8.3325224 -8.5008354 110 120 116
50.474499 8.3205175 -8.4380293 111 109 114
50.663673 8.2915697 -8.5083752 127 127 132
50.91671 8.239543 -8.560194 127 123 123
51.070084 8.280592 -8.4767876 150 146 144
51.31123 8.3196135 -8.4837456 114 117 110
51.483368 8.3670959 -8.4939232 134 138 129
51.724621 8.2821789 -8.4990129 117 110 108
51.885002 8.2254629 -8.495697 117 121 115
52.336216 8.3460827 -8.5348988 109 112 112
52.463215 8.3161926 -8.4859571 117 116 118
52.674854 8.2744541 -8.5016022 114 111 108
52.87228 8.2927418 -8.5237236 86 89 91
53.083748 8.3443327 -8.5299225 91 91 92
53.391209 8.3734369 -8.530755 137 134 140
53.739002 8.3297958 -8.4586849 152 151 144
53.891891 8.3001394 -8.4841766 129 129 126
54.381062 8.2667074 -8.5124388 134 130 121
41.482018 8.550787 -8.5200405 120 98 147
41.735977 8.551384 -8.549778 106 94 121
41.954376 8.5027704 -8.5442772 114 96 122
42.347881 8.4435596 -8.5726233 80 69 99
42.485329 8.5144806 -8.4655876 113 113 121
42.769241 8.4990082 -8.5224743 91 90 101
42.925091 8.580533 -8.566082 137 128 146
43.092712 8.5220356 -8.536972 143 140 155
43.257385 8.5460129 -8.5834141 114 106 124
43.517162 8.521698 -8.4972553 94 78 89
43.708778 8.4688835 -8.5811043 121 107 111
43.893791 8.5244122 -8.4802036 121 105 115
44.167568 8.4294004 -8.4527216 170 155 147
44.359138 8.46418 -8.5614796 164 133 150
44.488937 8.4294758 -8.5376234 160 130 144
44.609741 8.4503765 -8.5536404 165 149 155
45.76334 8.5308418 -8.541151 148 136 163
45.876144 8.4827747 -8.5427408 152 139 167
46.558418 8.529542 -8.5141926 145 131 143
46.698009 8.5220804 -8.5326633 104 106 100
46.932343 8.5083675 -8.5207787 128 130 134
47.053246 8.4886093 -8.5220299 139 146 150
47.266186 8.4800062 -8.4861937 114 134 118
47.524345 8.4412041 -8.5070591 101 115 102
47.600128 8.4415846 -8.5120115 117 128 117
47.919216 8.5550413 -8.5835352 95 107 100
48.134399 8.4957256 -8.5440311 124 138 133
48.268841 8.5011902 -8.5299559 140 146 146
48.51796 8.5763893 -8.5741253 135 150 142
48.684574 8.5158682 -8.4662704 115 128 126
48.884968 8.4891472 -8.467802 139 142 145
49.06514 8.5416975 -8.4944382 110 129 119
49.308605 8.5050058 -8.4798298 120 138 124
49.460388 8.5407095 -8.5259552 113 124 115
49.682858 8.5632353 -8.4935122 156 154 153
49.891235 8.5563984 -8.4830074 103 111 107
50.171249 8.5046692 -8.5746107 121 119 126
50.264969 8.4448528 -8.4566231 123 128 123
50.467068 8.4703865 -8.5229912 107 114 115
50.722321 8.4964132 -8.5787163 138 134 138
50.873581 8.5444155 -8.5511723 97 97 90
51.096542 8.5550766 -8.4489174 137 133 123
51.255795 8.5133514 -8.5747252 121 118 109
51.551422 8.4210072 -8.5653639 114 113 109
51.760887 8.5960417 -8.423173 115 116 110
51.880878 8.5350266 -8.4748192 106 112 108
52.139038 8.5268803 -8.4797726 107 110 105
52.262047 8.505023 -8.5289192 116 122 115
52.498596 8.4713535 -8.4713573 117 119 114
52.729012 8.4879189 -8.4466648 118 117 111
52.908264 8.4886627 -8.4793568 151 141 136
53.164101 8.5096941 -8.4709873 142 129 134
53.431705 8.4218369 -8.4642401 147 135 143
41.314625 8.7357845 -8.4546175 116 95 133
41.463131 8.7078552 -8.5112715 109 93 127
41.705807 8.7413635 -8.4864378 102 86 122
41.901772 8.7301559 -8.5524616 92 86 107
42.372883 8.6009226 -8.5645123 109 106 112
42.521606 8.7251339 -8.5227718 109 107 118
42.691162 8.669384 -8.557662 106 110 113
42.876396 8.7576694 -8.5609226 110 101 115
43.058418 8.6914797 -8.5833693 124 114 128
43.304893 8.765789 -8.5484676 143 124 141
43.539673 8.7377119 -8.5687141 156 132 136
43.728012 8.7090178 -8.5651398 170 154 160
43.873741 8.7414837 -8.5722599 173 152 150
44.351204 8.6914625 -8.561553 159 149 153
44.452911 8.6882153 -8.5871372 143 131 132
45.395576 8.614768 -8.5850296 242 224 240
45.590302 8.6594048 -8.5026464 105 99 108
45.655388 8.6815357 -8.5733843 171 141 164
45.875061 8.6579418 -8.5749435 155 134 176
46.288971 8.7189236 -8.5714922 111 91 103
46.446732 8.6501846 -8.5172863 121 114 113
46.667137 8.6602669 -8.5372152 116 115 116
46.911976 8.6222315 -8.5629606 169 164 179
47.112499 8.7579422 -8.5025425 152 165 162
47.25877 8.6833553 -8.5807362 123 121 123
47.919308 8.6962547 -8.5638304 110 103 103
48.095722 8.7357731 -8.5231609 157 163 154
48.333908 8.7313805 -8.5175686 139 136 135
48.502735 8.7048044 -8.4872732 122 141 125
48.704132 8.7602482 -8.4744482 159 156 155
48.908455 8.6692972 -8.4720879 104 113 106
49.131054 8.7043362 -8.4316511 101 116 105
49.344196 8.673665 -8.4705143 134 141 132
49.473728 8.6968956 -8.4896984 134 144 137
49.726673 8.7369251 -8.4842777 170 164 169
49.936836 8.752552 -8.5052452 129 122 123
50.104736 8.7317867 -8.5217161 115 118 116
50.325695 8.6423702 -8.4815426 126 125 125
50.463341 8.6987762 -8.5399818 125 126 122
50.697765 8.6800747 -8.5021 119 122 119
50.912163 8.7243042 -8.520237 147 143 134
51.11829 8.6428795 -8.4886513 131 125 115
51.24509 8.6651325 -8.5377769 146 139 123
51.530388 8.7232714 -8.5633068 103 103 98
51.637062 8.7696905 -8.4568501 136 134 131
51.863659 8.6893845 -8.5243559 86 94 83
52.118698 8.6920033 -8.5556183 125 114 117
52.247589 8.7263126 -8.4869766 108 108 108
52.460617 8.6579971 -8.4957047 138 132 134
52.695927 8.6501474 -8.5268774 117 112 113
52.813885 8.6271782 -8.5536232 131 118 128
40.967674 8.964735 -8.4274731 81 83 95
41.098122 8.816988 -8.4238243 84 80 88
41.263588 8.9111586 -8.5072622 95 84 109
41.482597 8.8857403 -8.5455313 111 95 139
41.704681 8.8038683 -8.5207863 117 98 143
41.829334 8.9293299 -8.505805 67 66 74
42.327118 8.8821754 -8.5366554 108 107 111
42.423042 8.906414 -8.4956417 86 92 92
42.660172 8.8301954 -8.5021772 96 93 92
42.886154 8.9104786 -8.5494242 116 106 111
43.168835 8.9582644 -8.5499763 119 105 106
43.276554 8.9235077 -8.5319605 108 87 92
43.46138 8.924943 -8.5684681 167 146 144
43.674866 8.8442478 -8.5712357 149 134 127
43.948471 8.8421097 -8.5684147 102 88 90
45.708168 8.8607063 -8.5785408 156 139 167
45.896873 8.9241037 -8.5416689 148 126 151
46.112949 8.9331741 -8.4927711 118 94 146
46.319321 8.8482676 -8.5776873 148 123 132
46.43174 8.8315697 -8.5661955 172 159 163
46.755119 8.8461876 -8.5386391 116 117 126
46.910828 8.8306837 -8.5115414 166 176 163
47.071613 8.9036779 -8.5529842 138 145 138
47.285946 8.9537163 -8.4688339 103 108 105
47.939575 8.8786898 -8.5181732 153 151 149
48.114967 8.9032726 -8.5074139 143 147 138
48.335873 8.9632397 -8.4730606 139 142 134
48.50153 8.8994627 -8.485445 115 119 111
48.744473 8.8602333 -8.5064144 127 133 123
48.895767 8.9013519 -8.437459 103 113 104
49.074615 8.8766155 -8.486784 119 127 122
49.308472 8.906909 -8.4801188 102 104 99
49.443966 8.869771 -8.5227242 132 124 126
49.686413 8.9027338 -8.476284 145 146 144
49.934345 8.9123001 -8.5010672 165 149 157
50.121708 8.9101686 -8.5348883 154 152 156
50.274124 8.8810978 -8.5023365 141 139 142
50.536942 8.8378391 -8.475565 130 126 127
50.683384 8.9480019 -8.5394869 121 116 111
50.862312 8.8501949 -8.4976921 145 136 133
51.071167 8.8600674 -8.5067825 132 120 121
51.307846 8.8435526 -8.5010557 127 118 117
51.518032 8.8922615 -8.5673838 142 129 125
51.676109 8.8391981 -8.5446825 144 137 138
51.900921 8.8759689 -8.5272303 175 157 155
52.130184 8.9166222 -8.5174093 111 117 108
52.279984 8.841713 -8.5013628 125 125 121
52.532104 8.8693295 -8.4195175 120 123 122
52.677986 8.8293724 -8.534977 135 110 117
53.097839 8.9521084 -8.5015011 148 143 150
41.162434 9.022274 -8.5490007 102 105 120
41.332447 9.1091661 -8.5167093 94 95 116
41.498894 9.1322699 -8.5678587 95 94 111
41.733528 9.1529789 -8.5368462 90 83 107
41.926613 9.1867352 -8.5464315 152 129 189
42.096561 9.1252785 -8.5523224 149 135 167
42.244095 9.1046753 -8.4985466 109 99 119
42.480373 9.1606417 -8.5576077 121 107 129
42.905556 9.0485897 -8.5702019 96 91 90
43.080338 9.0759907 -8.5511732 112 100 101
43.288906 9.1536064 -8.5525303 128 121 117
43.497906 9.1321497 -8.5633907 176 155 150
43.65007 9.1307011 -8.5875101 174 156 147
45.843922 9.0143375 -8.4827881 150 122 171
46.154671 9.03368 -8.5154552 130 116 147
46.27158 9.0416012 -8.5890312 143 145 139
46.542683 9.0906496 -8.5486002 101 102 97
46.719604 9.079175 -8.5926228 96 101 104
47.926693 9.0620327 -8.5319786 117 130 128
48.167908 9.094739 -8.4816704 141 139 143
48.247276 9.1235352 -8.5027971 142 143 145
48.462067 9.0828695 -8.5014181 146 134 137
48.646164 9.0412149 -8.5338955 94 86 85
48.927048 9.1014519 -8.4689894 147 153 138
49.133156 9.0781155 -8.4607601 123 122 117
49.289398 9.0378685 -8.5327311 127 119 116
49.470081 9.1451969 -8.489172 141 139 138
49.7682 9.1791945 -8.5317841 145 154 138
49.893311 9.1253109 -8.4725723 118 125 118
50.117783 9.1171017 -8.4879436 143 138 137
50.35796 9.0773153 -8.5225067 142 142 137
50.483643 9.0707788 -8.5602207 123 125 120
50.695332 9.0618629 -8.4779902 135 134 132
50.851738 9.1204262 -8.5667953 125 127 128
51.065392 9.1171112 -8.5270643 89 101 90
51.316048 9.1133137 -8.5631676 90 102 91
51.505711 9.0887365 -8.5213013 123 127 128
51.693657 9.1386976 -8.4837942 167 161 163
51.831127 9.1328154 -8.4972525 138 139 139
52.055214 9.1464958 -8.4952679 149 139 147
52.306168 9.0963039 -8.5227165 139 139 130
52.523193 9.1843948 -8.5099468 135 123 115
52.861313 9.1188469 -8.5131569 121 124 122
53.239109 9.0877771 -8.4408846 121 107 114
40.894241 9.3721619 -8.4197712 80 82 94
41.132534 9.3306494 -8.4509029 91 82 116
41.309036 9.2866745 -8.5220222 91 90 111
41.509136 9.3097754 -8.5251818 88 82 100
41.735382 9.270647 -8.4678822 113 97 141
41.898972 9.2588482 -8.5278177 113 96 140
42.116631 9.2971249 -8.5588894 131 129 153
42.30938 9.3599949 -8.5111837 131 131 156
42.488232 9.3134871 -8.5335398 130 119 141
42.645138 9.3271399 -8.4933043 118 109 129
42.966969 9.3544464 -8.591053 95 88 96
43.109741 9.3203049 -8.5504894 95 90 91
43.325397 9.3162994 -8.5854187 127 108 109
43.459351 9.2679033 -8.5546608 173 154 161
43.615086 9.2591858 -8.5938873 110 95 100
46.365078 9.2725916 -8.5947247 167 152 149
47.963409 9.359169 -8.486927 142 138 140
48.180531 9.2089958 -8.4877729 124 120 122
48.296806 9.3008862 -8.5548353 139 135 137
48.562973 9.3616352 -8.4959097 150 167 159
48.729839 9.3377581 -8.4930267 128 128 120
48.918266 9.3038225 -8.5097704 155 154 131
49.04966 9.3212967 -8.5389786 134 134 121
49.261642 9.3030109 -8.5183315 148 141 133
49.456947 9.3590689 -8.4826698 153 161 150
49.685165 9.2513514 -8.5820217 128 122 117
49.848717 9.2409534 -8.5741701 143 155 141
50.06469 9.2487946 -8.555418 143 138 139
50.370636 9.2278767 -8.5487709 115 118 119
50.453979 9.2526598 -8.5004158 122 121 122
50.735882 9.2850866 -8.4832754 145 142 144
50.878929 9.3680582 -8.5255966 151 146 147
51.082939 9.3434258 -8.4926109 148 151 156
51.279343 9.314167 -8.4879332 133 138 139
51.447033 9.3116436 -8.4903965 144 137 136
51.641964 9.3096342 -8.516408 128 129 123
51.845448 9.2233601 -8.478548 123 123 118
52.119373 9.2607441 -8.4542713 145 138 141
52.267971 9.2370071 -8.5299082 206 191 194
52.967342 9.2906532 -8.4494944 135 134 136
53.325817 9.2492256 -8.5130138 124 119 129
53.524498 9.2911425 -8.5594788 199 188 205
40.773243 9.4983568 -8.4640923 85 85 100
40.979897 9.5041361 -8.4766121 94 91 115
41.09816 9.5789471 -8.4524755 92 85 112
41.314316 9.5045643 -8.4573784 107 94 139
41.469181 9.4519491 -8.4749174 90 86 110
41.692165 9.4866285 -8.5130692 114 105 138
41.917728 9.5069714 -8.5033207 112 97 140
42.135456 9.485837 -8.4712648 110 106 128
42.284428 9.5052195 -8.4759979 119 118 141
42.493469 9.5297241 -8.5101547 120 113 132
42.690308 9.4935913 -8.4961472 125 120 136
42.831436 9.4663057 -8.5007114 107 104 109
43.15815 9.4583912 -8.5663309 108 106 106
43.360123 9.4581757 -8.5684929 152 138 132
43.774891 9.5082684 -8.5704842 168 147 142
47.314499 9.4924374 -8.5135174 137 137 139
47.526882 9.5434513 -8.521122 123 122 127
47.671669 9.5729122 -8.5309258 85 88 89
47.943462 9.4672308 -8.5409737 139 133 132
48.115875 9.5451355 -8.5457878 127 114 116
48.314583 9.4814234 -8.499197 123 137 126
48.477467 9.5400038 -8.5173187 134 150 128
48.701023 9.4602089 -8.5210295 135 149 133
48.852013 9.4620228 -8.5559807 161 157 147
49.096558 9.4905605 -8.5598507 156 152 146
49.363197 9.480176 -8.5172644 164 158 155
49.502899 9.4440775 -8.5272436 150 144 144
49.687576 9.4963484 -8.5193262 139 135 137
49.863728 9.484004 -8.5683746 138 129 132
50.147881 9.5555687 -8.4595928 159 155 170
50.296448 9.5727997 -8.4930344 160 160 172
50.504715 9.5240316 -8.5415154 137 139 143
50.646454 9.4638805 -8.5658274 138 132 140
50.917156 9.4879608 -8.5100231 134 128 132
51.093353 9.4749269 -8.464551 162 160 166
51.293171 9.4826307 -8.428442 152 149 156
51.552067 9.5315876 -8.4777784 130 128 128
51.697823 9.5188923 -8.5272274 128 125 124
51.900604 9.5118542 -8.5361671 89 94 86
52.185833 9.4530096 -8.4754982 139 136 131
52.526978 9.5109415 -8.4763117 166 163 156
52.684803 9.5757484 -8.5118113 147 152 139
40.722099 9.7731085 -8.4255686 91 84 118
40.943832 9.7093353 -8.462616 84 85 100
41.29612 9.6418877 -8.4193726 101 90 125
41.513268 9.6791439 -8.4979277 95 86 126
41.67794 9.6935081 -8.4997158 126 113 156
41.870132 9.7458458 -8.5243263 141 122 179
42.081261 9.6865597 -8.5228882 110 106 143
42.263947 9.7386074 -8.5506077 118 114 138
42.488487 9.6724052 -8.5820084 115 111 127
42.69846 9.6635246 -8.5723171 115 114 132
43.094383 9.7534904 -8.5824556 78 77 72
43.314323 9.762805 -8.5739965 130 106 114
43.475784 9.7790918 -8.569706 167 128 139
47.383888 9.6315069 -8.5157938 166 155 163
47.552292 9.7313805 -8.5129366 109 106 110
47.733803 9.7603893 -8.4781885 120 134 124
47.872665 9.6802444 -8.5502052 155 145 137
48.1008 9.6509981 -8.4771194 145 149 149
48.282513 9.6752253 -8.5100632 175 165 164
48.502041 9.6518478 -8.533493 124 133 117
48.640289 9.7217836 -8.5443077 149 157 137
48.899616 9.7163563 -8.5479393 161 165 147
49.116753 9.7786627 -8.5547972 156 160 152
49.222343 9.7484226 -8.5468731 167 168 161
49.463161 9.7350073 -8.5857162 154 141 147
49.699226 9.6909657 -8.5121813 148 146 162
49.924923 9.7221107 -8.4751959 153 152 168
50.092712 9.6956053 -8.5518456 150 151 163
50.248581 9.7110291 -8.5348873 135 133 137
50.50943 9.7138195 -8.4770508 202 181 203
50.709846 9.726265 -8.5208969 146 138 136
50.922039 9.6935387 -8.4749737 93 96 101
51.161503 9.633522 -8.5054359 127 126 122
51.237019 9.6883411 -8.4513397 128 125 121
51.456238 9.6641178 -8.4784794 151 144 150
51.716141 9.6778164 -8.468936 130 126 134
51.916199 9.7228794 -8.5927563 125 124 133
52.105274 9.6231565 -8.5527105 129 120 113
52.574768 9.7113838 -8.4558249 144 139 128
52.662796 9.653492 -8.5374317 133 132 130
52.86414 9.7255449 -8.4084339 106 110 114
53.04063 9.7886505 -8.5230742 122 122 132
40.008236 9.9699831 -8.4306068 66 67 86
40.659149 9.9082899 -8.4722271 85 74 114
40.900249 9.8952742 -8.5431204 96 84 127
41.105701 9.904232 -8.4682026 96 87 127
41.31778 9.8695564 -8.5562277 121 113 148
41.51482 9.8994341 -8.4797421 143 120 172
41.763996 9.9095364 -8.5011501 125 110 158
41.837685 9.8415747 -8.5144053 126 114 162
42.100689 9.8803778 -8.5393381 115 107 141
42.289124 9.9323921 -8.5593433 126 116 149
42.426094 9.8189602 -8.5302486 83 80 92
43.1064 9.8991146 -8.5716734 54 61 46
43.378471 9.8490047 -8.5477028 104 88 89
43.541611 9.8427505 -8.4868355 118 99 96
44.69379 9.946969 -8.5816784 127 113 120
47.211765 9.9260883 -8.598587 172 165 157
47.533806 9.9037342 -8.5976458 168 178 169
47.734211 9.8800478 -8.5282173 132 146 139
47.87096 9.8955374 -8.4929523 153 161 157
48.093704 9.908556 -8.4450207 146 148 144
48.242546 9.885294 -8.4775829 133 142 137
48.545284 9.9168367 -8.5314455 158 164 147
48.647545 9.8896675 -8.494132 141 145 132
48.835373 9.8725338 -8.5167904 137 140 124
49.155304 9.9460955 -8.5501947 138 136 129
49.321693 9.925478 -8.5495625 168 170 161
49.542831 9.9259329 -8.5079136 157 147 152
49.661846 9.8620043 -8.5077591 133 138 141
49.895889 9.8754072 -8.5329361 151 148 156
50.036625 9.9076786 -8.4874945 186 168 174
50.324085 9.9091644 -8.4743156 134 135 128
50.545807 9.8376818 -8.4598618 173 167 174
50.673607 9.8731289 -8.5148573 176 160 176
50.877228 9.9102945 -8.4362755 166 164 160
51.087212 9.878746 -8.5232277 145 144 139
51.288628 9.866869 -8.4340038 155 151 143
51.49408 9.9239559 -8.5050859 152 139 139
51.664478 9.8683691 -8.5543785 141 127 132
51.905128 9.8653889 -8.5271044 122 111 115
52.717064 9.8985949 -8.5019093 119 118 108
52.826496 9.9649429 -8.5185795 124 124 119
39.762592 10.177918 -8.4931393 88 91 93
39.827271 10.100096 -8.5056667 100 96 119
40.339439 10.142866 -8.5211992 87 86 103
40.507832 10.110358 -8.4432154 101 95 121
40.708618 10.025568 -8.4819603 98 87 126
40.938229 10.076098 -8.4675283 96 91 121
41.11137 10.122857 -8.5373917 105 100 122
41.316093 10.150543 -8.5624523 115 112 134
41.475693 10.061524 -8.5574512 121 106 150
41.643349 10.118187 -8.5299606 131 114 168
41.865448 10.071661 -8.5380764 128 113 162
42.118805 10.09474 -8.5538263 130 114 160
42.28083 10.100866 -8.5430794 135 118 160
42.420094 10.119534 -8.5670109 78 87 86
43.236122 10.017426 -8.5812244 65 62 55
43.969105 10.140712 -8.5984917 132 121 125
47.301613 10.176582 -8.5217733 121 127 124
47.568329 10.143649 -8.5259476 160 147 138
47.76421 10.124986 -8.5076447 152 149 154
47.935188 10.136038 -8.506216 117 119 113
48.113693 10.095116 -8.5246344 188 195 185
48.302582 10.106838 -8.5379276 151 158 149
48.47842 10.121486 -8.4695873 108 115 102
48.719391 10.065582 -8.5384226 158 157 145
48.901672 10.057899 -8.5112991 130 126 122
49.140568 10.048145 -8.5162573 183 168 172
49.317802 10.068075 -8.5089769 147 138 139
49.500164 10.052117 -8.4848776 159 161 166
49.697769 10.101794 -8.4869213 154 144 159
49.875927 10.108836 -8.534709 176 159 169
50.055779 10.090385 -8.5458021 173 154 153
50.317471 10.133316 -8.4590721 164 150 149
50.455978 10.14702 -8.5129423 157 152 148
50.74287 10.079041 -8.487133 156 155 148
50.848389 10.151886 -8.4950523 140 135 140
51.116783 10.087213 -8.4309254 80 96 86
51.27037 10.045932 -8.4772139 74 95 85
51.458126 10.045159 -8.5170813 100 106 102
51.67033 10.070992 -8.4617424 147 144 143
51.955826 10.19804 -8.46558 154 156 153
52.049156 10.106185 -8.4528236 159 153 148
52.27914 10.096102 -8.4518614 145 132 132
52.432533 10.195834 -8.4610233 131 128 122
52.691078 10.074164 -8.5040798 145 136 136
39.485172 10.383644 -8.5986958 144 156 150
39.901867 10.273694 -8.4603796 72 82 81
40.136063 10.311997 -8.5162888 75 82 91
40.256203 10.303106 -8.565402 74 84 89
40.485443 10.28666 -8.5147429 78 76 103
40.717896 10.32401 -8.4396458 93 81 116
40.929428 10.280962 -8.523489 109 102 137
41.14566 10.339645 -8.5316648 121 119 147
41.311172 10.331924 -8.539362 119 109 153
41.530792 10.298682 -8.5688066 125 115 161
41.721672 10.260885 -8.5478382 119 107 146
41.861923 10.276427 -8.5670795 94 87 119
42.096039 10.272881 -8.5590086 128 105 168
42.260376 10.29059 -8.5649166 111 110 125
42.706928 10.357408 -8.5726795 93 94 89
43.138927 10.396952 -8.5435486 95 93 94
43.970993 10.333267 -8.5944729 158 153 142
44.00391 10.206376 -8.5484314 194 166 165
44.614445 10.211001 -8.5969009 122 102 111
46.790234 10.391798 -8.5306702 175 191 190
47.281044 10.26889 -8.5830545 159 153 157
47.461124 10.343681 -8.5184536 94 100 97
47.724174 10.32313 -8.5360317 139 135 137
47.933701 10.268368 -8.4772816 162 167 149
48.070854 10.336435 -8.4426498 134 128 122
48.320717 10.31575 -8.5513973 149 150 142
48.552246 10.276235 -8.5456104 134 134 123
48.728394 10.327105 -8.4654655 158 159 152
48.869022 10.331868 -8.5341711 154 143 143
49.099056 10.373087 -8.5459251 104 116 113
49.336208 10.230669 -8.5372028 166 154 158
49.534042 10.249014 -8.4855709 157 155 151
49.664406 10.279888 -8.5362387 158 147 150
49.956226 10.348284 -8.4861259 146 148 139
50.11129 10.347178 -8.505537 157 152 152
50.256817 10.29863 -8.4801388 174 155 158
50.448891 10.309393 -8.5087156 182 166 162
50.676823 10.234156 -8.5283737 166 168 165
50.938175 10.316534 -8.477416 165 163 157
51.060833 10.337805 -8.5096893 137 137 134
51.264572 10.22613 -8.5005322 145 142 141
51.523811 10.21591 -8.5950642 117 125 114
52.376656 10.313269 -8.5086164 159 145 149
52.588749 10.201323 -8.5395718 185 179 167
39.728092 10.523774 -8.5089464 77 89 86
39.904293 10.531727 -8.5702724 85 94 102
40.027729 10.45384 -8.5258541 83 84 98
40.335094 10.489314 -8.5529709 95 104 102
40.559261 10.478485 -8.4878464 77 83 89
40.610073 10.43047 -8.4391651 83 86 100
40.890244 10.478335 -8.5624199 102 94 128
41.140602 10.442941 -8.5355015 111 109 135
41.311672 10.517373 -8.5523386 97 86 123
41.458321 10.516634 -8.584816 143 136 166
41.677341 10.480438 -8.567503 88 87 105
41.893272 10.49092 -8.5249615 87 84 103
42.050941 10.461456 -8.5409756 105 97 122
42.260014 10.533974 -8.5878906 87 89 88
42.548828 10.49794 -8.5618706 91 89 102
42.732037 10.516377 -8.5752821 151 141 164
43.03513 10.479858 -8.5707111 103 97 104
46.751614 10.513749 -8.5236626 145 151 146
46.802658 10.541712 -8.5352736 100 108 97
47.171101 10.533113 -8.5500546 117 106 111
47.280224 10.466243 -8.5833721 144 136 139
47.52306 10.476048 -8.5111237 156 164 161
47.691383 10.546073 -8.5679398 131 132 127
47.871864 10.473644 -8.5434284 153 169 155
48.113747 10.493078 -8.532732 154 150 138
48.339443 10.450848 -8.5334454 148 131 122
48.456242 10.499569 -8.4909115 169 159 157
48.688778 10.464867 -8.5731201 154 152 139
48.889732 10.549063 -8.4998293 167 164 161
49.087246 10.571547 -8.5113993 169 172 177
49.258541 10.552008 -8.4583092 140 143 137
49.459633 10.460826 -8.4785023 111 124 118
49.685181 10.455481 -8.5249281 154 141 129
49.879719 10.462418 -8.4696026 155 151 144
50.091019 10.415823 -8.5038891 152 150 148
50.326862 10.485578 -8.4844866 152 140 136
50.448982 10.482777 -8.557333 147 140 138
50.624844 10.527703 -8.5345812 152 143 138
50.854485 10.454641 -8.5319147 173 162 159
51.057102 10.56517 -8.509099 89 101 95
51.234535 10.565553 -8.5874815 128 122 121
52.404823 10.410171 -8.4502563 148 122 135
39.374702 10.726536 -8.5156536 99 115 103
39.506058 10.682091 -8.5099306 91 106 100
39.703873 10.647221 -8.5014935 75 92 93
39.893139 10.660048 -8.5649443 69 82 84
40.27401 10.699953 -8.5708418 75 81 82
40.476128 10.66717 -8.5458565 93 96 109
40.738182 10.628777 -8.5159359 86 91 103
40.930061 10.66289 -8.5708332 92 91 101
41.10788 10.687332 -8.5074291 94 94 108
41.304123 10.724607 -8.5165844 103 100 131
41.536903 10.732445 -8.5647974 137 128 171
41.736301 10.741473 -8.4818497 147 150 157
41.857689 10.69589 -8.5465107 140 135 149
42.062744 10.729595 -8.5608377 97 90 103
42.311882 10.762428 -8.540637 86 80 87
42.489986 10.710758 -8.5786419 124 121 133
42.632236 10.659595 -8.5478344 144 129 164
42.965172 10.721104 -8.5419521 144 125 160
43.14193 10.749104 -8.5701675 132 115 155
43.245331 10.723473 -8.5856152 143 128 166
44.986382 10.766724 -8.5408726 121 102 125
45.344139 10.756418 -8.5925875 83 73 81
45.454819 10.765319 -8.5748777 132 121 119
46.763733 10.733079 -8.5211449 142 145 146
46.894573 10.752792 -8.5582237 143 143 143
47.090244 10.786165 -8.4948635 107 105 106
47.750149 10.745071 -8.4927893 164 149 141
47.934597 10.734234 -8.5319986 175 166 160
48.092365 10.716214 -8.4707489 171 147 145
48.267941 10.674553 -8.5664568 174 164 154
48.530151 10.644089 -8.5651693 174 164 160
48.686337 10.690119 -8.5262671 191 181 171
48.967724 10.638996 -8.5048008 140 131 135
49.066051 10.707985 -8.5166311 169 169 169
49.350883 10.715568 -8.5143757 136 131 128
49.455185 10.749054 -8.5440454 143 130 121
49.693516 10.666087 -8.489315 146 132 126
49.902771 10.734662 -8.5055037 149 138 135
50.123466 10.740292 -8.4977036 147 135 130
50.287361 10.71728 -8.5099678 161 154 146
50.529297 10.658216 -8.5705242 152 141 135
50.716496 10.6532 -8.4875698 134 132 125
50.891991 10.717834 -8.4919481 154 142 141
51.606113 10.684647 -8.5980988 140 124 127
39.321266 10.887243 -8.5891275 62 76 77
39.485069 10.838324 -8.5681229 76 91 86
39.702866 10.881043 -8.5872593 72 86 90
40.006653 10.807502 -8.5927649 72 84 75
40.532799 10.972906 -8.5806389 97 107 108
40.759766 10.906206 -8.5080843 81 87 99
40.867439 10.95739 -8.4834251 105 109 124
41.096085 10.923985 -8.5448618 94 95 109
41.318001 10.920959 -8.5574493 118 112 133
41.515572 10.908485 -8.5693932 146 142 160
41.706623 10.924442 -8.5432749 126 120 141
41.8535 10.933104 -8.5316191 157 144 180
42.060181 10.893427 -8.5606689 137 142 138
42.295105 10.891502 -8.4950867 93 85 89
42.486435 10.832154 -8.4947968 96 96 96
42.953388 10.872414 -8.5641975 145 117 169
43.138031 10.949991 -8.5604973 171 138 194
43.293365 10.867752 -8.5331573 140 123 163
43.478924 10.914682 -8.5507793 112 94 127
46.716217 10.833919 -8.5778627 179 179 175
46.866596 10.869351 -8.503891 150 147 148
47.184109 10.95056 -8.5558844 152 153 149
47.239899 10.948784 -8.4860888 196 191 189
47.735687 10.876345 -8.5320826 162 148 144
47.904198 10.879209 -8.5096846 196 195 186
48.055363 10.81179 -8.4661064 94 83 89
48.274616 10.871714 -8.4780445 174 161 151
48.524841 10.948443 -8.4825268 149 138 126
48.731365 10.86896 -8.4999065 191 171 170
48.903122 10.890248 -8.5085983 181 164 171
49.103104 10.926781 -8.5334778 151 147 157
49.352196 10.906524 -8.4659958 155 156 156
49.464569 10.903767 -8.4662685 119 117 108
49.682278 10.899523 -8.5247555 93 100 89
49.947529 10.875378 -8.4898911 134 121 115
50.053173 10.867295 -8.5186443 132 121 117
50.274685 10.842294 -8.5824661 178 157 156
50.442158 10.92301 -8.509285 90 103 90
50.725029 10.828608 -8.4939737 178 162 171
50.881531 10.940296 -8.5057049 188 168 184
51.010742 10.901199 -8.4895411 169 150 149
51.461895 10.990748 -8.4763927 230 216 230
51.794037 10.93778 -8.5060139 195 172 180
51.868778 10.918386 -8.5581961 166 165 161
52.147007 10.803282 -8.5301647 166 171 165
40.389023 11.098858 -8.4959602 80 94 97
40.518539 11.102086 -8.4599953 98 109 110
40.652847 11.085581 -8.5323839 90 102 101
40.901791 11.0474 -8.5729723 74 78 81
41.166672 11.103685 -8.4758682 105 104 124
41.342564 11.10767 -8.5337563 120 124 121
41.417904 11.12224 -8.5581264 127 132 127
41.714394 11.127437 -8.5317307 152 148 169
41.891937 11.040272 -8.565114 161 151 179
42.002552 11.011459 -8.5886602 90 88 100
42.787785 11.186669 -8.4063911 132 146 160
42.973457 11.064686 -8.568409 153 146 168
43.109051 11.09582 -8.547473 151 127 162
43.30603 11.047058 -8.5647411 135 122 144
43.445358 11.076105 -8.5500259 149 120 153
43.627472 11.038046 -8.4754066 92 89 87
46.688862 11.042398 -8.57798 179 164 159
47.181789 11.001311 -8.4764299 178 166 168
47.271523 11.090118 -8.5398598 176 177 171
47.773323 11.164366 -8.528986 161 151 146
47.858414 11.137331 -8.5248203 163 168 161
48.118965 11.137773 -8.4804773 119 122 111
48.310768 11.05008 -8.554657 181 171 164
48.458767 11.126719 -8.4855528 158 136 132
48.699852 11.138941 -8.5157356 152 143 134
48.944889 11.124632 -8.4816341 180 165 170
49.069458 11.076321 -8.4400368 174 162 167
49.280792 11.113472 -8.4829512 162 156 155
49.553024 11.126505 -8.5173397 131 133 128
49.702553 11.118272 -8.4790583 94 102 93
49.893227 11.045368 -8.5511351 134 131 126
50.104034 11.005819 -8.575531 112 124 121
50.838913 11.116236 -8.5639992 204 178 194
51.105553 11.190021 -8.4469795 173 156 149
51.390419 11.065751 -8.4242058 160 154 149
51.962685 11.048099 -8.559186 139 129 125
40.104076 11.375471 -8.5476017 116 127 136
40.30426 11.310329 -8.5275297 79 94 97
40.465878 11.386688 -8.5499783 82 90 79
40.881195 11.270511 -8.5369682 87 91 90
41.114662 11.311616 -8.5405073 93 94 93
41.330093 11.244124 -8.5415001 135 142 124
41.494141 11.252396 -8.5508766 76 75 87
41.706291 11.227855 -8.5499973 112 106 126
42.329041 11.370275 -8.5144081 112 100 106
42.424431 11.378669 -8.444006 140 145 145
42.767536 11.379084 -8.5233517 116 122 129
42.821613 11.272103 -8.5060186 167 173 176
43.072002 11.265578 -8.5974112 125 132 125
43.314568 11.24252 -8.5778008 107 95 107
43.471485 11.27714 -8.5322256 114 108 113
47.073349 11.335276 -8.5771637 199 194 200
47.219864 11.275389 -8.5918283 153 128 132
47.736153 11.326189 -8.5552711 160 143 140
47.894848 11.263081 -8.5221062 161 155 158
48.139874 11.326195 -8.4883041 178 171 167
48.263783 11.320155 -8.5116129 176 160 150
48.464592 11.302771 -8.4792786 162 159 148
48.680279 11.294197 -8.5315914 117 110 99
48.826965 11.305346 -8.4751101 164 162 150
49.097103 11.30205 -8.5322294 158 150 139
49.290283 11.299195 -8.4874773 163 158 155
49.507812 11.343636 -8.5419216 133 124 121
49.641422 11.318528 -8.5208673 154 141 140
49.8965 11.271436 -8.5337114 113 114 116
50.237076 11.243442 -8.5969696 82 88 76
50.746666 11.227287 -8.5993443 164 151 164
50.861076 11.287697 -8.4530182 132 124 122
51.21899 11.301004 -8.4604588 118 109 99
51.454414 11.274357 -8.5789299 173 165 156
39.382942 11.494585 -8.4656639 143 148 154
40.094307 11.523018 -8.5608892 80 87 89
40.31398 11.564367 -8.5846348 58 61 68
42.141647 11.476377 -8.5936451 117 116 116
42.365494 11.516121 -8.5590782 151 158 156
42.419567 11.514627 -8.4959831 168 164 163
42.746204 11.456623 -8.496026 123 127 132
42.829727 11.443535 -8.5272255 146 143 136
46.254509 11.561769 -8.5735216 112 102 98
47.044098 11.51996 -8.5497894 134 131 124
47.765038 11.545854 -8.4632454 179 162 161
47.862236 11.54022 -8.5219212 158 150 146
48.110947 11.523764 -8.482111 189 177 171
48.336792 11.545294 -8.5216894 138 124 123
48.471226 11.516461 -8.4537506 149 145 136
48.654594 11.467442 -8.5730877 144 135 134
48.909103 11.497972 -8.4653091 149 142 139
49.091209 11.494533 -8.5073252 186 179 172
49.300045 11.515457 -8.5485888 145 133 127
49.483402 11.462562 -8.4524603 175 163 162
49.712997 11.538071 -8.5333824 160 143 145
49.93211 11.507119 -8.5262432 130 134 129
50.165771 11.478354 -8.5785952 111 111 111
50.526154 11.486659 -8.5270977 206 183 187
50.659401 11.559016 -8.5017424 173 157 156
50.877571 11.49386 -8.4575367 140 130 132
51.349274 11.494893 -8.4193182 122 112 101
39.276398 11.713383 -8.4760675 94 105 95
39.471165 11.764256 -8.4514084 115 128 123
39.725658 11.718647 -8.5496502 114 122 122
39.920555 11.732155 -8.5030518 90 102 98
42.077042 11.692743 -8.5699253 138 136 138
42.359833 11.756823 -8.5743046 142 139 140
42.518673 11.719354 -8.5657825 115 120 119
42.694832 11.614592 -8.5325565 114 115 115
43.996662 11.764357 -8.5095329 135 128 131
44.00219 11.766414 -8.5111761 130 126 129
46.430565 11.656963 -8.5728531 168 144 144
47.759293 11.633798 -8.5298052 159 146 145
47.999367 11.636776 -8.596179 146 138 125
48.156288 11.713083 -8.4913082 158 148 147
48.331284 11.661619 -8.5041523 167 152 152
48.493519 11.69138 -8.5210648 159 149 141
48.668579 11.744267 -8.4882441 161 147 139
48.87524 11.669926 -8.4926071 154 141 139
49.033092 11.702014 -8.5203295 132 119 118
49.260448 11.71519 -8.5101089 174 159 150
49.509811 11.662946 -8.5310955 168 147 142
49.691422 11.728937 -8.5334339 161 148 144
49.909828 11.688144 -8.5593014 181 172 163
50.064365 11.706262 -8.5277252 119 114 106
50.360424 11.713814 -8.5998688 171 153 153
50.631161 11.72865 -8.4507446 160 139 144
50.884972 11.687592 -8.528121 167 157 162
38.681622 11.940823 -8.592968 93 110 100
38.939377 11.931216 -8.4641647 104 124 113
39.096397 11.914248 -8.5174694 98 114 101
39.282906 11.896872 -8.4959564 104 115 106
39.520996 11.848034 -8.5371819 99 109 113
39.783749 11.901575 -8.518959 93 107 92
39.899265 11.888692 -8.5733271 137 138 140
40.014126 11.821225 -8.5825338 139 141 144
42.145073 11.861218 -8.5459862 86 86 85
42.324097 11.935462 -8.5544596 149 149 145
42.447815 11.861685 -8.5392303 77 84 87
42.767578 11.981323 -8.5570126 95 91 93
42.835083 11.920672 -8.5577946 121 110 114
43.103104 11.965738 -8.5476589 107 104 107
43.253773 11.943241 -8.5194273 99 106 105
43.684803 11.941122 -8.4710331 116 109 115
43.89933 11.930148 -8.5404253 142 141 139
44.032917 11.882517 -8.5459938 146 142 140
44.672852 11.910517 -8.431076 111 113 108
45.585304 11.941087 -8.5111427 114 112 108
45.611679 11.909252 -8.5212536 115 117 113
46.130798 11.945752 -8.5966301 106 104 104
48.110409 11.948088 -8.5182753 174 157 161
48.250614 11.921894 -8.5684681 172 154 152
48.465157 11.919527 -8.5178299 134 121 113
48.734032 11.910994 -8.5218945 161 151 145
48.900299 11.883878 -8.5456982 151 140 134
49.044525 11.898967 -8.5835819 152 137 132
49.318802 11.849537 -8.5731125 167 150 144
49.515038 11.853013 -8.5753498 130 113 110
49.741447 11.882809 -8.5128269 185 167 162
49.884251 11.889075 -8.5103865 158 145 143
50.080376 11.883732 -8.5539494 170 159 153
50.30751 11.867887 -8.538908 184 172 165
50.70607 11.86402 -8.4469595 191 171 166
50.877068 11.948208 -8.512394 160 147 147
51.019043 11.910294 -8.5168304 180 172 173
38.893925 12.039631 -8.5115747 102 122 112
39.306087 12.065892 -8.5692167 109 121 121
39.794064 12.17365 -8.5698147 120 127 124
41.998974 12.127733 -8.540184 155 156 150
42.179951 12.113144 -8.5611944 163 159 147
42.248413 12.0812 -8.54916 142 140 136
42.476345 12.061006 -8.5461273 147 146 149
42.675468 12.010466 -8.5641823 158 149 158
42.943275 12.049067 -8.5184155 105 103 104
43.111275 12.061387 -8.5602875 138 134 136
43.241261 12.061255 -8.598177 131 129 130
43.527027 12.022058 -8.5791912 112 105 108
43.748276 12.054081 -8.5360966 98 96 95
43.837051 12.148516 -8.5738287 109 106 103
44.16481 12.057232 -8.5626659 131 129 117
44.284164 12.096089 -8.5438766 134 126 124
44.55592 12.112335 -8.5729017 163 159 153
44.620323 12.051996 -8.5375004 155 154 154
45.481445 12.150414 -8.5515709 146 140 141
45.626274 12.123939 -8.5187626 162 148 149
46.215336 12.013526 -8.5104847 112 111 93
48.138786 12.130712 -8.57897 180 162 166
48.236122 12.097843 -8.5317736 214 197 200
48.45932 12.10743 -8.571207 131 117 109
48.730618 12.075541 -8.491828 166 150 144
48.868736 12.153489 -8.553112 152 140 125
49.040382 12.054279 -8.5741997 152 141 131
49.277359 12.10569 -8.524704 142 125 119
49.407169 12.165611 -8.5956154 149 136 120
49.694702 12.067595 -8.5059385 178 154 149
49.847622 12.070179 -8.4760437 157 136 130
50.116711 12.080621 -8.5402393 159 141 134
50.255619 12.021895 -8.5004253 157 140 137
50.461262 12.075136 -8.5134239 183 163 163
50.683502 12.130795 -8.5305281 165 142 148
50.8955 12.07425 -8.4237366 179 149 147
51.009312 12.096152 -8.5710058 193 176 178
38.545872 12.283234 -8.5824203 101 119 107
38.758942 12.3246 -8.5014286 107 123 116
39.093464 12.320588 -8.5716162 160 168 176
39.320175 12.324283 -8.550005 109 125 118
39.721416 12.34551 -8.5160551 127 128 123
40.77869 12.274118 -8.5698967 100 99 94
41.990173 12.26797 -8.5749359 137 145 136
42.276173 12.369846 -8.4960785 153 173 170
42.980446 12.253038 -8.5312281 128 128 127
43.052818 12.252005 -8.5347843 120 112 108
43.681648 12.203612 -8.5936146 71 76 70
45.605015 12.264312 -8.5866003 120 108 108
46.367081 12.354706 -8.5765705 116 110 98
48.18605 12.267363 -8.566699 190 171 178
48.275166 12.37559 -8.5838175 223 198 198
48.72271 12.294518 -8.5767384 138 128 120
48.961727 12.268919 -8.5896559 163 144 128
49.307278 12.274052 -8.5543079 128 114 106
49.55146 12.28978 -8.563427 186 159 151
49.745586 12.335992 -8.5826139 196 161 166
49.892765 12.284073 -8.5022802 180 152 156
50.38842 12.262368 -8.4352856 170 156 143
50.581627 12.279638 -8.5039501 187 169 159
50.841732 12.252035 -8.5147114 199 174 171
38.741253 12.443442 -8.5638943 96 113 100
38.977287 12.443405 -8.5502663 86 95 95
39.118046 12.56645 -8.4704361 106 112 105
39.354095 12.515662 -8.4969625 98 111 104
42.334682 12.450983 -8.5798769 144 149 145
42.530048 12.536157 -8.5568323 124 119 119
42.673431 12.567051 -8.4964972 142 143 139
43.045128 12.590179 -8.5798492 184 163 202
48.211182 12.454593 -8.5564003 140 119 122
48.858883 12.402022 -8.5689268 134 119 110
49.371674 12.449173 -8.5262766 142 131 129
49.700184 12.56126 -8.5183096 181 154 155
49.929558 12.505611 -8.5623608 162 141 128
50.489475 12.472043 -8.4367876 163 138 134
50.751167 12.431561 -8.5749226 195 169 160
38.88261 12.672727 -8.5536947 94 105 97
39.2388 12.611064 -8.4732265 133 144 139
39.563251 12.723907 -8.5249348 113 118 121
41.181961 12.79737 -8.4663143 179 184 180
41.291344 12.753396 -8.4813328 137 148 143
41.453182 12.703681 -8.4997663 130 154 140
41.867264 12.771755 -8.541338 127 138 137
42.145954 12.70575 -8.5269527 150 162 154
42.270821 12.668477 -8.4804955 145 151 144
42.46846 12.731635 -8.5348701 144 147 140
42.677872 12.647441 -8.5605774 190 187 188
43.053871 12.660662 -8.5434265 137 123 164
47.524929 12.727203 -8.5796576 142 127 120
47.630859 12.671039 -8.5614357 140 119 112
49.050423 12.753948 -8.5919456 146 125 120
49.584522 12.610584 -8.5861712 112 99 90
49.653187 12.632193 -8.5246582 196 171 164
49.887993 12.723081 -8.5552397 170 148 149
50.101875 12.666813 -8.4796562 183 164 161
39.084404 12.811393 -8.5225449 113 122 118
40.167999 12.921789 -8.5748863 82 89 79
40.255409 12.90887 -8.5279264 107 108 104
41.142689 12.883995 -8.5715933 115 127 117
41.254807 12.869426 -8.5372696 139 155 148
41.426361 12.872657 -8.5713825 122 143 128
41.763088 12.890105 -8.5717402 101 112 106
41.826706 12.898441 -8.5609369 117 128 124
42.126553 12.897622 -8.5379028 149 157 148
42.281094 12.87658 -8.4748211 143 157 143
42.500526 12.909108 -8.5366507 158 161 153
45.051178 12.940447 -8.5698547 95 95 92
46.694565 12.963806 -8.5214787 117 108 103
47.486023 12.869051 -8.5719471 137 119 113
49.496399 12.903329 -8.5344334 150 132 126
49.705368 12.824032 -8.5464048 141 126 114
50.052052 12.83808 -8.4120102 157 157 140
39.414616 13.165061 -8.5971031 111 111 111
39.706203 13.110875 -8.4721947 114 121 121
39.823013 13.016312 -8.4360199 138 142 145
40.132782 13.086142 -8.5527763 55 72 56
40.319336 13.042959 -8.5339031 109 112 105
40.545326 13.097518 -8.5029297 122 139 125
40.618912 13.142633 -8.5288544 122 139 126
40.951965 13.120007 -8.5688324 150 167 149
41.094055 13.096565 -8.5389977 111 134 112
41.323326 13.082185 -8.4782162 153 180 163
41.751522 13.043446 -8.5975332 129 136 120
41.913338 13.083473 -8.5542774 131 142 137
42.075012 13.081729 -8.530962 114 130 115
42.373085 13.072652 -8.5781441 114 121 110
42.5205 13.092605 -8.576498 127 128 121
44.953712 13.154722 -8.5006065 103 104 100
46.454548 13.09097 -8.5308037 188 178 169
46.675858 13.139528 -8.4388676 157 136 128
49.309372 13.113099 -8.5567646 144 124 115
49.611519 13.140283 -8.484314 178 152 153
49.888664 13.098564 -8.5503635 118 111 102
50.053307 13.105488 -8.5190258 163 153 139
39.481915 13.257311 -8.5311403 117 123 118
39.703617 13.346622 -8.4360065 118 125 127
39.83992 13.273955 -8.4287014 112 127 121
40.503052 13.329621 -8.5131187 124 143 119
40.661385 13.281869 -8.5385666 115 133 114
40.889347 13.269856 -8.5515947 119 143 117
41.319626 13.354746 -8.5639505 129 143 130
41.499737 13.344463 -8.5817614 97 118 103
41.724403 13.35708 -8.5419445 147 161 155
41.859249 13.295792 -8.5466805 136 150 139
42.083382 13.342909 -8.569169 65 84 69
42.581642 13.378221 -8.551033 129 147 133
42.620655 13.323463 -8.5412998 97 114 95
44.908894 13.324609 -8.4885845 121 121 119
46.385197 13.262474 -8.5682983 164 143 133
46.486191 13.295424 -8.5740137 175 156 155
46.669205 13.28436 -8.506464 148 128 118
48.313129 13.391478 -8.4559326 133 115 111
48.96727 13.229192 -8.5362396 169 152 140
49.310108 13.303642 -8.5143414 170 145 131
49.549042 13.227278 -8.4365082 141 126 118
49.899509 13.254738 -8.4701338 121 113 102
39.584877 13.49951 -8.547389 139 150 144
39.730431 13.413783 -8.5427122 125 134 139
39.806534 13.501321 -8.4235153 127 135 130
40.35495 13.502016 -8.5928173 99 113 104
40.530846 13.447249 -8.5554781 121 137 118
40.723358 13.551233 -8.5778122 107 125 103
40.856277 13.54493 -8.5820541 118 131 113
41.18108 13.502562 -8.5889206 120 139 123
41.304432 13.486533 -8.5050192 121 139 121
41.503445 13.50691 -8.5898819 120 141 123
41.729294 13.507629 -8.5530157 138 157 140
41.912777 13.567484 -8.5476494 132 157 142
42.036644 13.505714 -8.5427065 118 139 126
42.553612 13.483368 -8.5095692 158 175 162
42.603546 13.452362 -8.5986967 141 166 146
44.871445 13.551501 -8.4571648 152 135 135
45.212589 13.482882 -8.515749 129 113 100
45.970001 13.594093 -8.4198322 98 105 98
46.670586 13.448631 -8.5927601 153 123 115
48.298233 13.527463 -8.5892296 164 146 143
48.954628 13.473619 -8.5568752 167 137 135
49.138313 13.427063 -8.5346155 218 187 179
49.261429 13.556889 -8.5998859 188 160 155
49.519936 13.544237 -8.5438662 143 126 116
49.630222 13.410974 -8.536376 138 124 113
39.828529 13.655803 -8.521059 171 164 154
40.365685 13.685616 -8.4829483 116 139 119
40.494492 13.729582 -8.4973021 118 131 109
40.7005 13.723883 -8.5833263 123 144 123
40.917408 13.735876 -8.572958 126 140 123
41.089039 13.697487 -8.5725136 135 153 136
41.321106 13.698083 -8.548089 132 146 128
41.563393 13.732553 -8.5720625 125 138 124
41.711185 13.703059 -8.5417509 149 167 150
42.113369 13.6668 -8.5585289 109 121 105
42.329811 13.756342 -8.5391483 159 173 154
42.471001 13.63001 -8.5310745 153 172 158
45.946491 13.73097 -8.5916634 106 107 100
46.15374 13.784184 -8.5416603 110 105 95
48.828972 13.736649 -8.5801125 155 125 124
49.053143 13.710701 -8.5376453 156 130 126
49.348114 13.682683 -8.502079 157 147 137
