ply
format ascii 1.0
comment PCL generated
element vertex 1124
property float x
property float y
property float z
property uchar red
property uchar green
property uchar blue
element face 0
element camera 0
property float view_px
property float view_py
property float view_pz
property float x_axisx
property float x_axisy
property float x_axisz
property float y_axisx
property float y_axisy
property float y_axisz
property float z_axisx
property float z_axisy
property float z_axisz
property float focal
property float scalex
property float scaley
property float centerx
property float centery
property int viewportx
property int viewporty
property float k1
property float k2
end_header
-149.6889 -71.46637 15.512158 64 66 58
-149.50645 -71.479965 15.54356 76 85 83
-149.39944 -71.405472 15.486558 65 62 69
-148.8663 -71.432541 15.431816 58 64 61
-148.72079 -71.562233 15.448132 75 81 81
-147.55902 -71.482895 15.526286 68 76 76
-146.66141 -71.525406 15.526554 67 79 77
-146.49493 -71.458618 15.439255 86 93 88
-146.21912 -71.576141 15.465801 81 90 81
-146.17874 -71.518204 15.464188 104 105 102
-151.15858 -71.251205 15.489215 93 94 93
-150.90904 -71.257889 15.420107 85 90 84
-150.65677 -71.326706 15.54216 94 100 88
-150.50969 -71.306808 15.486959 77 82 74
-150.26546 -71.325623 15.461376 91 97 92
-150.06096 -71.311401 15.415334 76 83 78
-149.89688 -71.320541 15.525213 71 76 75
-149.73676 -71.289673 15.529556 68 76 70
-149.53998 -71.271736 15.457775 70 79 75
-148.89476 -71.343872 15.459844 70 80 72
-148.61061 -71.299431 15.462611 67 76 74
-147.84117 -71.227699 15.445261 87 92 85
-147.75482 -71.251801 15.514659 124 124 127
-147.27078 -71.315666 15.472402 79 88 89
-147.15897 -71.206451 15.523982 46 55 52
-146.1665 -71.289162 15.485262 92 94 81
-145.93793 -71.292618 15.590494 135 134 129
-145.67731 -71.269043 15.501298 87 92 91
-145.48471 -71.256851 15.462859 123 127 121
-145.35555 -71.236122 15.566042 117 121 120
-151.32816 -71.006592 15.599862 62 69 61
-151.09479 -71.119492 15.569415 92 98 92
-150.30293 -71.179398 15.535277 107 115 105
-150.18396 -71.182587 15.511436 95 100 93
-149.7115 -71.186562 15.503052 101 111 103
-149.45886 -71.074783 15.463858 64 68 69
-148.214 -71.168465 15.50054 80 90 81
-148.06656 -71.080338 15.488739 79 90 84
-147.83447 -71.049019 15.510516 78 87 82
-147.71819 -71.114655 15.589197 82 88 86
-147.41385 -71.017792 15.570279 78 92 85
-147.37158 -71.084366 15.564411 84 97 94
-145.86928 -71.047363 15.528063 124 129 123
-145.65546 -71.085213 15.460231 110 114 106
-145.5087 -71.088051 15.50548 120 125 118
-145.32167 -71.118454 15.515824 126 126 125
-145.16048 -71.072136 15.508736 117 119 123
-151.41393 -70.926506 15.415546 65 73 60
-151.24747 -70.875725 15.543206 74 82 75
-151.09581 -70.914787 15.456103 80 87 83
-150.9196 -70.822479 15.548851 124 128 127
-150.2912 -70.944374 15.522256 73 79 73
-149.51425 -70.94059 15.458172 69 77 72
-148.94243 -70.927528 15.480093 80 78 89
-148.31195 -70.837494 15.454157 71 84 81
-147.96365 -70.982353 15.55611 95 101 101
-147.75322 -70.911896 15.525383 72 83 77
-147.43063 -70.910339 15.5609 66 76 71
-147.24692 -70.912354 15.583059 95 108 101
-147.09579 -70.904007 15.531672 111 119 116
-146.54871 -70.854836 15.443179 103 113 108
-145.8439 -70.881012 15.562531 83 89 82
-145.68033 -70.848137 15.588507 116 122 113
-145.45749 -70.864151 15.519588 105 108 102
-145.32344 -70.853088 15.478423 142 143 142
-145.15128 -70.886749 15.545995 113 117 113
-144.6449 -70.811493 15.54762 135 134 138
-144.22583 -70.881851 15.499103 48 47 43
-144.10951 -70.862495 15.494762 75 75 69
-151.04962 -70.738541 15.522358 81 87 86
-150.93877 -70.70874 15.502987 108 114 115
-149.88864 -70.710205 15.547491 62 70 68
-149.73016 -70.641258 15.473335 89 95 92
-148.28265 -70.689903 15.553283 91 98 99
-147.96762 -70.780235 15.560745 55 57 65
-147.48383 -70.632866 15.529212 76 86 80
-147.26259 -70.715286 15.499069 61 72 67
-147.12183 -70.683701 15.471945 67 77 73
-146.8844 -70.716057 15.460669 107 117 110
-146.69434 -70.637581 15.492814 93 103 93
-146.49847 -70.650093 15.487946 81 91 88
-146.28464 -70.669777 15.548309 84 94 86
-145.90833 -70.736145 15.561523 98 103 99
-145.68304 -70.645073 15.557851 96 102 94
-145.49092 -70.723511 15.541521 107 111 104
-145.34641 -70.748566 15.558533 110 111 112
-145.12999 -70.696625 15.546066 117 120 119
-144.70683 -70.703773 15.518523 129 125 121
-144.50511 -70.68544 15.467295 130 131 124
-144.26019 -70.662926 15.461761 154 151 145
-144.10486 -70.703705 15.470522 148 141 135
-143.91286 -70.73642 15.476038 140 136 131
-143.76221 -70.602715 15.511948 170 167 161
-151.47495 -70.501259 15.56916 181 182 184
-151.1142 -70.489059 15.503967 81 81 79
-150.854 -70.532471 15.488529 103 107 104
-150.09756 -70.53389 15.488411 62 68 66
-149.80721 -70.520668 15.529583 85 90 87
-148.23895 -70.527405 15.511015 65 77 73
-147.40858 -70.503525 15.489676 68 79 75
-147.24234 -70.478912 15.512375 74 81 80
-147.1134 -70.457153 15.458826 82 90 89
-146.85208 -70.456741 15.461964 77 85 83
-146.65968 -70.470924 15.488173 80 90 85
-146.43152 -70.532928 15.544834 82 91 85
-146.33743 -70.458763 15.483224 70 75 75
-146.10342 -70.551666 15.498241 78 85 82
-145.83745 -70.475594 15.439122 110 116 112
-145.66721 -70.470566 15.480846 100 109 102
-145.53911 -70.537262 15.530339 95 103 95
-145.22305 -70.493111 15.596762 130 137 129
-145.067 -70.588577 15.568362 107 109 108
-144.90102 -70.524048 15.590925 118 115 120
-144.68761 -70.486725 15.473112 131 132 131
-144.51674 -70.527565 15.513026 119 120 109
-144.24854 -70.532608 15.546229 143 137 124
-144.09569 -70.520302 15.557355 145 139 127
-143.86929 -70.428375 15.563111 167 162 156
-143.73608 -70.59655 15.500141 165 159 153
-151.15755 -70.307755 15.469536 66 69 62
-149.70474 -70.318108 15.569981 51 57 55
-147.23056 -70.290009 15.562071 105 111 114
-147.0596 -70.348404 15.561026 85 97 92
-146.89159 -70.326248 15.546429 87 96 94
-146.67331 -70.278564 15.524736 77 84 84
-146.51678 -70.268196 15.541739 67 80 71
-146.35165 -70.297295 15.477255 70 80 75
-146.07156 -70.231201 15.494312 77 76 83
-145.8894 -70.329475 15.514299 79 85 79
-145.71725 -70.254868 15.508395 83 94 83
-145.57739 -70.302841 15.534245 83 90 85
-144.66666 -70.253281 15.437765 157 156 154
-144.45644 -70.251793 15.538757 103 105 97
-144.26585 -70.351723 15.474092 128 127 114
-144.14584 -70.317444 15.503374 146 137 135
-143.88724 -70.317207 15.456107 162 152 160
-151.22272 -70.124329 15.456396 73 75 65
-151.0564 -70.063065 15.532593 101 104 97
-150.84537 -70.04924 15.477747 108 108 103
-150.70883 -70.011986 15.444894 101 107 102
-150.20256 -70.112915 15.440844 54 54 52
-149.91602 -70.183586 15.498189 98 103 100
-148.76181 -70.07489 15.50607 57 73 63
-148.24338 -70.007294 15.435584 52 62 61
-148.15686 -70.084396 15.429678 83 98 92
-147.62228 -70.193474 15.555584 74 86 77
-147.56172 -70.083351 15.477937 59 69 66
-147.12953 -70.18116 15.587394 38 45 43
-146.71529 -70.088791 15.522303 85 93 90
-146.5256 -70.172256 15.485247 86 92 92
-146.30806 -70.101044 15.503922 66 79 74
-146.09694 -70.108704 15.498604 66 72 72
-145.994 -70.161827 15.572508 73 74 76
-145.70834 -70.061279 15.485645 72 81 75
-145.50726 -70.14386 15.545399 81 85 80
-145.28 -70.091164 15.548265 127 128 130
-145.11371 -70.109306 15.484483 94 95 92
-144.82947 -70.097054 15.515589 130 134 130
-144.72952 -70.072571 15.465168 183 177 176
-144.48248 -70.04097 15.497358 136 141 132
-144.30583 -70.105194 15.518991 129 124 120
-144.06766 -70.068161 15.466915 144 135 139
-151.20448 -69.91526 15.511404 70 77 70
-151.19267 -69.932732 15.539279 60 67 60
-150.92371 -69.882629 15.512689 81 80 77
-150.77542 -69.924431 15.513908 106 101 99
-150.54236 -69.878357 15.516167 84 94 90
-150.2336 -69.853722 15.42008 83 89 86
-150.18298 -69.802895 15.464928 92 93 89
-148.73096 -69.992332 15.569304 54 69 60
-148.23492 -69.901604 15.471103 69 77 78
-147.98775 -69.80146 15.577841 65 77 75
-147.49725 -69.824257 15.448063 76 86 77
-147.10242 -69.877708 15.532071 85 97 92
-146.89224 -69.88282 15.477423 103 110 106
-146.65634 -69.915558 15.468789 73 82 78
-146.46957 -69.869453 15.530569 73 81 81
-146.31416 -69.901184 15.486755 66 75 68
-146.14987 -69.904106 15.570506 50 60 54
-145.85512 -69.938477 15.475163 73 81 73
-145.69102 -69.92852 15.506064 69 76 69
-145.54526 -69.845917 15.492779 65 68 74
-145.20862 -69.949333 15.560356 98 103 101
-145.16797 -69.901352 15.522367 102 104 101
-144.92685 -69.885345 15.489723 99 108 100
-144.62851 -69.962006 15.541841 133 134 127
-144.45569 -69.928879 15.477398 122 125 119
-144.34964 -69.914307 15.513069 114 115 108
-144.09283 -69.923019 15.521493 145 143 144
-143.90527 -69.882431 15.464924 95 96 93
-143.74622 -69.847153 15.532265 106 107 108
-143.5576 -69.899994 15.499651 117 110 110
-151.35468 -69.742767 15.505142 64 67 61
-151.06438 -69.67717 15.512167 86 87 84
-150.90503 -69.716721 15.492544 71 70 65
-150.67618 -69.690514 15.46579 120 115 115
-150.48083 -69.663208 15.465319 86 88 90
-150.25931 -69.676666 15.475399 76 76 74
-150.14586 -69.743774 15.462632 70 76 70
-148.05768 -69.719597 15.526026 46 55 52
-147.12682 -69.6847 15.51399 77 90 87
-146.69756 -69.722168 15.526131 93 103 97
-146.48796 -69.749519 15.523991 67 77 75
-146.33597 -69.788017 15.522946 74 81 85
-146.00775 -69.734062 15.532175 69 80 74
-145.90707 -69.677307 15.473965 70 80 76
-145.74194 -69.741745 15.550627 79 85 81
-145.47504 -69.727432 15.523266 65 70 71
-145.29507 -69.709251 15.472893 94 94 95
-145.14172 -69.689438 15.476214 98 101 98
-144.91837 -69.704681 15.497312 92 95 90
-144.63589 -69.645386 15.546038 132 132 128
-144.55312 -69.676018 15.457574 134 130 125
-144.22919 -69.710411 15.442455 114 115 112
-144.13077 -69.700287 15.480288 87 85 82
-143.95706 -69.714722 15.57028 112 108 101
-143.42795 -69.688538 15.465247 164 144 154
-143.37766 -69.696701 15.478662 156 152 153
-153.5403 -69.435539 15.50109 90 98 87
-152.64456 -69.447388 15.566195 61 66 62
-151.08885 -69.563324 15.45458 105 104 105
-150.84021 -69.453659 15.49195 85 85 86
-150.70972 -69.454216 15.530311 60 68 66
-150.41928 -69.533318 15.524254 72 72 71
-150.36665 -69.528343 15.513566 57 57 57
-150.1115 -69.531113 15.496789 60 66 66
-149.71225 -69.495705 15.441739 92 105 95
-149.46942 -69.543816 15.5109 62 76 69
-147.25131 -69.463379 15.508183 81 94 87
-147.18024 -69.535194 15.414543 63 79 78
-146.69508 -69.506927 15.457161 60 70 64
-146.52156 -69.538536 15.458869 82 93 89
-146.00684 -69.57843 15.560591 73 85 73
-145.87238 -69.44725 15.559832 71 86 79
-145.71346 -69.525703 15.425436 124 128 126
-145.49121 -69.468475 15.499489 91 103 93
-145.33598 -69.507133 15.496784 94 98 101
-145.10316 -69.501381 15.453591 96 101 96
-144.92914 -69.476768 15.493172 107 102 105
-144.68742 -69.521515 15.482057 106 103 101
-144.54958 -69.519157 15.484166 128 128 123
-144.30455 -69.496666 15.515785 115 111 107
-144.08566 -69.52623 15.530925 151 142 139
-143.95142 -69.483673 15.528146 160 150 147
-143.78558 -69.570816 15.577633 197 181 181
-143.50558 -69.589256 15.523086 177 159 174
-141.63182 -69.486252 15.503172 91 84 88
-141.44452 -69.400597 15.409107 103 95 101
-153.54167 -69.387947 15.48837 77 85 74
-152.6871 -69.219009 15.573828 63 70 61
-152.45288 -69.276543 15.516316 71 76 71
-152.377 -69.280258 15.493933 67 73 66
-151.10049 -69.365372 15.495468 87 86 81
-150.83844 -69.278702 15.504102 69 75 72
-150.66814 -69.270538 15.479755 63 65 65
-150.53629 -69.310951 15.532423 67 72 70
-150.32652 -69.283104 15.523265 76 80 76
-150.19412 -69.286438 15.576935 80 93 85
-149.76012 -69.364395 15.462688 66 75 70
-149.29517 -69.339371 15.492762 67 72 72
-149.06726 -69.295074 15.546165 93 96 91
-148.89352 -69.335281 15.572735 72 81 76
-147.28656 -69.254868 15.493839 74 84 79
-147.07184 -69.348114 15.501724 83 90 82
-146.95062 -69.331818 15.501266 50 57 51
-146.66786 -69.358147 15.572861 74 84 79
-146.52927 -69.327087 15.54999 70 83 74
-146.29919 -69.304054 15.418781 79 91 84
-145.68146 -69.314987 15.53714 107 113 110
-145.49626 -69.315445 15.464031 74 83 80
-145.30531 -69.272926 15.494304 93 99 93
-145.06311 -69.329956 15.463203 85 91 86
-144.91731 -69.315979 15.452974 106 107 103
-144.75987 -69.284912 15.462793 127 123 121
-144.46945 -69.246277 15.511126 122 118 118
-144.29518 -69.354462 15.504913 133 125 125
-144.1277 -69.313293 15.536821 136 127 131
-143.85332 -69.319321 15.58137 150 142 146
-141.8226 -69.353851 15.43434 133 126 122
-141.7428 -69.285072 15.46917 165 150 150
-141.53099 -69.288086 15.448445 171 156 160
-141.27727 -69.226021 15.447935 167 155 159
-141.15778 -69.208282 15.491808 144 135 136
-152.70619 -69.098358 15.497386 64 75 66
-152.49663 -69.064735 15.468452 68 78 72
-152.34283 -69.099396 15.474516 75 80 73
-151.56421 -69.045776 15.401743 57 69 62
-151.33846 -69.048859 15.518906 92 92 92
-151.07939 -69.111084 15.495625 87 86 85
-150.8645 -69.079529 15.491188 74 79 77
-150.68002 -69.078812 15.501847 89 88 87
-150.4973 -69.120682 15.525158 80 80 80
-150.30666 -69.103928 15.529037 74 75 76
-150.13313 -69.198524 15.443893 65 77 65
-149.92117 -69.04277 15.463012 87 95 85
-149.63571 -69.062843 15.525749 63 74 67
-149.45175 -69.045395 15.496689 86 91 85
-149.34355 -69.033585 15.437056 74 80 75
-149.12149 -69.114723 15.480224 86 92 88
-148.91725 -69.122292 15.548473 58 71 64
-148.48779 -69.033371 15.572386 65 79 79
-148.07552 -69.019142 15.496113 57 63 65
-147.95171 -69.153412 15.594912 73 82 86
-146.64258 -69.102676 15.517851 67 78 73
-146.49066 -69.096024 15.454142 70 81 76
-146.35056 -69.042091 15.496077 72 74 73
-146.09711 -69.051041 15.526669 96 98 100
-145.49829 -69.04464 15.548069 75 83 78
-145.29784 -69.116768 15.493775 71 79 76
-145.0358 -69.064789 15.567454 131 116 128
-144.88173 -69.15696 15.511907 118 115 117
-144.72609 -69.125214 15.512799 125 118 121
-144.49347 -69.128304 15.517863 134 120 131
-144.29799 -69.151459 15.457693 87 86 82
-141.81378 -69.14151 15.430871 144 136 135
-141.75911 -69.150841 15.447861 167 157 157
-141.50516 -69.067368 15.451971 166 156 154
-141.30272 -69.111893 15.497675 172 156 157
-152.91725 -68.812637 15.5413 59 72 67
-152.67714 -68.88401 15.489914 71 82 74
-152.47565 -68.853088 15.501755 72 82 79
-152.263 -68.897354 15.466459 80 88 80
-151.45041 -68.924492 15.430426 86 89 85
-151.30853 -68.916306 15.517707 89 94 93
-151.0802 -68.851685 15.455085 84 88 86
-150.91162 -68.872925 15.460335 84 85 84
-150.62672 -68.887215 15.553246 96 96 97
-150.44725 -68.929977 15.563009 89 89 92
-150.3074 -68.859337 15.429448 67 71 72
-150.03351 -68.960846 15.489728 85 100 97
-149.91823 -68.9133 15.514685 88 95 93
-149.66318 -68.864647 15.559663 85 92 91
-149.47922 -68.84642 15.527151 79 87 89
-149.37949 -68.881073 15.435016 80 90 82
-149.03708 -68.861053 15.564462 78 87 82
-148.92383 -68.880783 15.506781 70 78 73
-148.49319 -68.947388 15.505845 63 77 77
-148.35701 -68.82547 15.524642 56 60 59
-147.73718 -68.821518 15.476444 76 84 88
-147.55679 -68.894234 15.501252 70 77 80
-147.38852 -68.826591 15.551634 77 79 87
-147.01384 -68.881172 15.509644 83 86 89
-146.99814 -68.858604 15.403566 80 82 86
-146.5034 -68.931763 15.436922 83 90 86
-146.36311 -68.845108 15.457765 69 79 78
-146.08893 -68.902252 15.453026 78 77 84
-145.92976 -68.869331 15.575178 83 85 88
-145.79082 -68.814934 15.477942 69 69 69
-145.42787 -68.983582 15.538486 88 100 88
-144.97769 -68.804756 15.476151 146 148 143
-144.03995 -68.81543 15.555756 129 130 132
-142.25381 -68.944717 15.494599 125 127 135
-142.15776 -68.802116 15.447598 167 148 153
-141.2825 -68.968353 15.443041 166 148 150
-152.82846 -68.690376 15.480404 72 83 79
-152.75284 -68.673141 15.451821 67 81 75
-152.55618 -68.768829 15.459032 78 86 83
-152.38805 -68.7612 15.464114 88 100 89
-151.61043 -68.787048 15.510284 63 66 57
-151.47145 -68.671432 15.460835 87 86 79
-151.37793 -68.734924 15.477019 101 100 93
-151.0318 -68.716621 15.468968 68 72 67
-150.87875 -68.771027 15.515845 90 92 88
-150.67322 -68.726044 15.449084 98 100 102
-150.53499 -68.635651 15.539337 52 57 52
-150.33862 -68.677155 15.475601 74 74 78
-150.15254 -68.704185 15.451504 86 82 84
-149.90482 -68.718338 15.456042 78 82 80
-149.67264 -68.646576 15.54808 91 97 97
-149.52737 -68.694977 15.436359 71 77 72
-149.37814 -68.761009 15.53688 77 87 88
-149.05231 -68.676575 15.469996 94 98 97
-148.89423 -68.731972 15.48381 74 83 80
-148.77335 -68.725288 15.44299 72 84 84
-148.56879 -68.617302 15.505738 69 80 76
-148.32742 -68.679855 15.476179 68 72 71
-147.80148 -68.677551 15.51293 67 78 77
-147.64806 -68.787842 15.50616 72 80 83
-147.35309 -68.666611 15.540361 73 80 79
-147.07675 -68.705109 15.491066 70 79 73
-146.87932 -68.720161 15.500461 77 81 77
-146.76234 -68.77034 15.436695 70 71 78
-146.53758 -68.62941 15.584814 84 98 81
-146.28197 -68.613831 15.433316 76 77 80
-146.07254 -68.704056 15.454147 77 83 80
-145.2104 -68.675468 15.528646 123 128 131
-144.83789 -68.783073 15.565681 120 124 110
-143.06602 -68.709457 15.473829 93 97 95
-142.74219 -68.772003 15.551928 117 118 130
-142.41835 -68.615356 15.543549 141 142 146
-141.15182 -68.68856 15.40612 153 143 141
-152.88911 -68.424232 15.591577 76 87 83
-152.72623 -68.539886 15.503408 66 78 74
-152.42108 -68.479271 15.472342 123 125 119
-152.26385 -68.492523 15.526591 79 86 80
-152.07637 -68.432701 15.501114 96 101 95
-151.89157 -68.440155 15.440913 85 94 86
-151.62067 -68.505882 15.465426 59 61 55
-151.50389 -68.437386 15.462762 96 93 94
-151.32321 -68.463699 15.449456 87 87 80
-151.05515 -68.507767 15.514085 81 81 78
-150.69739 -68.474449 15.56129 108 106 108
-150.45132 -68.500664 15.478045 136 136 136
-150.29443 -68.498718 15.484921 99 99 102
-150.06699 -68.489532 15.53046 91 84 86
-149.95667 -68.519791 15.56122 82 83 76
-149.7404 -68.495209 15.476077 81 83 82
-149.45605 -68.487312 15.510799 81 82 79
-149.27928 -68.544525 15.526753 79 83 78
-149.10968 -68.502068 15.496474 75 80 75
-148.9697 -68.577332 15.569145 86 94 87
-148.64325 -68.547432 15.578664 70 82 77
-148.54852 -68.522392 15.516357 73 84 76
-148.07486 -68.541626 15.475667 79 86 79
-147.94585 -68.551094 15.429166 75 82 88
-147.09479 -68.527443 15.499292 65 72 71
-146.89043 -68.465218 15.496018 78 89 83
-146.66977 -68.443954 15.474749 77 84 82
-146.48505 -68.592636 15.455307 39 50 46
-146.31613 -68.527916 15.415306 71 72 76
-146.13992 -68.580643 15.55695 60 63 61
-145.69641 -68.436424 15.569792 103 102 102
-145.29953 -68.451706 15.563868 74 84 82
-145.18648 -68.514946 15.543287 134 139 135
-144.45891 -68.541573 15.562986 121 117 108
-144.32489 -68.491409 15.428478 81 82 85
-143.80922 -68.410271 15.519321 157 151 151
-143.7142 -68.43309 15.492868 132 132 130
-143.40884 -68.405418 15.501841 72 81 88
-143.29959 -68.443748 15.447673 99 103 108
-143.1259 -68.444763 15.549773 121 118 120
-142.8943 -68.544853 15.439437 75 69 69
-142.70285 -68.434807 15.59074 93 96 105
-142.54134 -68.530693 15.515757 85 86 91
-142.24762 -68.448288 15.446553 162 149 154
-142.18951 -68.436729 15.560894 137 138 143
-141.69437 -68.452271 15.593704 90 93 98
-153.1581 -68.204262 15.425086 59 74 67
-152.96428 -68.384445 15.467674 61 70 67
-152.71852 -68.324387 15.46094 68 82 80
-152.49663 -68.274551 15.530705 74 78 75
-152.32397 -68.324356 15.520405 66 75 68
-152.10916 -68.379784 15.49539 76 84 77
-151.93216 -68.347176 15.433628 102 104 106
-151.68253 -68.265907 15.487045 88 95 92
-151.56024 -68.260391 15.516232 84 82 76
-151.26245 -68.265373 15.433457 82 86 79
-151.17188 -68.252701 15.535839 94 96 95
-150.71783 -68.2798 15.539155 62 66 68
-150.54184 -68.280518 15.455732 77 78 79
-150.26926 -68.305466 15.463143 116 115 124
-150.04477 -68.353561 15.544804 125 124 118
-149.92369 -68.253456 15.477427 105 101 98
-149.53012 -68.329285 15.546981 65 72 68
-149.26936 -68.29538 15.544998 81 84 86
-149.16403 -68.305878 15.566795 82 89 81
-148.62367 -68.3424 15.4904 81 96 89
-148.56396 -68.307007 15.538265 61 71 68
-148.34921 -68.326546 15.49103 73 84 80
-148.14211 -68.356056 15.430044 77 80 71
-147.91237 -68.262314 15.508935 84 89 95
-147.67287 -68.253662 15.569 103 106 115
-147.05338 -68.346558 15.557215 73 80 76
-146.89059 -68.276932 15.497864 74 80 80
-146.74577 -68.364182 15.566696 80 89 85
-146.27576 -68.29174 15.501203 89 88 87
-143.84261 -68.36438 15.445538 63 67 76
-143.63873 -68.350197 15.502278 130 129 129
-143.54552 -68.317856 15.458099 121 123 125
-143.27386 -68.285065 15.56258 123 121 125
-143.151 -68.356461 15.513168 115 114 119
-142.94582 -68.255257 15.475185 96 101 104
-142.64394 -68.336472 15.517761 138 138 144
-142.42708 -68.278847 15.508477 165 143 150
-142.32086 -68.304947 15.475009 173 154 156
-142.15384 -68.271599 15.43403 181 166 170
-141.8979 -68.226204 15.455444 65 63 73
-152.9893 -68.169937 15.403427 59 69 68
-152.72762 -68.051651 15.420506 60 67 63
-152.50899 -68.146423 15.55074 81 89 89
-152.07176 -68.019562 15.566576 105 104 102
-151.905 -68.110962 15.565216 76 78 77
-151.6907 -68.065025 15.488339 67 68 74
-151.47841 -68.061363 15.50573 89 89 99
-151.31145 -68.115295 15.513467 67 69 73
-151.12581 -68.143715 15.514886 111 106 103
-150.65622 -68.046913 15.455107 82 90 92
-150.48845 -68.058418 15.55207 90 94 94
-150.27846 -68.072388 15.514296 81 84 84
-150.10793 -68.107635 15.519912 98 103 101
-149.93417 -68.095673 15.554144 78 85 83
-149.77306 -68.137665 15.483823 92 96 90
-149.50882 -68.176376 15.519487 71 73 79
-149.27478 -68.06871 15.549078 65 73 73
-149.19305 -68.164352 15.537392 73 79 77
-148.63913 -68.143082 15.560163 79 83 80
-148.5246 -68.126465 15.533655 77 83 76
-147.896 -68.099739 15.481842 83 93 100
-147.71225 -68.097656 15.49489 94 98 108
-147.31522 -68.11731 15.466567 61 70 69
-147.04065 -68.165527 15.534306 73 82 79
-146.90131 -68.134125 15.506363 81 88 86
-146.70438 -68.028107 15.517046 84 90 90
-146.37326 -68.159218 15.50493 92 89 98
-146.03885 -68.194084 15.49349 59 64 57
-143.68298 -68.016312 15.550503 122 126 129
-143.52985 -68.126205 15.544025 115 116 123
-143.33862 -68.098846 15.565804 129 123 132
-143.07578 -68.114685 15.501527 111 114 117
-142.92828 -68.126419 15.563772 75 82 81
-142.65977 -68.027084 15.455686 165 152 158
-142.52335 -68.142181 15.470429 165 156 162
-142.30812 -68.114594 15.480957 199 179 181
-142.11613 -68.121498 15.463223 173 155 158
-141.95374 -68.020081 15.425173 180 164 168
-141.6851 -68.128952 15.402969 180 156 162
-152.21172 -67.831169 15.434366 72 81 75
-152.1261 -67.871422 15.462017 76 83 80
-151.91809 -67.946136 15.456105 81 78 80
-151.76984 -67.966187 15.420125 98 85 101
-151.48135 -67.888031 15.490258 74 83 82
-151.34726 -67.96949 15.423135 102 103 102
-150.49753 -67.934357 15.537991 94 97 93
-150.31329 -67.896133 15.532872 68 76 73
-150.10129 -67.964798 15.511728 57 66 63
-149.9911 -67.991592 15.539879 58 62 65
-149.71686 -67.892426 15.538916 100 102 103
-149.58411 -67.854378 15.57444 105 103 105
-148.48906 -67.851669 15.497099 87 94 100
-148.22217 -67.978912 15.52586 95 97 110
-146.81041 -67.941269 15.577894 88 94 94
-146.73729 -67.943436 15.536309 88 94 92
-146.5545 -67.833519 15.420953 73 76 69
-143.83411 -67.936302 15.558226 88 96 98
-143.73434 -67.871819 15.459208 98 106 108
-143.10976 -67.978149 15.403221 115 112 121
-142.86131 -67.8097 15.549078 158 152 156
-142.6227 -67.9151 15.468966 162 145 151
-142.51074 -67.905853 15.447714 167 148 153
-142.3118 -67.835373 15.55604 145 135 136
-142.14438 -67.940933 15.548141 171 150 158
-141.94841 -67.840454 15.551165 141 132 137
-152.24803 -67.735542 15.53021 67 79 80
-152.07649 -67.792679 15.456415 67 76 75
-151.97076 -67.618683 15.521526 103 112 102
-151.72751 -67.728821 15.448079 105 108 110
-151.49577 -67.693382 15.469995 75 77 81
-151.2899 -67.794243 15.576283 88 82 92
-150.71486 -67.788872 15.561831 71 86 76
-150.44984 -67.786858 15.533487 126 113 118
-150.0434 -67.751305 15.587406 114 113 108
-149.99699 -67.787041 15.51729 132 127 123
-149.53452 -67.693245 15.517206 106 108 110
-149.0656 -67.67321 15.590458 75 80 76
-148.64253 -67.606377 15.542263 64 70 70
-148.54907 -67.740715 15.432825 81 92 94
-147.26956 -67.637154 15.482258 70 80 81
-146.93057 -67.614136 15.493217 85 85 89
-146.638 -67.759125 15.584806 109 114 108
-146.46094 -67.63736 15.520872 90 98 95
-146.02559 -67.733978 15.592651 107 116 116
-145.95024 -67.797264 15.555325 105 109 108
-145.03642 -67.610413 15.40694 134 133 141
-144.76208 -67.713692 15.523067 202 184 208
-144.55693 -67.7052 15.5277 138 114 128
-142.92967 -67.795723 15.585163 118 111 116
-142.56561 -67.754829 15.438619 210 181 198
-142.24916 -67.722557 15.56477 135 134 139
-142.11374 -67.742676 15.469985 181 160 161
-152.21661 -67.494431 15.557459 70 78 78
-152.05655 -67.487137 15.528763 77 84 84
-151.95358 -67.503555 15.554214 81 90 88
-151.25647 -67.477982 15.46242 68 78 73
-150.58948 -67.409401 15.430167 75 69 79
-150.10085 -67.481415 15.428562 87 87 94
-149.83252 -67.432945 15.479725 130 141 137
-149.63115 -67.501648 15.490509 97 99 102
-149.53448 -67.504074 15.51565 93 93 92
-148.66693 -67.521446 15.569505 102 112 112
-148.5361 -67.415009 15.482542 103 112 110
-148.21732 -67.546669 15.43132 69 82 82
-148.1398 -67.503807 15.496237 84 93 96
-147.95567 -67.570557 15.517649 87 102 109
-147.30182 -67.557541 15.460886 72 81 83
-147.15158 -67.443176 15.533328 61 71 74
-146.88257 -67.449921 15.512568 97 99 99
-146.74802 -67.538101 15.576916 79 85 87
-146.45087 -67.503021 15.502753 106 114 111
-146.29985 -67.469994 15.491665 89 96 93
-146.05045 -67.456108 15.458727 112 115 119
-145.91382 -67.453194 15.528105 104 105 107
-145.6413 -67.423889 15.443683 92 97 105
-145.55145 -67.460434 15.494909 104 105 111
-145.32895 -67.49958 15.537236 132 131 135
-145.12032 -67.470245 15.437869 131 118 128
-144.86584 -67.534836 15.525105 160 138 157
-144.66551 -67.466652 15.461162 189 167 191
-143.32591 -67.45166 15.598785 101 104 109
-152.04529 -67.338676 15.506284 61 69 71
-151.94955 -67.379265 15.466805 92 95 94
-151.50049 -67.317505 15.505433 81 92 84
-150.65327 -67.374786 15.48747 69 82 75
-150.31821 -67.303642 15.551185 107 109 114
-150.09727 -67.258987 15.531191 127 129 133
-149.92671 -67.303589 15.591022 110 118 121
-149.64044 -67.326385 15.53881 88 95 93
-149.56789 -67.396515 15.490923 107 109 105
-148.90944 -67.320168 15.571446 88 95 97
-148.73128 -67.315552 15.53114 95 101 103
-148.54802 -67.363144 15.552732 93 100 95
-148.07408 -67.211479 15.498604 92 102 104
-147.31259 -67.35553 15.462086 76 88 86
-147.10724 -67.268082 15.48619 93 106 104
-146.9086 -67.251877 15.478253 82 91 93
-146.45001 -67.245773 15.54454 90 99 99
-146.26657 -67.248062 15.519528 105 110 110
-146.04126 -67.327339 15.521225 115 116 119
-145.93475 -67.342262 15.526384 131 129 134
-145.62601 -67.227966 15.508245 116 117 122
-145.5157 -67.264069 15.541483 120 115 124
-145.26657 -67.324829 15.495407 117 112 120
-145.07835 -67.311989 15.433506 115 109 117
-144.89095 -67.328575 15.520707 119 112 114
-144.72305 -67.328888 15.486373 137 127 144
-144.53217 -67.287514 15.447146 131 124 140
-144.32098 -67.248016 15.470527 94 91 101
-151.67696 -67.071564 15.546745 75 90 87
-150.58138 -67.154579 15.429165 102 106 105
-149.87386 -67.142883 15.442314 81 80 85
-149.25279 -67.084137 15.505788 117 129 126
-149.04108 -67.126244 15.430178 95 105 106
-148.84872 -67.116264 15.516567 129 131 138
-148.66599 -67.036621 15.530086 93 102 98
-148.49554 -67.052094 15.506253 82 87 86
-148.38289 -67.058426 15.496086 96 102 105
-148.01114 -67.011017 15.507761 127 135 137
-147.64342 -67.00869 15.578789 83 98 95
-147.5399 -67.019569 15.599616 145 154 153
-147.10146 -67.032372 15.525281 87 97 97
-146.84892 -67.162315 15.458067 76 85 90
-146.69016 -67.076874 15.503681 103 109 107
-146.48141 -67.038681 15.509953 117 121 124
-146.25096 -67.168579 15.511026 99 105 107
-146.14296 -67.107147 15.536865 84 90 93
-145.89163 -67.102341 15.521879 102 102 110
-145.6207 -67.167877 15.530739 140 133 140
-145.47774 -67.105446 15.477038 103 99 110
-145.25854 -67.088387 15.491386 128 127 131
-145.06805 -67.132294 15.437636 125 130 139
-144.61523 -67.078995 15.447783 142 137 150
-144.48282 -67.151443 15.52539 138 131 138
-144.25177 -67.154175 15.536101 143 128 143
-144.1579 -67.075615 15.567986 143 128 148
-142.81636 -67.082047 15.495331 91 97 97
-142.41313 -67.106049 15.551076 120 111 130
-151.66675 -66.936844 15.495113 76 89 84
-151.48849 -66.834244 15.482869 64 68 73
-150.67001 -66.864655 15.51577 58 67 62
-150.50671 -66.840408 15.498358 50 60 61
-149.58794 -66.836151 15.598454 139 137 150
-149.16022 -66.942657 15.505121 152 160 162
-148.91705 -66.853004 15.421635 165 166 161
-148.68472 -66.881493 15.529356 107 114 112
-148.54518 -66.948288 15.553021 103 107 107
-148.32596 -66.874359 15.491104 95 100 103
-148.06413 -66.871857 15.437851 84 92 93
-147.97633 -66.956451 15.43101 89 99 101
-147.61658 -66.993584 15.509755 78 87 88
-147.45248 -66.829315 15.477194 90 97 101
-147.26547 -66.881187 15.482053 85 95 95
-147.02472 -66.888596 15.465426 87 93 92
-146.96338 -66.958313 15.47556 86 92 98
-146.68137 -66.947311 15.558172 102 108 104
-146.5139 -66.927475 15.554065 98 101 101
-146.35188 -66.868317 15.53394 109 111 111
-146.10327 -66.82016 15.528654 107 107 114
-145.91061 -66.859665 15.54805 107 108 114
-145.70351 -66.885056 15.541234 95 101 101
-145.51666 -66.971649 15.489202 108 106 111
-145.23743 -66.889702 15.445084 119 119 121
-145.15736 -66.917732 15.401799 122 121 116
-144.41905 -66.979637 15.430416 177 166 184
-144.22025 -66.911736 15.496068 156 139 156
-144.1048 -66.902863 15.462549 160 150 162
-143.96689 -66.898254 15.564792 124 110 125
-151.81808 -66.73954 15.41132 74 86 82
-151.63287 -66.623825 15.492857 78 89 87
-151.46542 -66.718781 15.528688 63 69 75
-150.64166 -66.749832 15.46582 79 88 89
-150.49164 -66.645515 15.520012 78 88 83
-150.34317 -66.676399 15.515674 74 84 86
-149.70216 -66.705482 15.447139 112 110 123
-149.59332 -66.74646 15.473881 84 85 87
-149.33971 -66.732468 15.477783 96 102 106
-148.86232 -66.610725 15.459882 107 114 108
-148.64639 -66.645142 15.461718 82 86 87
-148.50143 -66.650116 15.506279 97 104 100
-148.30794 -66.708458 15.501508 95 98 103
-148.17252 -66.69352 15.536166 95 102 103
-147.44125 -66.673431 15.498978 94 106 108
-147.33652 -66.758423 15.50144 68 80 77
-147.05382 -66.686256 15.57623 103 112 108
-146.88313 -66.654945 15.535859 114 118 123
-146.72769 -66.669464 15.507955 105 110 107
-146.53714 -66.704758 15.551187 120 122 118
-146.32767 -66.657936 15.4917 97 99 102
-146.06534 -66.68457 15.487733 107 106 112
-145.97888 -66.661522 15.54034 104 101 111
-145.72842 -66.711891 15.507656 114 115 121
-145.51797 -66.771217 15.470716 102 105 105
-145.29088 -66.762955 15.488042 103 103 107
-144.26112 -66.789108 15.408918 168 156 176
-144.14517 -66.76265 15.459209 156 136 154
-143.97386 -66.779022 15.467913 150 137 151
-152.06741 -66.448967 15.449009 79 90 86
-151.84673 -66.595116 15.464561 107 119 109
-151.65698 -66.570908 15.55607 75 85 83
-151.50371 -66.529617 15.561905 82 87 83
-151.39702 -66.52948 15.544481 74 75 79
-150.70862 -66.464386 15.467793 57 70 62
-150.4939 -66.516281 15.530861 80 92 87
-150.25031 -66.510811 15.520302 81 93 90
-150.03973 -66.487839 15.505473 99 110 109
-149.96577 -66.497437 15.556988 99 110 107
-148.85925 -66.459473 15.511128 116 120 115
-148.69994 -66.53833 15.546191 113 117 112
-148.49855 -66.476555 15.454957 110 114 109
-148.33354 -66.545082 15.484964 95 102 100
-148.12732 -66.556091 15.523607 99 106 107
-147.63258 -66.519035 15.494446 94 107 104
-147.52277 -66.50235 15.57172 97 109 106
-147.34256 -66.482925 15.592155 128 133 135
-147.0282 -66.452202 15.524566 105 110 111
-146.92984 -66.506454 15.455863 90 92 95
-146.71326 -66.480637 15.513754 142 148 154
-146.55707 -66.544785 15.459941 102 106 107
-146.3116 -66.488792 15.515262 131 128 131
-146.09137 -66.49205 15.541328 121 116 124
-145.90025 -66.545708 15.50309 97 95 106
-145.72493 -66.417801 15.43544 76 82 80
-144.246 -66.533577 15.406441 130 102 125
-152.73346 -66.265251 15.527913 60 73 74
-151.9332 -66.236412 15.476967 72 85 84
-151.62035 -66.306656 15.414402 81 83 85
-151.57426 -66.302788 15.538528 99 95 98
-151.33984 -66.202568 15.457106 81 81 83
-150.75804 -66.296288 15.437704 59 71 69
-150.55844 -66.36396 15.592156 78 88 85
-150.23322 -66.286758 15.44569 78 85 87
-150.09691 -66.29232 15.494159 85 97 95
-149.96558 -66.384872 15.476334 61 62 66
-149.03128 -66.219124 15.495537 129 135 129
-148.92252 -66.299263 15.447952 108 113 116
-148.75024 -66.290092 15.551717 107 113 114
-148.50102 -66.297836 15.490113 116 120 119
-148.31897 -66.276199 15.474429 118 124 121
-147.8819 -66.260834 15.464848 155 161 157
-147.67532 -66.273849 15.459135 125 133 131
-147.58778 -66.277397 15.497293 117 126 125
-147.32898 -66.295975 15.570522 114 120 122
-147.01251 -66.339737 15.508305 118 119 119
-146.93875 -66.293396 15.52739 112 113 115
-146.42682 -66.262268 15.456518 111 110 111
-146.33723 -66.365326 15.467886 101 103 108
-146.15305 -66.355804 15.507467 130 123 136
-145.96361 -66.318901 15.539936 106 111 116
-145.72263 -66.309692 15.477007 90 94 94
-151.83408 -66.117737 15.546939 67 78 76
-151.6609 -66.083015 15.526828 95 100 100
-150.41603 -66.133728 15.545187 127 128 126
-150.22491 -66.159424 15.532311 69 69 69
-150.04877 -66.107605 15.493761 92 104 101
-149.94141 -66.06781 15.515762 82 94 93
-149.03072 -66.13475 15.470678 143 145 144
-148.93048 -66.117645 15.499443 130 136 136
-148.65488 -66.074066 15.512169 104 106 102
-148.47787 -66.119888 15.493907 117 121 118
-148.28613 -66.153656 15.511806 140 146 147
-147.8567 -66.006187 15.496222 68 76 78
-147.64308 -66.113205 15.501854 130 135 134
-147.48366 -66.093376 15.489347 133 138 139
-147.287 -66.159882 15.541779 123 128 127
-146.88344 -66.071983 15.535771 124 128 129
-146.53271 -66.05175 15.485865 146 144 152
-146.29205 -66.149689 15.495761 125 124 131
-146.1064 -66.082062 15.520922 108 109 115
-145.9062 -66.114868 15.548807 119 117 129
-145.72461 -66.10775 15.480904 91 92 99
-145.53934 -66.133987 15.51975 93 92 98
-152.47372 -65.905289 15.553885 66 85 75
-151.9057 -65.924927 15.504062 81 93 90
-151.64662 -65.857346 15.576763 95 103 106
-150.99155 -65.842484 15.521011 56 68 68
-150.34386 -65.945656 15.503358 102 104 101
-150.11513 -65.91745 15.554716 156 153 157
-149.95479 -65.886368 15.457487 148 143 159
-149.76003 -65.853691 15.493838 102 114 120
-149.57346 -65.90242 15.439554 113 114 128
-149.01004 -65.995476 15.59222 165 165 167
-148.936 -65.961166 15.47283 157 159 161
-148.66431 -65.953476 15.546573 158 158 162
-148.50565 -65.930679 15.531136 135 130 135
-148.20566 -65.984634 15.432831 119 124 120
-148.0601 -65.837372 15.461819 145 149 144
-147.84572 -65.933792 15.528118 103 108 108
-147.72052 -65.950951 15.561695 89 92 92
-147.50333 -65.954865 15.51239 96 100 98
-147.35199 -65.907822 15.544649 134 137 139
-147.13853 -65.875381 15.460257 140 136 129
-146.97797 -65.93985 15.481049 89 88 90
-146.69807 -65.870193 15.502375 81 89 92
-146.46091 -65.980011 15.572594 99 99 99
-146.21945 -65.968689 15.576857 141 127 152
-146.07751 -65.960968 15.50161 112 103 115
-145.96289 -65.979996 15.527241 91 90 102
-145.75478 -65.900635 15.465824 142 134 157
-152.66873 -65.6418 15.486823 84 97 91
-152.5538 -65.737106 15.497375 92 108 102
-151.90596 -65.653389 15.56841 86 100 102
-151.68689 -65.661293 15.490297 97 103 102
-151.14954 -65.758896 15.498167 113 125 125
-150.94246 -65.643158 15.53731 74 84 84
-150.23453 -65.642746 15.462471 118 128 122
-150.08093 -65.753098 15.520584 127 126 142
-149.85283 -65.683197 15.495232 92 103 113
-149.72522 -65.660721 15.493126 105 117 129
-148.17712 -65.642052 15.596165 131 131 148
-147.93314 -65.766891 15.479243 124 130 135
-147.65903 -65.743629 15.571356 141 141 141
-147.47186 -65.735222 15.442573 130 131 133
-147.34863 -65.757767 15.4958 124 125 123
-146.80521 -65.755547 15.450408 149 134 135
-146.65456 -65.747612 15.526199 115 110 114
-144.49515 -65.62516 15.568291 113 109 112
-152.66086 -65.493523 15.453688 87 98 93
-152.51018 -65.502144 15.491967 84 98 96
-152.03932 -65.538673 15.467745 81 97 96
-151.87164 -65.519363 15.444818 103 104 110
-151.72473 -65.466827 15.469718 79 86 86
-151.48785 -65.444443 15.524235 85 94 94
-151.36349 -65.484772 15.522331 88 95 99
-151.02646 -65.482071 15.507391 80 83 86
-150.93695 -65.483002 15.557398 120 117 121
-150.29358 -65.471451 15.528985 124 134 138
-150.13152 -65.538826 15.472778 115 125 132
-149.88647 -65.491722 15.434527 82 94 104
-146.73209 -65.490196 15.473576 123 123 123
-146.42039 -65.400085 15.542581 140 138 141
-146.32349 -65.415108 15.474791 102 101 106
-146.10423 -65.503281 15.495358 136 126 139
-144.50697 -65.477333 15.561888 135 132 133
-152.64789 -65.323967 15.451647 108 122 121
-152.55695 -65.286201 15.518385 111 126 125
-152.28799 -65.251228 15.471137 98 109 110
-152.06956 -65.312172 15.427708 76 86 87
-151.85362 -65.297028 15.515604 96 101 104
-151.73825 -65.252731 15.498594 104 111 111
-151.56337 -65.346222 15.537102 98 109 102
-151.23051 -65.29274 15.553431 100 102 104
-151.08391 -65.310638 15.562029 123 122 126
-150.90085 -65.290482 15.545516 123 125 130
-150.69177 -65.209862 15.538179 129 135 145
-150.59744 -65.215881 15.40123 162 165 172
-150.3665 -65.30426 15.544498 102 110 114
-150.0116 -65.354584 15.452226 80 93 97
-146.35071 -65.362854 15.491413 128 130 131
-146.03737 -65.346008 15.451694 103 110 107
-145.99294 -65.306587 15.412933 116 116 116
-144.66911 -65.262924 15.5736 136 126 124
-144.48764 -65.297607 15.525397 112 105 108
-144.37645 -65.391556 15.515784 56 55 61
-152.6537 -65.1259 15.523069 112 123 126
-152.46051 -65.089523 15.526006 100 109 111
-152.3492 -65.053192 15.502275 119 125 122
-152.12204 -65.035744 15.521679 104 113 109
-151.84843 -65.066803 15.533062 101 108 107
-151.74605 -65.099518 15.531232 105 113 113
-151.06177 -65.065887 15.527259 125 125 131
-150.87482 -65.043503 15.489203 137 134 145
-150.74954 -65.139603 15.558396 158 159 173
-150.48088 -65.182457 15.525109 112 120 132
-146.10217 -65.040115 15.412374 69 79 80
-145.98535 -65.182114 15.512913 120 125 123
-153.32605 -64.858307 15.498294 114 121 128
-153.097 -64.846313 15.545865 123 136 156
-152.81201 -64.812088 15.591623 134 142 161
-152.64989 -64.92157 15.450653 130 138 146
-152.44113 -64.95575 15.498042 108 115 111
-152.23689 -64.923943 15.545376 119 126 124
-152.08517 -64.874077 15.470776 129 133 133
-151.84398 -64.945251 15.462896 116 122 124
-151.07199 -64.938416 15.538189 118 120 131
-150.96475 -64.939087 15.542085 155 154 165
-153.00349 -64.697578 15.419022 144 155 171
-152.92891 -64.644989 15.499533 145 148 169
-152.68314 -64.732216 15.508626 150 153 163
-152.56058 -64.613075 15.574007 136 134 145
-152.22676 -64.667831 15.557186 134 135 140
-152.10364 -64.661133 15.522139 160 159 167
-151.84683 -64.703079 15.532372 156 155 166
-151.23164 -64.694801 15.506471 116 127 122
-151.16342 -64.702942 15.523325 108 114 112
-145.65106 -64.71936 15.563822 169 161 170
-144.81387 -64.662643 15.57822 47 57 56
-152.81119 -64.497597 15.426273 158 161 176
-152.65216 -64.542473 15.50349 155 155 169
-152.58784 -64.578545 15.520344 171 170 175
-152.24599 -64.530548 15.484218 152 153 162
-152.16574 -64.558441 15.525383 148 148 155
-151.91943 -64.459656 15.451405 151 145 153
-151.76047 -64.548134 15.538749 153 150 160
-151.22928 -64.541428 15.465515 142 147 147
-151.08531 -64.445274 15.459431 125 125 130
-152.81476 -64.33812 15.424488 157 164 180
-152.67615 -64.391228 15.448133 159 152 162
-152.42059 -64.222595 15.461309 140 144 147
-152.27078 -64.332504 15.465523 119 120 125
-152.17557 -64.376854 15.491801 102 95 102
-151.84245 -64.300659 15.511454 169 167 178
-151.69841 -64.286987 15.538852 159 154 169
-151.51328 -64.292061 15.521568 167 169 174
-151.29439 -64.388382 15.507644 146 150 152
-151.16304 -64.344986 15.431847 169 165 171
-150.99652 -64.300026 15.565355 138 141 137
-152.71082 -64.167854 15.420654 137 140 155
-152.52026 -64.118965 15.518667 159 155 174
-151.8613 -64.177551 15.429599 156 158 167
-151.74702 -64.171432 15.531166 177 184 187
-151.44157 -64.177322 15.482586 161 167 168
-151.24411 -64.191513 15.431543 125 136 128
-152.50833 -63.99929 15.467158 160 157 168
-147.83299 -76.589958 15.759915 25 42 32
-147.4021 -76.443428 15.718157 52 60 53
-148.28456 -76.283783 15.626233 84 96 86
-148.04643 -76.252762 15.794473 46 54 57
-147.82936 -76.27504 15.708746 141 146 149
-147.6862 -76.25618 15.705415 101 102 101
-147.54535 -76.288429 15.71224 114 119 115
-148.43346 -76.191422 15.768241 96 112 99
-148.23276 -76.101242 15.738325 65 79 72
-148.12479 -76.086899 15.691311 94 96 89
-147.8754 -76.04287 15.622576 114 123 123
-147.71359 -76.13356 15.707499 168 164 168
-149.35168 -75.876892 15.690812 58 75 69
-148.47632 -75.839905 15.69866 166 165 179
-148.28789 -75.859177 15.769516 80 88 82
-148.14966 -75.953201 15.752424 137 132 139
-147.92905 -75.927475 15.680559 86 96 94
-149.52029 -75.654648 15.692395 66 79 83
-149.27031 -75.656647 15.756275 125 133 138
-149.15817 -75.671387 15.699043 94 102 104
-148.44928 -75.702354 15.75847 78 85 83
-148.31741 -75.676682 15.745558 93 100 98
-148.02148 -75.701401 15.79254 77 85 83
-147.83018 -75.719307 15.756344 129 130 131
-149.82941 -75.516045 15.622366 61 70 70
-149.69569 -75.409225 15.664301 60 71 68
-149.52309 -75.453667 15.794791 69 79 78
-149.08099 -75.46891 15.706597 77 87 89
-148.75903 -75.438515 15.613111 80 90 91
-148.52432 -75.51165 15.76074 86 96 93
-148.38383 -75.451996 15.7042 86 92 88
-147.80771 -75.430664 15.764103 126 124 125
-149.66563 -75.31488 15.687077 56 69 68
-149.51186 -75.268639 15.657841 62 74 68
-149.30222 -75.301575 15.710926 72 83 79
-149.0853 -75.351364 15.678235 87 97 97
-148.99188 -75.338226 15.769671 79 88 91
-148.64304 -75.255623 15.665962 86 96 93
-148.56009 -75.28627 15.743122 109 117 117
-148.33488 -75.319336 15.753941 98 103 101
-148.0791 -75.289818 15.722888 88 88 93
-149.8243 -75.070335 15.673656 52 65 60
-149.72046 -75.11602 15.730976 68 80 78
-149.43588 -75.033188 15.720328 69 82 80
-149.31435 -75.03949 15.623111 62 77 77
-149.10443 -75.059814 15.692746 87 97 95
-148.91818 -75.062714 15.63962 75 80 84
-148.71863 -75.157005 15.693494 88 96 94
-148.44296 -75.179031 15.755531 108 115 114
-148.26933 -75.143921 15.744011 100 106 103
-148.19022 -75.198051 15.613327 80 75 81
-147.42938 -75.002525 15.737305 75 79 83
-147.27441 -75.037872 15.666645 111 114 125
-147.12543 -75.048409 15.68748 74 77 82
-149.89211 -74.866516 15.728069 64 74 72
-149.7076 -74.900757 15.744829 67 78 75
-149.47638 -74.883209 15.665295 80 92 89
-149.36902 -74.862671 15.714769 79 90 88
-149.05908 -74.885941 15.688666 80 88 87
-148.9079 -74.93129 15.73679 98 107 105
-148.41829 -74.985649 15.737307 105 97 108
-147.4404 -74.903671 15.648802 116 118 127
-147.34258 -74.903244 15.717854 130 128 140
-147.13918 -74.916969 15.736371 114 110 119
-150.45738 -74.659653 15.707697 44 53 48
-149.89627 -74.643799 15.769768 98 112 109
-149.70731 -74.728813 15.698566 88 99 99
-149.52567 -74.717354 15.709437 82 94 88
-149.31181 -74.670441 15.724145 81 90 91
-149.09714 -74.680717 15.695995 88 98 96
-148.91975 -74.715126 15.709819 109 116 115
-148.77789 -74.628899 15.726345 111 117 113
-147.51736 -74.706558 15.660923 144 142 151
-147.27977 -74.769264 15.736753 117 115 121
-147.11557 -74.796906 15.668224 122 124 123
-146.76375 -74.641068 15.782278 135 129 131
-146.50919 -74.67762 15.677361 93 91 99
-146.33759 -74.726082 15.65337 77 84 84
-146.00113 -74.688889 15.780443 130 135 131
-145.85158 -74.645966 15.672512 79 82 87
-150.45341 -74.484909 15.743099 63 75 71
-150.03159 -74.435867 15.779831 183 185 200
-149.83804 -74.543808 15.751379 81 90 96
-149.74495 -74.500458 15.731022 54 63 62
-149.48666 -74.483582 15.713493 85 91 95
-149.33661 -74.542557 15.70078 91 96 97
-149.0703 -74.515213 15.701971 89 94 97
-148.91 -74.45166 15.711637 104 108 107
-148.72035 -74.50502 15.711318 102 107 108
-147.51843 -74.565208 15.780344 106 107 113
-146.80333 -74.423943 15.673944 85 84 88
-146.67575 -74.543762 15.728894 104 105 109
-146.49535 -74.449966 15.669273 111 108 116
-146.30423 -74.503754 15.684736 99 102 106
-146.04561 -74.418617 15.618039 105 108 113
-145.85977 -74.546883 15.749792 114 115 124
-145.71179 -74.503189 15.657282 115 117 126
-150.43501 -74.215988 15.740761 90 101 103
-150.33313 -74.247749 15.678537 112 121 121
-150.14648 -74.241783 15.71053 75 85 84
-149.86081 -74.259003 15.655951 81 85 87
-149.67331 -74.285538 15.69379 83 84 90
-149.52942 -74.253197 15.698734 82 82 91
-149.32596 -74.266937 15.741746 84 93 92
-149.14114 -74.324783 15.694115 112 118 121
-148.92072 -74.335312 15.671687 101 105 102
-148.74117 -74.323898 15.705051 102 98 103
-147.02074 -74.384056 15.630125 70 77 71
-146.91306 -74.248634 15.683924 85 92 91
-146.67685 -74.294426 15.699261 91 94 98
-146.50439 -74.331657 15.71181 104 106 110
-146.26619 -74.31543 15.710982 128 125 132
-146.06857 -74.262703 15.615376 99 102 109
-145.85126 -74.227814 15.671559 115 114 122
-145.75818 -74.237961 15.742117 85 91 100
-151.02486 -74.149834 15.645079 74 78 77
-150.87082 -74.027466 15.602738 86 89 94
-150.7305 -74.127937 15.607101 81 88 88
-150.41013 -74.166306 15.710691 85 98 99
-150.28978 -74.143822 15.677875 94 103 104
-150.06322 -74.036156 15.743649 80 91 92
-149.89963 -74.048912 15.760878 68 73 73
-149.67276 -74.089783 15.709746 73 74 80
-149.5434 -74.165298 15.699282 87 88 96
-149.31616 -74.095634 15.676232 96 103 102
-149.13234 -74.143097 15.679081 95 99 103
-148.96674 -74.150711 15.760073 134 135 146
-147.95029 -74.027786 15.742476 64 61 56
-147.68822 -74.116882 15.793596 117 118 120
-146.93642 -74.107185 15.691064 108 112 114
-146.6701 -74.172554 15.640097 92 97 102
-146.54353 -74.154716 15.73307 104 109 114
-146.28729 -74.105118 15.708366 97 99 106
-146.08743 -74.104752 15.715033 112 115 123
-145.92393 -74.130692 15.692944 97 100 112
-145.72476 -74.188141 15.683449 90 93 104
-150.8586 -73.902512 15.703419 101 100 106
-150.67014 -73.837753 15.641203 94 94 100
-150.4776 -73.903084 15.672676 94 100 104
-150.06143 -73.891052 15.70114 82 90 90
-149.93967 -73.908852 15.71805 103 100 109
-149.71689 -73.920143 15.694421 111 109 112
-149.46634 -73.869499 15.659192 91 97 98
-149.34695 -73.980942 15.655436 126 127 132
-149.10312 -73.950996 15.771849 109 113 124
-148.02814 -73.921303 15.715536 75 75 70
-147.84821 -73.899597 15.749764 110 112 117
-147.61133 -73.881927 15.703808 79 87 84
-147.52692 -73.849686 15.673151 105 111 113
-146.83553 -73.959068 15.770583 83 81 84
-146.7621 -73.948975 15.718258 108 105 116
-146.4487 -73.978745 15.726805 96 100 104
-146.30409 -73.869331 15.703272 97 100 104
-146.16321 -73.83905 15.65905 117 118 122
-145.95355 -73.874893 15.705484 104 106 113
-150.85223 -73.735313 15.741186 101 101 109
-150.67696 -73.662453 15.655789 90 89 93
-150.04868 -73.743912 15.68951 78 84 83
-149.8826 -73.68959 15.686233 109 110 114
-149.66924 -73.749344 15.682304 77 78 79
-149.4442 -73.71257 15.768087 101 106 111
-149.35294 -73.761444 15.757259 80 89 87
-149.06744 -73.782791 15.752731 83 86 87
-148.20236 -73.634315 15.692938 110 116 114
-148.10788 -73.774376 15.712501 99 99 97
-147.69376 -73.728493 15.754324 87 94 92
-147.46461 -73.685638 15.686333 83 93 92
-147.25723 -73.682579 15.639076 75 85 83
-147.15524 -73.62326 15.614867 117 115 115
-146.93292 -73.7276 15.676691 70 75 75
-146.40694 -73.691811 15.644172 100 107 113
-146.35255 -73.675262 15.630167 94 102 104
-146.06313 -73.735344 15.675643 115 117 124
-150.83542 -73.511826 15.623049 128 120 128
-150.71329 -73.539276 15.666732 129 126 131
-150.08224 -73.472046 15.644213 72 77 75
-149.91785 -73.478531 15.690481 90 94 92
-149.76706 -73.500885 15.737 84 91 88
-149.55231 -73.457008 15.718796 93 94 94
-148.62224 -73.570847 15.798014 72 75 77
-148.51598 -73.496376 15.742775 80 87 86
-148.35536 -73.472252 15.753263 70 81 75
-148.12091 -73.516136 15.705877 79 86 82
-147.88367 -73.476013 15.663368 67 77 71
-147.69026 -73.521912 15.740203 78 91 85
-147.49615 -73.522163 15.718239 95 109 103
-147.29932 -73.512619 15.638677 105 112 113
-147.15735 -73.483719 15.681877 82 91 91
-146.97446 -73.558685 15.707932 94 98 100
-146.47189 -73.487793 15.674086 93 100 103
-146.31897 -73.538239 15.707344 116 120 119
-146.05402 -73.515213 15.651424 109 115 116
-145.88232 -73.438538 15.710526 107 115 117
