ply
format ascii 1.0
comment PCL generated
element vertex 1105
property float x
property float y
property float z
property uchar red
property uchar green
property uchar blue
element face 0
element camera 0
property float view_px
property float view_py
property float view_pz
property float x_axisx
property float x_axisy
property float x_axisz
property float y_axisx
property float y_axisy
property float y_axisz
property float z_axisx
property float z_axisy
property float z_axisz
property float focal
property float scalex
property float scaley
property float centerx
property float centery
property int viewportx
property int viewporty
property float k1
property float k2
end_header
-108.50784 -66.696922 25.091475 151 152 149
-108.29792 -66.64135 25.044954 186 177 182
-108.10742 -66.649094 25.177223 103 103 106
-113.84118 -66.461411 25.088366 173 170 173
-113.69646 -66.501884 25.11657 162 158 162
-113.50053 -66.491768 25.089535 155 162 162
-113.31441 -66.482872 25.12505 142 150 152
-113.11929 -66.552338 25.113024 195 197 209
-112.08116 -66.498589 25.120935 81 87 80
-111.91596 -66.491089 25.139982 82 85 79
-111.71151 -66.46682 25.084564 95 102 91
-111.56641 -66.558281 25.087242 88 88 86
-111.32094 -66.461899 25.09676 100 106 100
-109.30753 -66.552528 25.127707 149 144 144
-109.0563 -66.474709 25.178715 122 121 121
-108.8764 -66.513245 25.135372 117 118 115
-108.69229 -66.508453 25.173737 149 146 145
-108.50065 -66.495705 25.128359 142 144 143
-108.31946 -66.506134 25.130461 156 154 155
-113.86467 -66.283119 25.077518 134 132 130
-113.68459 -66.319618 25.131186 155 152 156
-113.52149 -66.27858 25.10985 147 149 149
-113.37705 -66.221466 25.164413 119 124 121
-112.01538 -66.302414 25.166721 101 107 103
-111.91484 -66.256912 25.109343 77 85 78
-111.73125 -66.313187 25.11054 82 88 81
-111.46983 -66.343651 25.090469 105 112 105
-111.34742 -66.342575 25.108595 83 91 82
-109.12366 -66.352379 25.157368 108 100 98
-108.89526 -66.326073 25.17415 110 113 109
-108.65656 -66.270706 25.136492 134 136 134
-108.4973 -66.311172 25.112347 159 157 160
-108.33514 -66.311554 25.048677 153 153 156
-113.88879 -66.064491 25.057148 163 169 173
-113.70447 -66.102219 25.105734 137 140 140
-113.48292 -66.114967 25.118851 129 134 133
-113.36665 -66.113358 25.121824 116 122 118
-111.90002 -66.159836 25.101778 69 79 73
-111.68483 -66.124741 25.130764 76 82 75
-111.5116 -66.088188 25.102596 75 82 76
-111.39534 -66.132248 25.194622 103 108 104
-111.05964 -66.19297 25.146622 66 73 65
-109.42606 -66.075119 25.15958 125 117 125
-109.30236 -66.181221 25.165312 138 135 136
-108.83262 -66.144112 25.168259 95 103 96
-108.68545 -66.131775 25.092691 121 125 124
-108.55215 -66.184265 25.145441 155 155 159
-114.06297 -65.839157 25.037495 178 168 174
-113.89199 -65.887794 25.09692 148 151 153
-113.69704 -65.874542 25.094044 139 142 144
-113.51057 -65.906914 25.097734 126 129 129
-113.21602 -65.890411 25.089306 174 175 167
-113.16167 -65.859215 25.153492 101 103 100
-111.872 -65.969803 25.154528 107 106 102
-111.70773 -65.877907 25.119505 78 85 79
-111.48495 -65.920166 25.078201 79 88 80
-111.26582 -65.951111 25.065882 52 62 50
-110.83189 -65.868134 25.090151 64 69 61
-110.70514 -65.831757 25.123375 78 83 71
-110.56714 -65.826927 25.057886 66 72 62
-108.81195 -65.923027 25.157587 115 124 115
-108.72205 -65.924637 25.087269 118 123 117
-108.49659 -65.917007 25.06242 119 124 122
-114.29668 -65.62114 25.001469 157 157 166
-114.09106 -65.692352 25.089687 161 158 162
-113.89926 -65.691193 25.094175 155 149 153
-113.68484 -65.688408 25.104364 131 131 130
-113.51391 -65.701096 25.102032 123 127 126
-113.29965 -65.673485 25.105997 93 101 94
-113.18412 -65.609627 25.195637 156 162 162
-111.55381 -65.71859 25.1404 57 70 57
-111.29885 -65.735046 25.141708 63 71 62
-111.13965 -65.673065 25.081661 47 60 44
-110.73232 -65.764267 25.076633 67 70 63
-108.89249 -65.626144 25.084822 108 114 109
-108.68539 -65.72216 25.12491 139 141 139
-114.86953 -65.439606 25.033548 101 107 97
-114.78013 -65.478142 25.011841 113 121 117
-114.49695 -65.507751 25.024857 155 163 160
-114.26445 -65.472534 25.04121 156 166 168
-114.07908 -65.479706 25.084606 126 131 130
-113.89488 -65.515388 25.098398 156 151 155
-113.68725 -65.492325 25.099127 116 119 112
-113.50746 -65.507469 25.08317 105 108 106
-113.31055 -65.532448 25.083275 92 99 95
-113.17581 -65.456398 25.176107 77 81 80
-111.70337 -65.570503 25.051144 75 81 71
-111.59705 -65.456757 25.068792 46 58 47
-110.62212 -65.425232 25.005768 56 63 55
-110.33487 -65.439484 25.148125 97 98 93
-110.04319 -65.40126 25.146645 70 78 68
-108.85254 -65.522232 25.079655 99 103 97
-108.71989 -65.57634 25.082891 139 141 139
-108.27426 -65.433372 25.030186 131 132 136
-108.15636 -65.492722 25.021391 87 93 91
-103.34976 -65.426651 25.19986 118 114 111
-115.06264 -65.347107 25.175709 51 50 48
-114.24474 -65.26889 25.057112 160 162 163
-114.07707 -65.288048 25.083817 144 145 149
-113.9417 -65.312393 25.106882 156 154 161
-113.67953 -65.33252 25.104982 106 112 105
-113.50132 -65.30619 25.113295 98 101 98
-113.30674 -65.275116 25.089033 81 84 79
-113.1241 -65.340729 25.099327 115 118 119
-110.90769 -65.254204 25.118256 56 67 57
-110.69984 -65.250336 25.068043 59 65 58
-110.066 -65.31118 25.080843 70 79 71
-109.82554 -65.201233 25.151876 119 130 122
-108.47256 -65.249443 25.133673 109 111 111
-108.31767 -65.267311 25.090782 120 121 121
-108.14351 -65.25753 25.063089 129 129 127
-114.25808 -65.07756 25.089828 164 163 163
-114.1205 -65.129257 25.096653 160 162 165
-113.92954 -65.098412 25.099638 151 148 152
-110.51608 -65.097404 25.084227 54 62 55
-110.32867 -65.049446 25.134142 72 82 77
-108.43637 -65.023857 25.199671 125 130 136
-108.27294 -65.111458 25.097038 134 133 132
-108.13335 -65.112106 25.065456 145 143 143
-105.47831 -65.047211 25.132332 159 150 161
-105.36658 -65.060921 25.053158 124 122 128
-104.42017 -65.01339 25.085569 166 168 165
-104.28851 -65.070175 25.102972 100 105 104
-104.16521 -65.11512 25.157818 70 69 61
-114.72379 -64.809418 25.014713 115 128 119
-114.22172 -64.931747 25.107819 107 113 115
-114.09451 -64.905098 25.084261 133 141 148
-113.9016 -64.915489 25.099594 149 145 149
-113.75524 -64.809898 25.068371 187 186 194
-113.52342 -64.99691 25.174534 93 100 97
-111.71549 -64.848846 25.051601 60 68 57
-110.2616 -64.941772 25.067022 61 73 64
-110.14092 -64.889572 25.123499 63 73 65
-109.93822 -64.810883 25.089844 55 65 56
-108.41932 -64.885674 25.156271 119 120 121
-108.28599 -64.906258 25.100748 138 136 138
-108.13106 -64.892891 25.070787 129 127 127
-107.96108 -64.882996 25.006905 72 81 80
-105.45458 -64.887672 25.048273 136 136 142
-105.34034 -64.929337 25.027573 129 129 133
-104.95338 -64.895851 25.125919 150 145 152
-104.4649 -64.909561 25.083153 127 127 136
-104.37077 -64.957016 25.11203 133 137 145
-115.01715 -64.698486 25.081074 84 96 82
-114.81615 -64.626945 25.036419 61 71 70
-114.68694 -64.638626 25.086409 83 91 91
-114.49286 -64.698647 25.099014 139 151 150
-114.27634 -64.677185 25.089491 138 147 148
-114.11636 -64.703362 25.085041 120 129 132
-113.90839 -64.690948 25.08219 132 129 132
-113.75542 -64.732018 25.066135 125 125 129
-111.22415 -64.799393 25.044886 69 70 65
-110.96786 -64.699562 25.050041 71 85 72
-110.10732 -64.764381 25.141533 75 83 72
-108.464 -64.687218 25.130936 121 121 119
-108.33492 -64.747597 25.096779 134 133 133
-106.2295 -64.639587 25.065893 130 131 137
-106.10976 -64.674423 25.074383 123 125 128
-105.92328 -64.689919 25.06114 100 106 106
-105.68578 -64.726089 25.139988 154 152 163
-105.46766 -64.671158 25.083546 138 138 144
-105.29652 -64.70488 25.070799 129 130 135
-105.12894 -64.700844 25.080952 129 128 132
-104.93267 -64.710663 25.069794 135 136 137
-104.70469 -64.66066 25.078989 120 123 124
-104.54939 -64.718735 25.1031 139 139 143
-115.03226 -64.469879 25.083889 166 170 166
-114.87222 -64.497932 25.091778 157 158 156
-114.69684 -64.542885 25.070797 134 138 140
-114.48274 -64.493759 25.095064 154 152 156
-114.32675 -64.51384 25.069202 144 145 150
-114.09412 -64.481003 25.100138 134 133 135
-113.91782 -64.497177 25.073967 120 119 119
-111.07616 -64.403008 25.088919 66 74 63
-110.9632 -64.483322 25.115089 56 67 56
-110.77065 -64.463737 25.144268 81 89 81
-109.85776 -64.49649 25.068001 53 63 55
-109.77499 -64.424675 25.095081 63 66 61
-108.76778 -64.49588 25.176975 113 117 114
-108.47277 -64.50222 25.115093 109 110 108
-108.31751 -64.460327 25.088949 167 164 173
-108.07671 -64.481575 25.041838 135 135 139
-107.88261 -64.478882 25.031277 106 109 104
-107.72529 -64.449539 25.02622 83 85 82
-106.24432 -64.470345 25.084867 127 127 133
-106.12541 -64.516907 25.073904 118 119 125
-105.86333 -64.458481 25.079872 111 116 116
-105.70483 -64.461433 25.074253 105 111 109
-105.50579 -64.502045 25.092312 108 113 114
-105.32456 -64.470474 25.074492 91 95 94
-105.13061 -64.516602 25.093325 97 102 103
-104.94023 -64.506317 25.07744 91 98 94
-104.70537 -64.529373 25.084852 117 123 121
-104.59938 -64.595024 25.024139 147 151 149
-114.66376 -64.336235 25.078192 126 134 128
-114.47951 -64.328903 25.107426 158 161 166
-114.30553 -64.285103 25.102392 128 135 140
-114.10678 -64.319084 25.14469 142 141 145
-113.92028 -64.301598 25.087826 113 116 113
-113.69515 -64.256332 25.098778 128 129 131
-113.58046 -64.217354 25.064732 124 123 124
-111.27366 -64.248596 25.125128 54 65 51
-111.06319 -64.295944 25.093513 69 78 66
-110.9198 -64.301399 25.068674 68 76 67
-110.64643 -64.329269 25.1283 78 85 79
-110.51344 -64.293411 25.068926 79 86 80
-110.37063 -64.375374 25.055485 138 142 143
-109.83829 -64.299255 25.133284 69 70 66
-109.77871 -64.327606 25.021881 98 97 95
-108.62929 -64.272491 25.041927 135 136 131
-108.47682 -64.29483 25.135025 127 123 128
-108.34129 -64.282532 25.07095 133 128 130
-108.0854 -64.343445 25.122093 134 132 134
-107.919 -64.262665 25.098654 145 143 146
-106.4224 -64.259087 25.009266 105 109 108
-106.28919 -64.298035 25.080088 119 123 128
-106.09627 -64.299049 25.077084 119 125 130
-105.92771 -64.321838 25.103857 126 129 135
-105.68307 -64.328339 25.127197 117 119 121
-105.48306 -64.301888 25.119652 103 106 107
-105.31128 -64.311028 25.078398 79 87 84
-105.169 -64.316315 25.042681 87 94 91
-117.22562 -64.055847 25.132961 160 163 170
-114.66232 -64.054337 25.077564 147 146 150
-114.4946 -64.092506 25.096409 135 143 151
-114.31895 -64.124382 25.105864 127 138 138
-114.09245 -64.131935 25.111353 142 142 143
-113.92508 -64.116287 25.079466 103 108 103
-113.67915 -64.086853 25.090708 113 117 116
-113.52525 -64.12468 25.084452 102 105 105
-111.47393 -64.056801 25.073875 44 50 45
-111.32117 -64.077492 25.015831 71 79 68
-111.09659 -64.142509 25.12219 59 66 58
-110.89435 -64.108521 25.161636 67 73 64
-110.70741 -64.099518 25.104641 81 82 83
-110.54206 -64.136497 25.113703 81 85 80
-110.37423 -64.142242 25.178921 97 105 104
-110.09869 -64.010239 25.113327 93 92 95
-109.88618 -64.107346 25.139324 74 73 74
-108.85835 -64.108978 25.068779 104 104 102
-108.64846 -64.044159 25.086277 132 128 128
-108.5275 -64.088821 25.08419 121 120 121
-108.30944 -64.082504 25.102018 125 124 124
-108.05853 -64.137543 25.072151 149 149 147
-107.8876 -64.096313 25.088778 101 101 101
-107.78189 -64.132584 25.065788 140 137 134
-106.45009 -64.04245 25.115017 127 127 133
-106.30259 -64.141388 25.107246 108 112 117
-106.14127 -64.154579 25.080063 103 110 112
-105.87788 -64.188873 25.166519 135 135 143
-105.72773 -64.157059 25.156963 115 116 116
-105.50346 -64.150993 25.184544 110 110 111
-105.31441 -64.127449 25.126831 91 98 96
-105.15953 -64.153923 25.005074 72 82 75
-117.24694 -63.884785 25.030413 190 192 194
-117.08759 -63.93877 25.044466 127 130 126
-115.19547 -63.919266 25.057779 160 158 156
-114.8451 -63.890976 25.096594 134 136 136
-114.67702 -63.900681 25.093916 177 170 177
-114.52403 -63.902447 25.083645 144 145 147
-114.30378 -63.900967 25.081352 113 121 119
-114.11613 -63.857365 25.0695 107 107 103
-113.91688 -63.864944 25.055159 105 107 106
-113.69895 -63.870239 25.079008 141 140 145
-113.55219 -63.817719 25.040442 127 127 129
-112.70068 -63.835777 25.118916 75 85 78
-110.11024 -63.846638 25.074593 81 78 84
-109.9192 -63.995846 25.123072 61 57 58
-109.11147 -63.829056 25.145094 137 135 137
-108.98239 -63.910988 25.09573 104 104 99
-108.70182 -63.867485 25.101604 136 131 127
-108.4847 -63.934723 25.083405 132 129 129
-108.31515 -63.933125 25.080017 112 113 112
-108.14909 -63.961033 25.060907 146 141 136
-107.91301 -63.966137 25.059521 136 135 133
-106.4837 -63.883148 25.078947 113 117 118
-106.36804 -63.910839 25.081629 130 136 136
-106.02499 -63.957867 25.192196 113 107 113
-105.72672 -63.823071 25.087746 92 97 92
-105.4147 -63.912968 25.18277 99 104 103
-105.3915 -63.980618 25.152527 77 84 85
-117.21185 -63.652081 25.097818 146 148 143
-117.06298 -63.646851 25.196737 111 114 104
-116.25323 -63.734596 25.044498 135 141 131
-116.16429 -63.674374 25.046741 125 127 116
-114.87615 -63.680168 25.06064 126 130 130
-114.70852 -63.691666 25.112907 149 149 155
-114.50236 -63.693005 25.089182 136 140 141
-114.2959 -63.672607 25.121538 122 120 120
-114.11262 -63.708511 25.12627 126 123 121
-113.91653 -63.71167 25.076187 96 99 92
-113.70129 -63.706619 25.086061 140 138 139
-113.50794 -63.674992 25.101139 142 136 137
-113.14805 -63.7897 25.134716 77 79 74
-112.72455 -63.72414 25.131588 59 68 58
-112.4345 -63.689137 25.130493 110 117 109
-112.36263 -63.787811 25.026161 176 176 174
-111.45525 -63.774269 25.10495 70 75 68
-110.10866 -63.656239 25.198448 113 113 111
-109.23792 -63.682159 25.113285 137 134 136
-109.09593 -63.684338 25.078344 124 123 125
-108.7206 -63.685242 25.15242 149 142 145
-108.38271 -63.700596 25.05489 104 106 103
-106.47894 -63.706932 25.103893 121 125 126
-106.31978 -63.6563 25.153105 112 113 112
-106.09003 -63.641441 25.093266 144 133 135
-105.88602 -63.66901 25.123413 117 116 112
-105.67344 -63.662132 25.11986 81 89 83
-105.54951 -63.662876 25.111897 79 87 81
-117.42801 -63.437572 25.043026 198 196 206
-117.34235 -63.419281 25.036339 165 164 162
-114.88569 -63.527058 25.053888 153 152 151
-114.67049 -63.55302 25.080044 135 138 140
-114.5 -63.519547 25.103325 106 110 112
-114.30408 -63.498035 25.11248 161 152 159
-114.03687 -63.461758 25.18025 156 149 141
-113.90359 -63.490322 25.102802 113 111 105
-113.69427 -63.48991 25.101349 112 114 112
-113.47021 -63.476231 25.098549 132 127 126
-113.38024 -63.467632 25.106407 115 111 110
-113.12511 -63.424259 25.128647 94 94 93
-112.45791 -63.469807 25.055939 119 123 124
-112.31114 -63.554859 25.066383 74 78 71
-110.70337 -63.429577 25.095783 89 95 93
-110.48349 -63.453396 25.101793 119 125 125
-110.30196 -63.448383 25.09086 105 112 113
-110.13148 -63.417526 25.046637 121 125 125
-109.86488 -63.417629 25.074905 120 125 130
-109.73039 -63.45039 25.067419 142 143 146
-109.49581 -63.483818 25.054586 98 98 98
-109.33606 -63.422821 25.097015 147 151 154
-109.1416 -63.433926 25.148548 153 149 152
-108.90918 -63.565258 25.09309 131 128 124
-108.63558 -63.491249 25.063103 122 126 127
-108.5071 -63.44902 25.039705 68 73 72
-106.69048 -63.466915 25.118898 88 94 93
-106.4743 -63.495331 25.104708 100 103 102
-106.3099 -63.520309 25.097588 97 98 94
-106.14484 -63.472729 25.093447 97 95 91
-105.9218 -63.501305 25.085094 71 75 70
-105.68104 -63.503391 25.125582 69 78 70
-105.53072 -63.514294 25.084627 72 80 75
-117.33622 -63.315174 25.033327 162 160 159
-116.27332 -63.281158 25.060013 119 128 125
-116.19998 -63.263062 25.094816 114 127 120
-115.98684 -63.270885 25.001846 103 118 99
-114.64869 -63.277832 25.056944 127 128 126
-114.49136 -63.281452 25.082945 146 142 145
-114.30465 -63.291092 25.117825 156 147 153
-114.12611 -63.277203 25.112036 153 142 143
-113.91881 -63.30983 25.072075 107 105 103
-113.69672 -63.29002 25.123072 106 106 105
-113.48282 -63.307728 25.083227 96 97 91
-113.30427 -63.284016 25.093863 113 112 111
-113.09669 -63.263672 25.116505 116 115 114
-112.89945 -63.232727 25.149616 137 135 133
-112.73817 -63.200104 25.143864 114 106 103
-112.49566 -63.282299 25.094273 93 96 95
-112.32916 -63.298412 25.138794 95 98 93
-112.14818 -63.328651 25.111429 105 105 100
-110.82674 -63.311367 25.189262 86 90 85
-110.69173 -63.292492 25.110811 91 97 92
-110.5389 -63.307545 25.105532 102 105 102
-110.23061 -63.375504 25.121429 104 106 107
-110.08051 -63.318836 25.140739 111 115 111
-109.91381 -63.332584 25.112385 121 125 125
-109.70791 -63.318787 25.066776 150 148 149
-109.47345 -63.345802 25.068413 111 109 113
-108.89784 -63.282036 25.090893 131 129 131
-108.70292 -63.339821 25.152485 97 99 100
-108.49982 -63.256111 25.064764 85 93 95
-106.82228 -63.323891 25.174196 139 143 145
-106.70462 -63.280521 25.100433 102 106 107
-106.50905 -63.307274 25.09713 107 109 107
-106.30032 -63.276855 25.109999 101 101 99
-106.1123 -63.321884 25.171953 92 94 87
-105.90697 -63.257957 25.107994 66 70 63
-105.68464 -63.313789 25.112759 63 71 65
-105.57373 -63.336323 25.108953 84 92 88
-118.41544 -63.009071 25.121159 171 174 183
-118.32563 -63.078156 25.094778 143 151 155
-118.1096 -63.051666 25.094139 117 129 131
-116.22456 -63.163132 25.018986 109 119 111
-116.10683 -63.116703 25.006763 78 89 79
-115.92249 -63.117691 25.020733 98 108 98
-115.71191 -63.046059 25.090298 132 137 128
-114.64584 -63.122856 25.079098 132 133 134
-114.5013 -63.147648 25.116583 144 140 142
-114.29765 -63.103058 25.109018 151 142 142
-114.11812 -63.127964 25.114729 127 128 127
-113.89936 -63.118019 25.106413 113 113 112
-113.67869 -63.084946 25.111973 113 114 114
-113.50354 -63.086517 25.106747 141 136 138
-113.31603 -63.100876 25.146322 108 108 106
-113.11265 -63.096973 25.112904 107 107 103
-112.92426 -63.083691 25.112293 97 97 93
-112.67923 -63.169701 25.146179 122 120 118
-112.20149 -63.094601 25.025146 60 63 54
-112.07299 -63.084846 25.08688 102 98 89
-111.11137 -63.03669 25.079851 122 123 128
-110.88763 -63.122631 25.07551 92 98 97
-110.68615 -63.14114 25.091925 94 99 99
-110.54745 -63.118248 25.097187 92 98 98
-108.87848 -63.1703 25.160402 82 89 91
-108.70742 -63.107079 25.105669 105 108 109
-108.57043 -63.159435 25.08309 96 100 100
-106.6697 -63.115967 25.087109 110 109 108
-106.52441 -63.122944 25.090364 105 104 104
-106.32211 -63.102711 25.110386 98 101 98
-106.09422 -63.126488 25.115644 83 86 81
-105.86096 -63.081463 25.145168 71 77 73
-105.68818 -63.105618 25.115814 75 82 80
-105.54617 -63.086395 25.09252 84 91 85
-105.02717 -63.11586 25.197277 68 80 70
-104.75433 -63.020054 25.025137 120 130 125
-118.48174 -62.918869 25.051228 169 172 179
-118.33449 -62.938953 25.084402 118 128 125
-116.64394 -62.844482 25.102041 137 141 138
-116.48916 -62.898312 25.12715 151 150 149
-116.34384 -62.87254 25.109947 110 117 111
-115.83891 -62.939732 25.054569 86 96 86
-115.67132 -62.879547 25.056305 120 129 119
-115.56362 -62.948334 25.035131 128 136 126
-114.50486 -62.917522 25.084747 105 116 107
-114.29785 -62.933582 25.061476 103 108 109
-114.05526 -62.918983 25.083878 94 97 95
-113.87138 -62.908619 25.079432 109 109 102
-113.7035 -62.926994 25.117973 101 101 97
-113.49409 -62.914398 25.119331 123 120 120
-113.31082 -62.92033 25.097704 110 110 109
-113.11188 -62.905094 25.07551 98 98 95
-112.91768 -62.878658 25.07435 101 102 97
-112.70811 -62.995499 25.100533 92 91 85
-111.26508 -62.910309 25.10037 107 111 112
-111.13358 -62.875195 25.069468 105 105 106
-110.8831 -62.897339 25.092621 88 95 94
-110.67758 -62.924549 25.076815 96 106 107
-110.53609 -62.925011 25.038082 93 101 104
-110.23317 -62.830708 25.124859 83 91 93
-110.18899 -62.823658 25.028442 105 117 117
-109.88992 -62.932961 25.070112 141 150 147
-109.67344 -62.957439 25.144184 82 86 87
-109.53257 -62.856857 25.087927 132 127 135
-109.20662 -62.981941 25.175377 79 77 78
-109.00615 -62.883064 25.188211 155 154 152
-108.94935 -62.874245 25.192329 68 75 81
-108.56799 -62.907196 25.044319 88 99 101
-108.20853 -62.843433 25.072813 103 101 104
-108.07522 -62.887318 25.063471 106 111 108
-107.95842 -62.852226 25.065132 96 100 99
-107.7385 -62.87883 25.075344 89 94 97
-107.45492 -62.877823 25.103052 123 125 129
-107.34148 -62.858578 25.042475 100 103 104
-107.19122 -62.81324 25.026642 72 74 69
-106.99894 -62.991917 25.054382 91 94 88
-106.68689 -62.912495 25.101181 102 99 97
-106.4681 -62.890682 25.12097 89 91 87
-106.31623 -62.920238 25.068367 92 96 93
-106.02473 -62.915737 25.111416 85 91 87
-105.88321 -62.959343 25.131142 57 64 57
-105.72335 -62.917801 25.11684 72 80 73
-105.55891 -62.92944 25.104019 73 84 77
-119.23955 -62.659397 25.073795 128 133 137
-119.09278 -62.673111 25.070927 135 140 139
-118.9187 -62.643116 25.073696 121 129 124
-118.76175 -62.636963 25.094688 130 141 138
-118.30804 -62.604626 25.118925 107 120 113
-117.03629 -62.635883 25.089138 164 161 162
-116.90042 -62.670322 25.09432 142 141 140
-116.6724 -62.710033 25.085125 156 151 149
-116.52908 -62.698933 25.122213 135 134 131
-116.29777 -62.715858 25.115173 98 108 99
-116.10558 -62.659081 25.062181 99 105 95
-115.93462 -62.696945 25.1066 95 103 93
-115.50946 -62.76017 25.055801 111 120 111
-114.86755 -62.761051 25.028366 99 110 94
-114.24182 -62.785931 25.078314 113 115 117
-114.05851 -62.685265 25.074825 105 111 111
-113.88745 -62.717827 25.099951 115 119 119
-113.69637 -62.687332 25.091589 136 136 136
-113.50782 -62.733234 25.066551 95 98 94
-113.29224 -62.716278 25.130404 86 88 85
-113.09547 -62.685196 25.08564 98 98 93
-112.90459 -62.705666 25.106159 112 112 111
-112.70922 -62.632881 25.075857 108 109 105
-112.03391 -62.608295 25.192957 69 81 74
-111.90033 -62.661732 25.111698 96 103 99
-111.69154 -62.666088 25.069855 95 102 100
-111.50719 -62.637047 25.143463 110 112 114
-111.23594 -62.680637 25.088871 89 98 98
-111.07737 -62.703541 25.061886 103 109 109
-110.90955 -62.700714 25.129675 138 135 134
-110.66448 -62.715031 25.088068 123 123 124
-110.48039 -62.676003 25.066429 94 102 104
-110.29755 -62.680431 25.075527 96 104 104
-110.16743 -62.693581 25.104986 106 113 114
-109.94836 -62.656422 25.101379 122 125 132
-109.62132 -62.633881 25.134949 111 117 113
-109.51554 -62.706791 25.06061 101 105 104
-109.27194 -62.725193 25.072845 101 102 106
-108.27367 -62.695786 25.087852 135 134 133
-108.10174 -62.68055 25.097515 129 125 123
-107.90824 -62.696938 25.089867 106 103 102
-107.72517 -62.64035 25.041216 101 98 98
-107.45234 -62.745045 25.071127 123 122 128
-107.31413 -62.722904 25.044001 116 117 118
-107.14073 -62.696545 25.002663 122 127 121
-106.82088 -62.662361 25.05743 81 84 80
-106.64828 -62.688839 25.106644 100 100 100
-106.52477 -62.702888 25.085598 88 90 89
-106.35715 -62.705719 25.125217 122 126 131
-105.90543 -62.643356 25.137392 68 80 73
-105.74532 -62.795036 25.179434 67 80 80
-105.58997 -62.664658 25.041895 119 124 127
-119.40396 -62.450272 25.037512 165 166 169
-119.28822 -62.497318 25.117399 138 142 145
-119.12573 -62.551327 25.122141 145 148 150
-118.88489 -62.491642 25.109831 125 132 125
-118.78194 -62.498657 25.104055 122 132 123
-117.2478 -62.457752 25.128531 164 159 154
-117.11065 -62.535446 25.104406 143 140 136
-116.89801 -62.508446 25.116495 151 146 143
-116.69451 -62.506775 25.107765 133 134 128
-116.52087 -62.489712 25.123194 134 133 127
-116.31382 -62.465317 25.112505 135 130 125
-116.10718 -62.49445 25.076122 103 107 100
-115.95074 -62.507011 25.062366 96 104 96
-115.63242 -62.438129 25.086618 113 125 116
-115.50417 -62.466465 25.089926 128 136 130
-115.32837 -62.459095 25.090622 123 129 121
-114.97764 -62.597675 25.035606 124 135 121
-114.24875 -62.459328 25.080034 123 130 123
-114.0957 -62.504639 25.091381 135 135 134
-113.91365 -62.510891 25.100208 126 130 130
-113.68346 -62.514931 25.10199 134 136 133
-113.57666 -62.427399 25.165131 145 142 135
-113.11796 -62.582462 25.071852 95 98 90
-112.86974 -62.531296 25.099148 96 93 89
-112.68514 -62.521805 25.094065 85 88 83
-112.51839 -62.501823 25.071245 100 102 98
-112.31329 -62.480076 25.122057 118 116 113
-112.12778 -62.45097 25.084454 103 109 102
-111.87614 -62.538456 25.152943 78 88 80
-111.68948 -62.52552 25.127655 73 79 73
-111.51756 -62.503716 25.128742 91 95 94
-111.30409 -62.485886 25.080067 85 93 92
-111.14307 -62.502007 25.121605 94 102 103
-110.86456 -62.531403 25.092098 112 113 114
-110.64638 -62.49073 25.0205 97 105 105
-110.50684 -62.527893 25.044737 114 122 123
-110.30782 -62.548592 25.070004 108 116 119
-110.16874 -62.554882 25.095079 98 104 106
-109.85908 -62.539356 25.161203 122 124 130
-109.73987 -62.466736 25.156963 145 146 154
-109.59158 -62.5317 25.094637 113 119 117
-108.2487 -62.556267 25.061098 151 146 148
-108.0768 -62.51511 25.092091 132 127 125
-107.91135 -62.515118 25.07131 121 114 113
-107.76382 -62.472603 25.057795 102 96 94
-107.2578 -62.597591 25.070053 116 122 122
-106.92642 -62.491585 25.005672 136 136 139
-106.71022 -62.561756 25.134579 81 86 81
-106.54116 -62.517002 25.142815 105 109 109
-106.29939 -62.503651 25.122208 99 105 106
-106.05867 -62.49725 25.142504 72 82 76
-105.92554 -62.500027 25.126413 76 85 79
-105.71281 -62.525135 25.096899 83 89 86
-105.43573 -62.5667 25.062195 61 71 61
-119.42543 -62.247734 25.070744 130 137 148
-119.33913 -62.315693 25.095959 145 149 157
-119.04723 -62.20945 25.123837 143 145 139
-118.87919 -62.3255 25.108418 110 119 108
-118.69355 -62.286503 25.110619 123 132 124
-118.22595 -62.261879 25.020285 145 151 147
-117.4589 -62.378895 25.009975 83 91 78
-117.29679 -62.291653 25.155939 133 128 128
-117.14099 -62.298332 25.11462 150 143 135
-116.85099 -62.285988 25.091591 97 103 92
-116.71207 -62.330822 25.11883 118 121 112
-116.49181 -62.310387 25.164896 143 137 134
-116.311 -62.292015 25.107428 136 131 127
-116.08895 -62.312294 25.105049 98 107 99
-115.93394 -62.312389 25.06159 73 84 74
-115.70011 -62.31374 25.070488 91 100 93
-115.48869 -62.350258 25.114851 127 132 125
-115.34221 -62.278957 25.082161 127 132 125
-114.42043 -62.365555 25.096138 44 55 49
-114.31669 -62.319298 25.02235 97 110 94
-114.06802 -62.295879 25.083626 128 122 120
-113.91727 -62.275692 25.123703 123 126 124
-113.71754 -62.29813 25.11454 111 115 112
-113.59007 -62.365192 25.055578 168 166 161
-113.00164 -62.218361 25.14587 72 72 72
-112.8821 -62.281712 25.154177 86 88 83
-112.66387 -62.326168 25.099295 83 86 79
-112.51359 -62.312866 25.113241 64 69 62
-112.29111 -62.279037 25.107346 92 94 89
-112.14448 -62.28915 25.071707 85 88 83
-111.40103 -62.347126 25.127644 94 95 89
-111.27637 -62.286495 25.102732 89 94 88
-111.10542 -62.264126 25.09837 85 94 87
-110.96713 -62.269192 25.092432 93 99 92
-110.6014 -62.200218 25.178232 94 104 106
-110.53259 -62.301403 25.111269 105 112 110
-110.22575 -62.370632 25.07032 130 129 137
-109.80805 -62.278793 25.039371 140 142 143
-109.69994 -62.278908 25.062946 146 147 150
-108.27716 -62.341694 25.011694 112 112 106
-108.06774 -62.340641 25.074917 144 137 137
-107.9154 -62.331303 25.072458 118 112 111
-107.712 -62.335274 25.080641 126 117 116
-107.07083 -62.20845 25.014429 97 101 94
-106.86026 -62.295391 25.105505 135 133 142
-106.72384 -62.299793 25.111034 155 154 162
-106.4249 -62.256954 25.125002 96 104 99
-106.32241 -62.285824 25.121998 85 92 90
-106.12087 -62.287075 25.152058 80 87 82
-105.88503 -62.312656 25.153254 79 88 81
-105.68832 -62.302746 25.100454 87 92 87
-119.44122 -62.055145 25.036392 171 172 179
-119.33327 -62.115528 25.134384 171 172 177
-119.12058 -62.16 25.043858 126 131 125
-118.71284 -62.109558 25.081924 113 122 113
-118.52341 -62.075981 25.095713 120 127 120
-118.36565 -62.135715 25.145891 111 121 112
-117.48672 -62.044579 25.037296 135 141 140
-117.36476 -62.130875 25.161287 150 152 156
-116.88669 -62.101559 25.095507 84 83 75
-116.7313 -62.100174 25.132645 102 103 95
-116.48803 -62.06868 25.168741 144 142 140
-116.30974 -62.088696 25.081657 118 120 114
-116.11127 -62.112656 25.091911 92 101 89
-115.91397 -62.111721 25.106022 91 101 91
-115.61005 -62.138794 25.107609 138 143 140
-115.47941 -62.097828 25.091902 126 131 125
-115.35534 -62.089153 25.073629 105 114 102
-114.48444 -62.124451 25.053875 81 91 82
-114.24831 -62.092049 25.081141 149 142 145
-114.09808 -62.110798 25.113287 151 148 148
-113.88359 -62.102684 25.128063 119 121 115
-113.75027 -62.107555 25.109175 116 121 114
-112.86549 -62.193569 25.150349 71 78 71
-112.73611 -62.100601 25.058949 120 123 121
-112.46311 -62.060749 25.123648 55 59 55
-112.28235 -62.111942 25.113794 93 94 91
-112.12858 -62.139935 25.107193 119 120 118
-111.93049 -62.081383 25.097332 136 132 133
-111.67361 -62.066254 25.053474 99 105 105
-111.50251 -62.061077 25.118105 123 118 122
-111.25418 -62.079647 25.108986 98 101 96
-111.12803 -62.09462 25.097015 93 99 93
-110.92258 -62.080902 25.106133 101 107 101
-110.74451 -62.018002 25.13253 81 92 84
-108.12856 -62.172188 25.036142 162 158 158
-107.86396 -62.102753 25.044052 112 104 102
-107.77597 -62.133381 25.059151 105 100 96
-107.2521 -62.064636 25.090437 133 133 130
-107.1014 -62.058266 25.073261 105 107 104
-106.91948 -62.080208 25.070732 99 101 101
-106.70453 -62.104309 25.046698 127 126 137
-106.46382 -62.13924 25.065002 120 126 130
-106.26981 -62.127701 25.069122 82 89 86
-106.13225 -62.083637 25.116264 90 94 89
-105.90714 -62.112652 25.106554 95 100 96
-105.71658 -62.080414 25.097649 67 75 67
-105.52098 -62.193909 25.084057 109 115 113
-105.23643 -62.070908 25.177912 72 78 78
-105.1729 -62.093239 25.187817 73 84 79
-119.53168 -61.877106 25.048021 159 158 174
-119.25772 -61.885452 25.117523 152 154 155
-119.12283 -61.873581 25.155252 140 144 142
-118.90224 -61.835686 25.145514 142 147 149
-118.63348 -61.89547 25.179764 132 139 137
-118.50618 -61.908436 25.11001 118 127 121
-117.5188 -61.903099 25.109419 121 124 122
-116.95184 -61.921967 25.1278 85 93 83
-116.69234 -61.92392 25.16543 121 120 113
-116.47964 -61.893291 25.110994 117 120 111
-116.31574 -61.881523 25.079233 103 109 97
-116.11 -61.872849 25.131981 109 116 106
-115.88255 -61.875572 25.081711 100 110 101
-115.67635 -61.882973 25.084682 105 113 106
-115.48297 -61.892757 25.077021 113 121 112
-115.3538 -61.930393 25.081808 101 112 99
-114.6567 -61.805634 25.047609 104 108 100
-114.47286 -61.864094 25.069534 135 136 139
-114.26963 -61.889771 25.08182 161 155 158
-114.12401 -61.892567 25.133698 157 154 157
-113.98236 -61.883724 25.145302 161 159 165
-112.48606 -61.970871 25.123159 60 65 59
-112.26763 -61.89587 25.099302 87 91 88
-112.10882 -61.885651 25.077097 98 96 93
-111.90049 -61.891342 25.09589 120 117 117
-111.68624 -61.880482 25.073769 133 127 127
-111.50677 -61.88876 25.099701 111 109 110
-111.28098 -61.898159 25.110851 122 119 119
-111.10287 -61.904675 25.089403 99 103 98
-110.9427 -61.913445 25.089529 97 105 100
-110.72044 -61.83429 25.025274 116 123 116
-110.13534 -61.838436 25.094433 138 147 142
-107.23722 -61.858356 25.113199 120 119 116
-107.09679 -61.906342 25.122513 99 101 97
-106.92732 -61.883957 25.095224 82 87 81
-106.70598 -61.874748 25.099667 99 103 102
-106.50417 -61.876705 25.124605 74 79 73
-106.29142 -61.898983 25.073523 79 85 79
-106.12594 -61.907646 25.095518 84 90 82
-105.89597 -61.90733 25.101015 84 83 76
-105.76964 -61.881416 25.088398 70 74 66
-105.19711 -61.989529 25.159756 60 67 59
-119.40125 -61.655254 25.096371 60 60 72
-119.31631 -61.715927 25.119814 168 169 179
-119.07309 -61.697136 25.069841 142 149 151
-118.9494 -61.708508 25.104025 143 147 149
-118.64149 -61.665352 25.149462 129 135 134
-118.51372 -61.706497 25.103071 122 132 128
-117.88396 -61.652931 25.077332 87 95 94
-117.71014 -61.696411 25.088621 136 139 139
-116.72045 -61.751472 25.112047 101 105 93
-116.4764 -61.724854 25.125523 113 118 106
-116.2992 -61.699093 25.109728 116 119 107
-116.12917 -61.68903 25.09487 127 129 120
-115.92079 -61.689568 25.105516 87 98 86
-115.69121 -61.696751 25.092785 84 96 82
-115.49593 -61.783821 25.09074 106 115 103
-114.63516 -61.618389 25.003841 163 166 159
-114.50917 -61.76133 25.040527 135 136 142
-114.25644 -61.744213 25.089066 161 158 164
-114.09831 -61.731594 25.09791 153 152 156
-113.93112 -61.714668 25.124447 158 158 164
-113.0974 -61.651897 25.08556 89 98 90
-112.91008 -61.754177 25.097048 85 93 87
-112.76398 -61.671879 25.194736 89 92 86
-112.28825 -61.698418 25.109287 93 98 94
-112.11444 -61.699402 25.098818 83 89 84
-111.86794 -61.689411 25.081392 124 118 117
-111.68781 -61.687416 25.071884 107 106 104
-111.51539 -61.70892 25.10919 104 103 100
-111.29568 -61.725883 25.115612 132 126 124
-111.06351 -61.694183 25.113798 109 110 106
-110.91006 -61.680984 25.079239 82 92 83
-110.71203 -61.65118 25.082785 106 113 107
-110.54403 -61.624111 25.123692 120 127 123
-110.2205 -61.65506 25.170948 106 110 117
-107.80611 -61.764698 25.015148 158 154 147
-107.70415 -61.672325 25.041508 122 122 115
-107.25677 -61.701168 25.131077 121 122 119
-107.14763 -61.715904 25.131805 116 116 111
-106.87775 -61.732712 25.085629 95 97 92
-106.67348 -61.733986 25.100613 95 98 94
-106.528 -61.718037 25.14922 86 88 84
-106.28091 -61.705978 25.123451 71 75 70
-106.09467 -61.687923 25.091017 68 72 64
-105.91982 -61.719051 25.109417 76 78 71
-105.73731 -61.779926 25.134457 89 94 87
-119.04852 -61.594273 25.019093 141 151 152
-118.88161 -61.477581 25.098225 128 131 136
-118.75716 -61.546478 25.064665 153 157 157
-118.49795 -61.596607 25.015835 134 145 147
-117.85816 -61.411373 25.024506 113 121 124
-117.6943 -61.448299 25.097599 86 85 92
-116.86648 -61.437737 25.112617 109 116 107
-116.09295 -61.50544 25.109823 132 132 124
-115.89822 -61.488529 25.110546 96 106 94
-115.72466 -61.510426 25.061443 89 102 87
-115.56533 -61.450447 25.07003 80 92 78
-114.74908 -61.47868 25.132498 70 83 65
-114.44556 -61.452068 25.037048 130 140 140
-114.29329 -61.494781 25.081516 115 122 125
-114.06674 -61.48576 25.084633 136 140 142
-113.92168 -61.504272 25.119555 144 145 146
-113.05005 -61.518963 25.105017 72 78 70
-112.92805 -61.50058 25.146681 86 91 84
-112.28079 -61.480877 25.133425 92 95 92
-112.09762 -61.501919 25.082848 114 115 113
-111.87703 -61.494942 25.11558 105 106 105
-111.69063 -61.489323 25.114269 103 105 104
-111.52892 -61.505203 25.114445 137 129 127
-111.31585 -61.526581 25.142853 144 129 126
-111.09943 -61.497341 25.088314 145 137 134
-110.90972 -61.507465 25.098152 116 114 110
-110.69096 -61.497417 25.090086 110 115 109
-110.56219 -61.529484 25.079992 119 126 121
-110.31289 -61.457428 25.126251 127 129 131
-107.82004 -61.470074 25.015501 137 137 133
-107.71084 -61.469536 25.067663 124 125 118
-107.50277 -61.439629 25.102804 107 110 104
-107.29284 -61.506844 25.114796 108 108 103
-107.15868 -61.561581 25.087328 103 106 101
-106.92606 -61.514404 25.045143 95 98 92
-106.67135 -61.525188 25.133192 84 88 84
-106.53185 -61.489754 25.133575 89 93 87
-106.28217 -61.510387 25.154581 67 72 66
-106.08817 -61.512733 25.116289 74 79 72
-105.95789 -61.544437 25.104116 77 79 70
-117.70935 -61.291695 25.107315 130 132 131
-116.86813 -61.302631 25.087885 105 112 103
-116.71488 -61.297291 25.128416 110 116 105
-116.53793 -61.311661 25.170891 103 108 99
-116.24906 -61.275959 25.094149 119 123 114
-116.11346 -61.325573 25.092657 127 128 119
-115.92224 -61.288601 25.119211 106 115 102
-115.71564 -61.32534 25.11211 88 101 87
-115.52901 -61.271912 25.020529 101 107 95
-115.34698 -61.380222 25.043835 85 94 82
-114.93223 -61.321724 25.014048 58 64 50
-114.49932 -61.281403 25.087439 136 142 141
-114.27704 -61.268608 25.052095 157 157 161
-114.11033 -61.283401 25.093657 144 144 147
-113.92031 -61.294682 25.099031 149 149 154
-113.74922 -61.251465 25.153233 150 152 146
-113.23407 -61.223583 25.096558 120 121 119
-113.13448 -61.242973 25.176462 115 120 115
-112.94118 -61.352886 25.176153 98 99 95
-112.48045 -61.273956 25.162025 129 126 123
-112.28854 -61.307064 25.10499 110 111 110
-112.0836 -61.314247 25.111044 126 126 128
-111.88398 -61.296116 25.105391 97 101 97
-111.70174 -61.312168 25.103695 102 103 101
-111.53613 -61.256199 25.095814 156 144 142
-111.23779 -61.332897 25.118086 138 130 125
-111.08215 -61.304691 25.104097 140 134 128
-110.89061 -61.294716 25.106195 158 150 144
-110.68901 -61.29924 25.093653 120 122 117
-110.52612 -61.312973 25.108259 104 109 109
-110.34321 -61.255756 25.120178 68 67 71
-110.15596 -61.363773 25.044495 102 107 110
-107.826 -61.311352 25.057739 148 143 145
-107.68681 -61.306664 25.068304 130 129 123
-107.50151 -61.280186 25.103998 110 110 106
-107.34351 -61.301701 25.087202 108 106 102
-107.12537 -61.289444 25.105968 143 140 133
-106.90859 -61.248856 25.059168 134 132 126
-106.69009 -61.243099 25.125908 65 73 66
-106.58721 -61.343555 25.120996 84 92 86
-106.23249 -61.319519 25.034443 59 68 63
-117.64421 -61.11694 25.073896 125 128 129
-117.55736 -61.120037 25.128124 166 163 168
-116.90948 -61.123516 25.098522 111 117 106
-116.7215 -61.128311 25.093346 109 116 109
-116.49519 -61.119122 25.142065 131 136 130
-116.30472 -61.087387 25.087893 105 110 100
-116.08334 -61.111889 25.070713 101 111 99
-115.89207 -61.125267 25.072584 93 104 90
-115.71361 -61.106812 25.073177 113 121 107
-115.52413 -61.097626 25.025267 109 114 103
-114.64327 -61.135853 25.043049 139 146 145
-114.49472 -61.112305 25.114376 136 140 142
-114.279 -61.13937 25.075956 156 155 162
-114.1356 -61.122395 25.08675 138 136 141
-113.89486 -61.141609 25.09354 155 150 156
-113.78548 -61.079586 25.133404 165 157 160
-113.27312 -61.077164 25.10512 93 101 97
-113.11121 -61.075958 25.113312 116 115 117
-112.8202 -61.179348 25.175011 143 139 140
-112.77049 -61.126839 25.195936 109 108 106
-112.43342 -61.091858 25.159115 131 126 123
-112.31217 -61.091202 25.12763 117 112 112
-112.09306 -61.09053 25.118263 97 103 102
-111.89527 -61.08345 25.114393 111 115 114
-111.70101 -61.081875 25.102179 104 107 103
-111.51624 -61.094757 25.102077 135 130 126
-111.36548 -61.047779 25.165802 199 184 184
-111.04258 -61.139874 25.15703 126 121 113
-110.90162 -61.117847 25.111145 139 135 127
-110.68887 -61.100178 25.102028 134 133 129
-110.51152 -61.088566 25.070776 114 120 116
-110.29624 -61.073414 25.126637 97 102 98
-110.16064 -61.114025 25.075939 88 96 99
-107.68349 -61.107254 25.08997 138 137 135
-107.50327 -61.10878 25.130781 118 116 112
-107.30111 -61.102924 25.118027 98 97 92
-107.10806 -61.091293 25.079073 102 100 94
-106.923 -61.147984 25.064636 135 129 123
-106.69869 -61.122639 25.096395 85 91 86
-106.57496 -61.095081 25.116903 125 131 132
-106.34319 -61.189465 25.166386 86 93 88
-117.6235 -60.809391 25.072506 80 83 90
-117.48038 -60.822639 25.055021 182 178 169
-117.33292 -60.864281 25.122849 143 141 134
-117.0882 -60.891033 25.105915 138 136 136
-116.9017 -60.93858 25.077362 127 129 125
-116.78214 -60.969326 25.162174 125 131 125
-116.41653 -60.813477 25.058998 130 136 126
-116.31239 -60.915688 25.111671 125 127 121
-116.10812 -60.912094 25.063568 102 112 101
-115.87526 -60.904213 25.083467 98 107 95
-115.66679 -60.944508 25.052807 107 113 101
-115.58093 -60.978497 25.048223 135 137 128
-114.72551 -60.916138 25.019814 62 71 66
-114.53687 -60.958927 25.044006 82 89 88
-114.25473 -60.894474 25.10626 101 106 106
-114.11715 -60.897797 25.096149 131 130 133
-113.85772 -60.932373 25.110779 151 149 154
-113.76318 -60.887886 25.130373 176 170 172
-113.43764 -60.917049 25.142776 84 94 90
-113.30234 -60.929321 25.093365 93 101 97
-113.09293 -60.890003 25.092815 125 126 129
-112.91876 -60.881084 25.117931 149 143 148
-112.66295 -60.877026 25.167791 160 148 151
-112.4763 -60.891548 25.104622 110 110 108
-112.32014 -60.902615 25.116539 95 99 96
-112.08511 -60.897633 25.10634 84 93 87
-111.91325 -60.897503 25.112162 86 97 93
-111.7133 -60.918289 25.112028 140 134 131
-111.48811 -60.946857 25.139936 134 125 124
-111.31065 -60.939697 25.096756 162 149 148
-111.09387 -60.878967 25.119711 164 153 153
-110.91251 -60.876869 25.121332 156 147 143
-110.69138 -60.892807 25.095762 135 136 135
-110.49004 -60.922554 25.079046 137 142 140
-110.33589 -60.917072 25.086248 122 126 124
-110.15767 -60.930389 25.097303 72 78 73
-107.70197 -60.901615 25.105175 159 155 153
-107.49477 -60.921936 25.166439 122 120 115
-107.3036 -60.941883 25.17345 100 101 97
-107.14104 -60.889496 25.123081 94 96 90
-106.91087 -60.87883 25.104256 100 99 96
-106.74938 -60.881916 25.16888 121 115 112
-106.50571 -60.884506 25.110689 103 107 107
-106.11358 -60.841389 25.102602 107 111 112
-117.50981 -60.711231 25.104437 93 96 99
-117.32894 -60.771137 25.086248 113 112 115
-117.05329 -60.712372 25.08872 124 126 125
-116.92348 -60.704773 25.126381 163 160 163
-116.74223 -60.624241 25.16396 141 135 134
-116.46915 -60.681129 25.100901 121 124 119
-116.31557 -60.761524 25.069035 108 111 109
-116.08502 -60.751099 25.098125 107 115 107
-115.90863 -60.741089 25.08979 131 132 124
-114.44576 -60.63187 25.007423 129 125 122
-114.32607 -60.6772 25.081547 148 149 149
-114.12575 -60.701069 25.072819 153 154 150
-113.87997 -60.703629 25.153353 122 123 124
-113.71581 -60.695534 25.105587 159 153 155
-113.47523 -60.639965 25.099977 116 118 116
-113.31403 -60.688694 25.093517 139 137 138
-113.08781 -60.69445 25.100151 126 129 130
-112.93391 -60.720856 25.136274 137 134 136
-112.6806 -60.690384 25.13772 145 140 141
-112.48961 -60.694443 25.104996 147 142 141
-112.2933 -60.704025 25.126003 155 147 142
-112.09914 -60.72237 25.110634 102 110 103
-111.91307 -60.704231 25.10268 111 117 116
-111.69289 -60.699722 25.090361 163 156 156
-111.58858 -60.637104 25.056511 171 164 165
-111.23201 -60.670231 25.167709 175 164 168
-111.09718 -60.699005 25.119171 113 116 116
-110.89402 -60.721134 25.116999 141 138 140
-110.72567 -60.73912 25.089577 119 122 124
-110.52439 -60.749058 25.03356 100 107 111
-110.31172 -60.765038 25.038872 75 81 76
-107.69177 -60.703037 25.087381 150 146 144
-107.56841 -60.69503 25.137043 162 152 147
-107.35841 -60.640255 25.002037 179 170 165
-107.04926 -60.761971 25.151241 79 77 70
-106.89773 -60.724308 25.126272 76 75 71
-106.74731 -60.699013 25.098026 69 75 67
-106.4626 -60.694633 25.094309 131 134 136
-106.26181 -60.719833 25.112953 66 70 68
-106.03488 -60.760025 25.170851 109 111 110
-105.92036 -60.728817 25.170303 83 87 83
-117.47449 -60.532131 25.024071 131 130 135
-116.87085 -60.576633 25.062918 144 139 144
-116.70607 -60.545094 25.037663 105 107 106
-116.54742 -60.58847 25.075802 159 158 156
-115.89478 -60.5825 25.073784 133 128 124
-115.11132 -60.469471 25.065783 129 130 131
-114.63783 -60.44429 25.040894 125 127 123
-114.58392 -60.447632 25.132015 141 140 138
-114.30607 -60.526978 25.122259 104 110 111
-114.10378 -60.470394 25.061384 105 109 107
-113.89973 -60.474468 25.110809 81 84 86
-113.70067 -60.510933 25.100658 130 130 130
-113.49589 -60.522518 25.07947 123 122 123
-113.2904 -60.519032 25.102573 150 147 151
-113.11215 -60.500454 25.106274 137 138 140
-112.89269 -60.486691 25.125252 180 167 170
-112.68558 -60.499371 25.12121 152 148 146
-112.49055 -60.476765 25.094709 153 149 145
-112.28363 -60.493351 25.119682 147 146 143
-112.10773 -60.479675 25.12022 128 133 129
-111.89579 -60.496574 25.115305 126 128 127
-111.66636 -60.485851 25.090668 151 145 147
-111.50871 -60.485382 25.0956 179 166 170
-111.2905 -60.486504 25.113075 150 145 150
-111.13853 -60.51701 25.111689 111 115 115
-110.92352 -60.58194 25.072033 85 88 95
-107.65062 -60.51136 25.074909 158 155 157
-107.54502 -60.501007 25.09277 146 140 137
-107.36647 -60.501156 25.112282 157 151 142
-106.84837 -60.562588 25.13493 79 78 77
-106.73042 -60.529503 25.10264 58 65 59
-106.42594 -60.492329 25.151537 110 110 118
-106.30194 -60.516632 25.108183 79 82 86
-106.01347 -60.595409 25.01597 52 59 54
-105.97057 -60.446819 25.063465 136 138 137
-115.50706 -60.276878 25.086811 132 130 134
-115.30652 -60.27787 25.078604 125 128 129
-115.10033 -60.3046 25.06769 110 115 111
-114.98089 -60.301315 25.059813 111 114 110
-114.67534 -60.28587 25.053516 118 119 117
-114.52272 -60.337112 25.110977 117 113 111
-114.26987 -60.313473 25.074203 135 138 139
-114.07443 -60.346188 25.068733 85 91 84
-113.8813 -60.384575 25.035526 68 73 66
-113.71017 -60.3293 25.059294 108 109 116
-113.43092 -60.311325 25.023581 108 109 104
-113.27248 -60.317963 25.087034 135 133 136
-113.11771 -60.317268 25.084196 129 131 132
-112.90042 -60.336803 25.099916 129 132 136
-112.69128 -60.321369 25.075058 130 133 134
-112.48993 -60.298588 25.089918 134 134 135
-112.29501 -60.299355 25.115067 160 158 157
-112.08382 -60.30011 25.107224 137 138 135
-111.91927 -60.327339 25.092945 121 130 129
-111.67455 -60.313599 25.125645 115 116 122
-111.47784 -60.320496 25.104513 118 117 121
-111.31152 -60.317459 25.065962 91 97 98
-111.11903 -60.358585 25.071543 50 59 52
-107.62286 -60.333183 25.107178 162 163 160
-107.55731 -60.306137 25.095383 150 145 144
-106.67812 -60.311489 25.126472 63 71 63
-106.56333 -60.250561 25.095322 75 82 76
-106.3576 -60.349358 25.066071 80 84 93
-118.43549 -60.038563 25.184229 137 145 136
-117.75218 -60.03503 25.165863 117 125 118
-117.12477 -60.013409 25.143959 86 87 88
-115.60825 -60.11401 25.03561 186 172 181
-115.50801 -60.112843 25.074213 165 154 159
-115.32647 -60.126724 25.053486 110 113 111
-115.13517 -60.143543 25.066006 114 117 114
-114.85675 -60.058655 25.073557 102 107 101
-114.72278 -60.085457 25.094297 116 119 115
-114.50471 -60.052822 25.068443 128 125 124
-114.3253 -60.027092 25.105078 127 129 126
-113.67667 -60.090462 25.006296 112 112 121
-112.67811 -60.110241 25.032831 124 124 126
-112.53372 -60.195225 25.04397 107 112 112
-112.30881 -60.128723 25.059895 138 141 145
-112.12699 -60.138409 25.078175 133 136 135
-111.91675 -60.08688 25.056248 66 77 75
-111.73642 -60.146065 25.130745 37 49 42
-111.50747 -60.198303 25.039719 134 137 145
-111.27439 -60.16573 25.033262 88 93 95
-111.15488 -60.097549 25.055805 49 55 51
-107.61507 -60.087494 25.107594 146 141 150
-107.50176 -60.075989 25.093254 151 147 150
-107.31893 -60.069065 25.136913 142 136 137
-107.13965 -60.043617 25.141775 148 142 141
-106.57001 -60.140564 25.065683 76 82 77
-118.59557 -59.922272 25.078793 154 157 148
-118.34196 -59.916149 25.038086 135 142 135
-118.01065 -59.866478 25.122524 177 183 171
-117.8854 -59.85743 25.063263 137 143 135
-117.73042 -59.856007 25.068884 136 142 136
-117.49104 -59.852386 25.093622 156 158 155
-117.36435 -59.817833 25.126856 142 141 134
-117.09814 -59.855957 25.05489 153 147 148
-115.64134 -59.846802 25.089037 159 155 162
-115.51991 -59.892273 25.092596 169 160 166
-115.32098 -59.873627 25.079918 148 144 143
-115.1096 -59.892971 25.106314 152 149 149
-114.92127 -59.882553 25.085571 124 123 123
-114.66719 -59.888165 25.084217 129 129 131
-114.50894 -59.904633 25.077774 128 129 131
-114.31968 -59.905022 25.060562 117 122 118
-112.27511 -59.976566 25.022129 48 53 56
-112.04707 -59.94342 25.052067 39 51 47
-107.61939 -59.932495 25.066408 138 135 140
-107.50333 -59.913212 25.065489 139 137 138
-107.31454 -59.916706 25.09907 144 143 146
-107.12707 -59.896553 25.058371 130 125 126
-106.89309 -59.953186 25.120993 180 167 163
-106.64789 -59.972458 25.15107 56 67 61
-106.56125 -59.912064 25.087284 81 88 82
-118.63966 -59.62529 25.134697 159 150 151
-118.47919 -59.632675 25.069828 120 123 125
-118.21729 -59.798691 25.10486 102 112 101
-118.05695 -59.681877 25.043053 112 118 108
-117.89341 -59.735718 25.110044 129 132 125
-117.69747 -59.718712 25.088715 123 130 123
-117.49381 -59.751526 25.092031 147 150 143
-117.29208 -59.696148 25.098928 137 140 133
-117.10619 -59.707966 25.061382 143 144 139
-116.97618 -59.675045 25.054695 157 152 149
-115.67327 -59.722569 25.034349 160 155 163
-115.49457 -59.713299 25.068834 158 152 158
-115.32424 -59.698822 25.074425 149 148 150
-115.10083 -59.726795 25.108007 150 148 147
-114.91314 -59.677952 25.109217 139 138 137
-114.67094 -59.703846 25.058388 131 131 130
-114.49794 -59.692783 25.096083 137 136 141
-114.31263 -59.713161 25.090399 125 127 125
-114.17149 -59.701302 25.106657 113 116 111
-113.61308 -59.660107 25.010561 147 149 146
-107.44007 -59.767113 25.047018 155 153 156
-107.30162 -59.716442 25.070391 136 136 140
-107.13317 -59.702618 25.11908 149 146 150
-106.86822 -59.675579 25.166555 131 134 131
-106.55003 -59.78838 25.041565 79 84 81
-118.43552 -59.462337 25.015123 106 114 113
-118.28418 -59.555717 25.083557 134 144 138
-118.08121 -59.464993 25.003147 96 104 101
-117.89421 -59.522976 25.095781 111 115 106
