ply
format ascii 1.0
comment PCL generated
element vertex 1098
property float x
property float y
property float z
property uchar red
property uchar green
property uchar blue
element face 0
element camera 0
property float view_px
property float view_py
property float view_pz
property float x_axisx
property float x_axisy
property float x_axisz
property float y_axisx
property float y_axisy
property float y_axisz
property float z_axisx
property float z_axisy
property float z_axisz
property float focal
property float scalex
property float scaley
property float centerx
property float centery
property int viewportx
property int viewporty
property float k1
property float k2
end_header
-103.77679 -55.261333 27.638018 168 154 163
-104.10728 -55.139351 27.624125 185 169 180
-103.94983 -55.154854 27.622057 145 130 138
-102.65951 -65.252823 27.904428 111 109 100
-102.54826 -65.280937 27.908783 118 113 101
-104.12831 -65.081543 27.839882 187 156 159
-102.83536 -65.095985 27.891378 167 151 142
-102.68774 -65.107613 27.899363 136 128 119
-102.48727 -65.069756 27.879595 147 144 136
-102.34042 -65.048912 27.856129 116 117 105
-104.23987 -64.883896 27.82835 172 141 155
-104.1488 -64.913185 27.909643 196 161 156
-103.97631 -64.824799 27.829689 200 165 185
-103.43054 -64.815712 27.868877 172 143 147
-103.34524 -64.823677 27.834032 160 145 149
-103.09186 -64.922623 27.872047 149 125 127
-102.86474 -64.833191 27.87558 158 156 163
-102.69411 -64.903831 27.895206 138 135 135
-102.49174 -64.911461 27.861824 152 144 138
-102.31775 -64.899132 27.857315 116 113 108
-102.19184 -64.929649 27.871336 83 91 80
-104.32668 -64.61705 27.829062 163 158 165
-104.08546 -64.699867 27.868389 174 155 166
-103.87405 -64.693016 27.875341 169 157 160
-103.67114 -64.720245 27.902678 134 133 130
-103.50343 -64.639023 27.89889 143 140 143
-103.3297 -64.700607 27.892328 157 148 154
-103.08097 -64.665886 27.882448 145 134 132
-102.86491 -64.698097 27.890751 149 143 146
-102.68913 -64.694778 27.916708 153 146 146
-102.5057 -64.697792 27.909426 160 153 148
-102.29594 -64.68615 27.873589 148 145 139
-102.11806 -64.663467 27.842041 130 128 118
-104.27872 -64.498497 27.887959 167 162 169
-104.07986 -64.518799 27.873795 164 161 168
-103.89594 -64.488037 27.918846 147 144 150
-103.70892 -64.522377 27.883799 150 145 154
-103.48635 -64.49601 27.882729 151 151 159
-103.2739 -64.54026 27.929255 154 146 153
-103.11527 -64.512283 27.922365 133 132 134
-102.88562 -64.488876 27.891766 125 125 128
-102.7123 -64.505554 27.910675 140 140 144
-102.50785 -64.486313 27.893429 143 142 147
-102.30391 -64.477531 27.845564 133 134 134
-102.17285 -64.469055 27.897419 118 120 113
-104.4055 -64.368568 27.943287 152 148 149
-104.32034 -64.310638 27.901312 156 159 163
-104.1269 -64.290154 27.904522 132 134 137
-103.93112 -64.318703 27.924555 147 150 157
-103.71693 -64.293716 27.90155 136 138 144
-103.50327 -64.295296 27.887947 151 151 162
-103.31776 -64.312569 27.903259 137 142 145
-103.08704 -64.251709 27.919813 116 119 121
-102.89646 -64.281898 27.900202 117 122 122
-102.68948 -64.280304 27.904499 130 132 137
-102.49252 -64.277084 27.892981 133 137 142
-102.30498 -64.289795 27.912992 144 145 151
-102.13806 -64.283012 27.937756 129 133 137
-101.94519 -64.300568 27.905613 70 77 71
-105.0966 -64.07943 27.872458 123 130 124
-104.60886 -64.045197 27.82317 90 91 93
-104.50257 -64.050789 27.869959 119 127 128
-104.31216 -64.084076 27.872698 141 149 158
-104.10728 -64.096428 27.934841 146 147 156
-103.86028 -64.149574 27.948595 124 129 137
-103.69146 -64.136978 27.929531 107 115 120
-103.52227 -64.09362 27.910128 112 119 122
-103.28989 -64.0634 27.895447 113 120 123
-103.09665 -64.115921 27.917126 131 134 140
-102.90974 -64.115242 27.905214 116 120 122
-102.67216 -64.094658 27.904434 130 135 135
-102.48821 -64.095673 27.913116 142 147 154
-102.29518 -64.099548 27.922098 144 146 150
-102.12379 -64.09761 27.916197 142 145 151
-105.06382 -63.984688 27.900885 94 99 98
-104.86663 -63.877083 27.889719 121 125 126
-104.69175 -63.875973 27.873528 128 128 132
-104.50069 -63.910439 27.876253 116 121 123
-104.30973 -63.887707 27.88994 136 143 149
-104.10948 -63.898716 27.897556 141 143 153
-103.95288 -63.899311 27.919418 113 117 121
-103.63777 -63.860451 27.832073 116 131 127
-103.47501 -63.904984 27.916569 97 109 110
-103.3176 -63.907997 27.933172 101 110 113
-103.09872 -63.910915 27.897533 119 125 128
-102.87059 -63.909641 27.91143 105 112 113
-102.72123 -63.878223 27.91226 121 126 127
-102.47878 -63.924747 27.873671 129 138 139
-102.30919 -63.934376 27.888233 133 139 142
-102.14318 -63.936314 27.863953 141 145 150
-101.99998 -63.972137 27.816147 114 122 135
-104.86138 -63.730682 27.877771 135 138 145
-104.72319 -63.729172 27.932709 142 143 151
-104.47208 -63.685623 27.876493 122 131 140
-104.30192 -63.695251 27.877342 122 133 138
-104.11072 -63.70121 27.915096 123 131 136
-103.93597 -63.693626 27.916191 115 122 128
-103.77408 -63.676632 27.899508 104 115 113
-103.4666 -63.761215 27.978928 101 115 119
-103.28098 -63.711502 27.896767 102 109 110
-103.11298 -63.72438 27.926014 102 111 112
-102.89056 -63.67363 27.936052 116 123 127
-102.70614 -63.707714 27.930176 122 126 130
-102.50831 -63.716511 27.869669 126 134 138
-102.34958 -63.722271 27.864388 127 137 136
-102.02004 -63.618855 27.920521 146 155 162
-105.02135 -63.45137 27.833599 166 169 178
-104.88105 -63.496101 27.887074 155 165 178
-104.73473 -63.483486 27.891775 116 129 133
-104.49939 -63.507343 27.888315 106 116 116
-104.28436 -63.495426 27.906483 112 121 123
-104.10532 -63.485596 27.918285 110 118 121
-103.89071 -63.526001 27.913105 102 110 111
-103.7293 -63.451302 27.937283 95 103 100
-103.25547 -63.486435 27.936041 104 112 118
-103.06181 -63.484123 27.908539 81 93 91
-102.93891 -63.512012 27.921402 96 106 106
-102.72063 -63.520645 27.910624 112 120 122
-102.54374 -63.54126 27.886261 93 102 107
-101.61012 -63.505905 27.913971 157 151 137
-105.34088 -63.272461 27.819281 148 149 155
-105.09242 -63.284206 27.872242 114 118 118
-104.88602 -63.321663 27.91518 139 144 141
-104.69893 -63.260902 27.930044 87 101 108
-104.47979 -63.31337 27.919174 108 115 116
-104.31088 -63.30146 27.89196 90 99 98
-104.11154 -63.314831 27.898495 116 125 127
-103.89091 -63.308338 27.894007 88 98 97
-103.72784 -63.306904 27.90587 105 114 114
-103.58841 -63.243896 27.894073 102 111 110
-103.25043 -63.31443 27.986219 80 92 96
-103.06568 -63.308208 27.902788 80 92 89
-102.90646 -63.272141 27.904951 80 91 89
-102.7336 -63.290516 27.890327 99 105 107
-102.35003 -63.311638 27.862064 112 115 120
-101.83178 -63.355522 27.957516 97 89 78
-104.84796 -63.054497 27.939325 128 133 135
-104.7334 -63.125347 27.902725 115 119 121
-104.49855 -63.075264 27.916067 138 147 154
-104.29243 -63.098198 27.913242 116 127 133
-104.09842 -63.147667 27.908564 88 98 98
-103.90285 -63.070599 27.906309 61 73 67
-103.67204 -63.089622 27.921215 97 103 102
-103.54811 -63.117073 27.923918 95 102 99
-103.06016 -63.093914 27.915047 105 106 103
-102.89277 -63.127083 27.92054 87 96 94
-102.74148 -63.091129 27.877668 77 86 84
-102.53461 -63.089718 27.923859 105 107 107
-101.91772 -63.020679 27.890482 103 108 113
-101.7886 -63.014214 27.917505 90 100 99
-105.00591 -62.888184 27.876675 102 113 119
-104.86808 -62.911514 27.867117 116 127 125
-104.67464 -62.882557 27.898302 138 144 151
-104.55599 -62.898823 27.880577 127 137 146
-103.84565 -62.932518 27.90361 65 76 72
-103.71863 -62.893444 27.896477 72 80 78
-103.53939 -62.873615 27.929241 99 105 103
-103.2979 -62.85429 27.915302 76 85 78
-103.10246 -62.886055 27.904249 108 108 103
-102.86066 -62.896046 27.91815 84 91 89
-102.69713 -62.914616 27.908665 88 93 90
-102.50419 -62.895615 27.926542 91 100 100
-102.29472 -62.846958 27.895487 84 93 93
-102.11099 -62.911457 27.902929 105 112 117
-101.93661 -62.974049 27.897442 116 119 126
-101.71896 -62.921181 27.914738 99 108 112
-101.5847 -62.891392 27.8284 119 127 129
-105.30866 -62.64328 27.878794 126 134 134
-105.07926 -62.678608 27.881954 125 131 135
-104.905 -62.659348 27.90642 123 130 133
-104.70315 -62.698044 27.904669 117 126 130
-104.57194 -62.726238 27.943439 126 130 135
-103.82825 -62.637924 27.81501 53 68 60
-103.68501 -62.705822 27.89909 53 68 61
-103.46833 -62.726074 27.90542 70 81 76
-103.32105 -62.728992 27.898766 67 79 73
-103.11775 -62.696571 27.919758 70 77 72
-102.91653 -62.68124 27.925333 87 90 87
-102.71827 -62.73032 27.905514 103 101 97
-102.46303 -62.739815 27.925121 73 83 82
-102.34422 -62.770782 27.900425 82 91 91
-101.80766 -62.681755 27.888916 97 108 113
-101.74091 -62.713387 27.91675 98 104 111
-105.44841 -62.519287 27.897619 139 145 148
-105.28091 -62.482849 27.908678 130 136 142
-105.09869 -62.512913 27.911919 131 138 148
-104.91378 -62.506115 27.900454 120 129 136
-104.69598 -62.506664 27.911125 107 115 116
-104.52837 -62.507954 27.913677 112 122 127
-103.66808 -62.556519 27.916021 49 64 55
-103.57611 -62.4613 27.901373 62 74 70
-103.31017 -62.509884 27.869955 62 72 67
-103.13045 -62.541348 27.90274 91 95 89
-102.68042 -62.459869 27.945892 67 78 73
-101.80194 -62.548965 27.994448 85 99 102
-101.6891 -62.476418 27.89114 101 108 111
-101.50396 -62.471035 27.9011 111 117 121
-101.35731 -62.484356 27.897688 127 134 140
-105.43988 -62.347553 27.861906 143 144 151
-105.2913 -62.292969 27.904629 132 134 136
-105.10453 -62.29274 27.873114 118 120 123
-104.91608 -62.278419 27.914724 118 122 127
-104.68711 -62.284451 27.892572 101 111 115
-104.53188 -62.338364 27.884357 103 114 120
-103.43674 -62.325783 27.845716 56 68 61
-103.27602 -62.317822 27.888294 59 68 62
-103.10507 -62.307213 27.931343 81 88 83
-102.91557 -62.335476 27.896616 117 124 117
-102.39171 -62.281693 27.862474 51 66 56
-101.8248 -62.383133 27.892893 84 95 96
-101.68506 -62.292679 27.894293 93 100 101
-101.52452 -62.309486 27.945248 109 115 120
-101.33699 -62.304665 27.916922 133 136 144
-101.18654 -62.311134 27.845409 126 135 137
-105.21923 -62.144466 27.851995 105 114 115
-105.10315 -62.103252 27.909128 116 121 122
-104.87719 -62.095379 27.894674 108 112 117
-104.74002 -62.092613 27.920668 123 128 136
-104.58049 -62.074707 27.865517 161 167 169
-103.52105 -62.032623 27.894888 64 75 72
-103.21273 -62.164055 27.980648 69 77 66
-103.0882 -62.082874 27.935486 67 77 73
-101.66671 -62.117218 27.88443 89 98 98
-101.491 -62.152115 27.918159 118 124 133
-105.07373 -61.914719 27.866877 141 144 151
-104.88137 -61.861065 27.943665 131 136 142
-104.71732 -61.901562 27.907909 124 130 139
-104.55314 -61.871098 27.891592 116 122 123
-104.24538 -61.870571 27.898115 86 96 95
-104.07919 -61.895454 27.83003 80 86 84
-103.90174 -61.824863 27.924644 66 77 71
-103.48448 -61.875809 27.852589 53 68 59
-103.33546 -61.960953 27.903645 61 72 68
-103.10433 -61.919613 27.820133 54 66 59
-101.72646 -61.94416 27.895655 106 111 118
-105.00185 -61.797016 27.918083 135 145 155
-104.92599 -61.68092 27.943054 113 122 140
-104.674 -61.722786 27.920931 132 145 156
-104.5178 -61.709789 27.910173 110 118 124
-104.31241 -61.752502 27.890127 108 116 118
-104.11502 -61.713562 27.857376 104 110 110
-103.99682 -61.779442 27.827444 113 118 119
-102.62935 -61.702019 27.912346 47 60 57
-102.57722 -61.681091 27.925272 41 51 52
-104.81515 -61.549049 27.898136 118 126 148
-104.7511 -61.509949 27.905912 120 127 145
-104.48287 -61.543877 27.86797 105 112 118
-104.31717 -61.473969 27.894035 106 112 114
-104.0813 -61.515697 27.898035 94 105 93
-102.03154 -61.405834 27.869373 138 142 154
-101.9305 -61.433247 27.995399 127 132 138
-101.69556 -61.420029 27.860638 115 123 133
-101.43958 -61.460632 27.855448 153 158 164
-104.67993 -61.255924 27.876747 115 120 118
-104.52389 -61.284252 27.878214 127 132 135
-104.33233 -61.337311 27.939981 118 129 125
-102.04327 -61.269966 27.936615 95 101 108
-101.84061 -61.239765 27.869621 109 115 121
-101.73856 -61.339161 27.887533 91 100 102
-101.54147 -61.351612 27.835117 110 118 125
-104.84386 -61.096001 27.856375 136 135 139
-104.6931 -61.098045 27.849585 125 127 130
-104.54086 -61.028446 27.84269 77 78 80
-104.33905 -61.092999 27.901266 132 135 130
-102.03576 -61.101593 27.944269 101 110 113
-101.92128 -61.063499 27.884901 105 111 114
-104.83999 -60.983997 27.830011 120 121 124
-104.68337 -60.945332 27.830164 110 112 116
-104.48797 -60.894444 27.885471 105 107 104
-104.32603 -60.93383 27.880424 124 129 125
-102.44879 -60.846046 27.810165 107 113 122
-102.31059 -60.819305 27.913567 111 116 125
-102.06956 -60.884377 27.928429 137 138 148
-101.90565 -60.889835 27.890682 110 117 122
-104.64299 -60.735394 27.905064 124 122 124
-104.50053 -60.70546 27.925617 128 129 132
-104.34905 -60.678528 27.893814 126 131 134
-104.19726 -60.622005 27.949535 147 153 151
-103.10408 -60.655945 27.915005 87 90 94
-102.86879 -60.642738 27.904842 120 123 127
-102.68969 -60.698826 27.96307 100 99 107
-102.50561 -60.715214 27.867725 117 119 132
-102.25726 -60.721169 27.925121 111 118 130
-102.14088 -60.704468 27.860542 112 115 128
-101.89424 -60.726318 27.910879 110 120 125
-105.07503 -60.469437 27.946239 166 180 193
-104.76488 -60.456917 27.909079 156 159 174
-104.41562 -60.563377 27.901375 106 106 108
-104.2716 -60.510197 27.886065 106 107 112
-104.15082 -60.488789 27.90044 104 107 106
-103.2757 -60.443878 27.89699 122 123 123
-103.09964 -60.509319 27.917847 114 115 118
-102.88301 -60.486877 27.914865 103 108 112
-102.69474 -60.466167 27.91633 85 97 99
-102.49305 -60.50061 27.910919 79 93 95
-102.31051 -60.527027 27.887751 101 114 123
-102.14472 -60.542328 27.924614 116 127 143
-101.97917 -60.472839 27.800514 147 159 171
-104.87693 -60.311569 27.914061 166 182 197
-104.42983 -60.26049 27.933327 117 119 122
-104.2712 -60.258259 27.884199 131 130 138
-104.15804 -60.297348 27.936005 109 113 115
-103.46018 -60.225136 27.986736 164 166 163
-103.2585 -60.259708 27.907782 84 89 87
-103.08516 -60.268196 27.898888 87 93 93
-102.8876 -60.283459 27.883301 102 107 108
-102.70584 -60.298817 27.900854 102 110 113
-102.50056 -60.283421 27.845331 107 116 121
-102.38182 -60.219666 27.865606 114 121 128
-104.43705 -60.162792 27.819956 100 101 104
-104.26815 -60.113384 27.879641 142 140 146
-104.10459 -60.100204 27.946146 122 124 125
-103.27808 -60.134876 27.961151 88 94 92
-103.1107 -60.093224 27.902599 99 106 107
-102.89098 -60.10857 27.880878 109 117 123
-102.71464 -60.105579 27.87966 109 117 121
-102.50534 -60.088673 27.869423 125 134 143
-102.37968 -60.044662 27.925056 97 104 114
-104.28439 -59.907238 27.863729 141 136 148
-103.92857 -59.816399 27.924068 134 134 141
-103.21824 -59.862999 27.887369 108 118 121
-103.1127 -59.910622 27.918547 106 113 118
-102.89078 -59.922829 27.880966 127 130 135
-102.71235 -59.920803 27.86274 125 132 137
-102.5265 -59.920715 27.866688 115 127 132
-102.38258 -59.99374 27.853115 117 130 135
-103.81338 -59.772221 27.814585 120 116 130
-103.70042 -59.670135 27.93243 122 125 135
-103.58728 -59.684814 27.958075 118 118 121
-103.25599 -59.669987 27.932684 136 136 143
-103.12711 -59.712341 27.907829 137 137 146
-102.91222 -59.75602 27.881063 143 142 149
-102.6717 -59.713745 27.852337 131 136 140
-102.56406 -59.684902 27.889694 127 134 142
-104.11063 -59.479637 27.849022 132 134 150
-103.99288 -59.540222 27.885439 146 146 146
-103.69357 -59.50169 27.890877 135 139 148
-103.49265 -59.501358 27.937119 106 107 117
-103.29701 -59.490505 27.92012 98 106 111
-103.16588 -59.527294 27.943943 148 150 156
-102.62941 -59.573566 27.848213 115 121 129
-102.56664 -59.564457 27.837671 91 101 107
-104.46595 -59.225784 27.831005 110 113 120
-103.88248 -59.360092 27.908337 99 105 114
-103.73676 -59.283634 27.911255 123 130 140
-103.48365 -59.284962 27.937088 119 125 126
-103.70411 -59.104305 27.868193 125 128 140
-103.54516 -59.117111 27.953381 111 113 124
-104.34584 -56.65015 27.876007 119 113 123
-103.69837 -56.156982 27.819862 91 90 95
-104.04866 -55.739513 27.865759 143 140 140
-103.92267 -55.689289 27.891611 138 133 135
-104.04089 -55.467426 27.809658 171 157 170
-103.91402 -55.481201 27.827362 155 145 155
-104.12068 -55.314804 27.844923 166 155 169
-102.68095 -65.252319 28.015314 124 113 102
-102.84241 -65.033737 28.005424 97 96 79
-102.67165 -65.088272 28.086544 132 125 115
-102.52676 -65.039574 28.093933 155 149 138
-102.90081 -64.956085 28.138847 143 132 123
-102.74602 -64.947975 28.106853 116 116 103
-102.59235 -64.996414 28.142977 130 126 115
-104.05247 -64.672729 28.109528 158 126 133
-103.84377 -64.610886 28.109367 146 139 136
-103.63281 -64.656662 28.004436 160 150 150
-103.53516 -64.701645 28.028013 155 142 146
-103.36484 -64.66037 28.084906 130 118 113
-102.89046 -64.710251 28.128166 125 122 114
-102.68378 -64.69001 28.08699 153 145 143
-102.52005 -64.684624 28.105665 146 140 129
-102.29546 -64.674271 28.080353 156 139 134
-102.09923 -64.670013 28.094376 148 136 128
-101.97134 -64.630836 28.097635 184 177 163
-104.2374 -64.496017 28.05274 188 170 184
-104.0692 -64.463036 28.106634 164 156 165
-103.88635 -64.50531 28.105829 156 152 159
-103.6928 -64.537155 28.087934 146 145 149
-103.52682 -64.489784 28.115707 143 137 140
-103.29639 -64.421989 28.123268 123 125 127
-103.07727 -64.490593 28.108627 153 149 150
-102.88499 -64.492661 28.085499 155 147 148
-102.68285 -64.499336 28.116407 143 137 133
-102.51798 -64.50444 28.115051 146 141 137
-102.30498 -64.466393 28.08564 133 132 126
-102.12521 -64.486328 28.124269 124 123 116
-101.89191 -64.465431 28.102886 186 180 183
-101.7743 -64.594177 28.020456 190 176 169
-104.42351 -64.262177 28.146601 153 151 154
-104.30488 -64.285843 28.125332 145 144 149
-104.12275 -64.305519 28.098577 153 148 152
-103.85152 -64.247604 28.120407 141 142 149
-103.71346 -64.272354 28.12299 139 139 147
-103.51236 -64.294983 28.123838 144 138 142
-103.31274 -64.313118 28.119476 129 129 130
-103.1194 -64.328751 28.102795 122 125 124
-102.90962 -64.298431 28.092136 132 132 135
-102.69033 -64.296654 28.122467 143 144 148
-102.49545 -64.27314 28.100096 139 142 148
-102.30612 -64.290108 28.101616 145 144 149
-102.15034 -64.288773 28.076944 130 127 133
-101.97223 -64.293854 28.084986 80 85 79
-104.43383 -64.116585 28.074789 151 154 156
-104.32719 -64.077705 28.091484 148 151 156
-104.07666 -64.094635 28.089598 139 142 151
-103.91264 -64.107948 28.127176 142 145 155
-103.67541 -64.130638 28.115042 108 112 118
-103.50957 -64.094604 28.118971 121 127 133
-103.27215 -64.066399 28.08964 144 147 153
-103.08244 -64.066315 28.0898 127 131 137
-102.9134 -64.061432 28.105732 131 134 138
-102.67352 -64.100433 28.082682 133 136 137
-102.49757 -64.101746 28.078724 139 143 149
-102.32406 -64.103722 28.103252 154 156 166
-102.13735 -64.099327 28.098345 148 148 156
-104.6375 -63.948174 28.060883 158 160 168
-104.46387 -63.878799 28.091469 148 154 155
-104.30997 -63.906338 28.07139 132 138 141
-104.09967 -63.905735 28.115723 141 147 159
-103.91012 -63.886642 28.117441 129 134 143
-103.73028 -63.852787 28.130896 117 122 129
-103.47907 -63.907307 28.111979 109 119 120
-103.29312 -63.885181 28.100969 116 124 128
-103.11728 -63.928337 28.141178 139 144 152
-102.86917 -63.902103 28.120916 127 132 136
-102.73592 -63.890984 28.098856 125 129 129
-102.50595 -63.911407 28.081009 112 118 114
-102.28483 -63.947281 28.101093 137 142 151
-102.16291 -63.940247 28.04744 140 142 148
-104.75119 -63.679722 28.103981 151 153 158
-104.41718 -63.70182 28.153296 120 127 125
-104.30703 -63.695969 28.107704 115 125 126
-104.0947 -63.710644 28.078314 123 131 137
-103.90781 -63.704578 28.109558 114 123 129
-103.7268 -63.687042 28.131828 116 123 127
-103.44482 -63.70208 28.132214 89 100 100
-103.29059 -63.707569 28.133722 90 100 103
-103.11775 -63.713379 28.099237 110 118 120
-102.8722 -63.70657 28.097046 132 138 141
-102.73308 -63.734482 28.105822 127 132 135
-102.55595 -63.691902 28.080603 134 138 151
-102.30141 -63.680336 28.022034 102 116 114
-104.82643 -63.48386 28.057377 143 153 162
-104.69975 -63.467533 28.088388 115 124 128
-104.48397 -63.485981 28.104536 130 139 142
-104.28243 -63.470757 28.075958 133 140 143
-104.0869 -63.495335 28.096455 112 121 124
-103.93238 -63.509674 28.102551 109 116 119
-103.72633 -63.516609 28.08993 125 131 137
-103.46929 -63.530361 28.108191 54 71 65
-103.29171 -63.491077 28.133207 83 94 96
-103.10536 -63.489555 28.106649 100 108 110
-102.90295 -63.520428 28.102934 102 112 112
-102.72944 -63.551815 28.09363 111 112 117
-102.56898 -63.527 28.103695 133 135 122
-104.89077 -63.281609 28.081432 112 117 118
-104.66936 -63.316002 28.112415 121 129 132
-104.50397 -63.349236 28.111162 114 120 120
-104.27786 -63.325684 28.127525 111 120 122
-104.1022 -63.31403 28.101273 106 115 115
-103.88892 -63.319183 28.107025 100 108 110
-103.70945 -63.294445 28.102356 103 111 114
-103.53199 -63.261124 28.136955 96 103 104
-103.28824 -63.318508 28.125273 106 113 117
-103.06963 -63.296215 28.116287 85 96 95
-102.89021 -63.287971 28.087341 104 111 113
-102.75254 -63.280663 28.104132 96 100 101
-102.42314 -63.224911 28.056351 130 125 118
-102.24802 -63.258785 28.078577 115 117 109
-102.09058 -63.326614 28.103945 102 107 103
-101.93033 -63.338379 28.152599 149 148 135
-105.03682 -63.065056 28.116337 159 164 171
-104.97647 -63.153549 28.173073 142 146 156
-104.70821 -63.090565 28.080669 121 124 126
-104.51089 -63.070232 28.119696 142 146 157
-104.30354 -63.139145 28.100071 130 137 143
-104.08862 -63.142513 28.123695 88 99 97
-103.90458 -63.083755 28.14563 80 91 87
-103.71088 -63.123795 28.119268 108 113 112
-103.55033 -63.118557 28.075163 99 104 102
-103.27251 -63.113873 28.143457 99 110 111
-103.06816 -63.097824 28.123238 85 93 91
-102.90526 -63.11544 28.103514 96 104 103
-102.73666 -63.079208 28.119719 91 99 98
-102.53703 -63.086338 28.138786 110 114 113
-102.37175 -63.199387 28.167704 130 129 123
-102.00223 -63.005985 28.004761 117 124 134
-101.81171 -63.013 28.09577 97 107 105
-104.88657 -62.918072 28.128229 110 120 122
-104.69421 -62.894608 28.117163 144 148 158
-104.54497 -62.918079 28.131399 126 133 144
-103.83269 -62.970581 28.066935 67 77 73
-103.69431 -62.895351 28.102959 93 100 101
-103.49905 -62.907986 28.119703 100 103 102
-103.28375 -62.903164 28.143742 72 84 77
-103.13504 -62.89183 28.120544 89 96 91
-102.88902 -62.899738 28.103662 89 92 91
-102.67191 -62.931072 28.111143 91 94 92
-102.51873 -62.895458 28.106417 94 101 102
-102.24721 -62.829185 28.075098 103 111 115
-102.11336 -62.88055 28.103743 106 114 119
-101.89229 -62.91608 28.117603 121 126 136
-101.74973 -62.889061 28.101208 118 125 134
-105.0177 -62.66975 28.046564 143 152 164
-104.90662 -62.619556 28.067362 122 134 145
-104.69595 -62.716423 28.120316 115 127 134
-104.51624 -62.66671 28.103901 114 124 129
-103.65903 -62.690807 28.045954 58 72 65
-103.50198 -62.721691 28.116301 64 75 70
-103.30434 -62.701908 28.099525 64 75 70
-103.06948 -62.668488 28.112061 66 73 67
-102.88849 -62.69664 28.087233 85 89 86
-102.73115 -62.697277 28.109434 96 98 95
-102.49829 -62.733437 28.134382 94 102 102
-102.31271 -62.728561 28.122808 93 102 103
-102.12473 -62.780079 28.136755 109 118 120
-101.80963 -62.786949 28.133331 124 128 140
-101.74541 -62.697803 28.12158 108 115 123
-101.59607 -62.746773 28.001183 131 141 147
-105.40586 -62.418018 28.08791 147 143 151
-105.32664 -62.462082 28.068281 127 131 131
-105.08442 -62.492596 28.073629 134 137 141
-104.89814 -62.493057 28.100306 120 128 135
-104.7189 -62.494781 28.093681 107 117 120
-104.49612 -62.527466 28.09532 112 122 127
-103.61504 -62.501553 28.015736 43 59 48
-103.47092 -62.536098 28.083185 56 66 60
-103.32416 -62.473808 28.088413 70 76 72
-103.09133 -62.494659 28.118483 91 95 88
-102.91233 -62.574348 28.11664 102 100 98
-102.66982 -62.552624 28.126278 67 77 74
-102.51109 -62.482372 28.097164 58 70 65
-102.32906 -62.48246 28.082174 65 77 71
-101.70265 -62.509228 28.125086 100 108 111
-101.51006 -62.460365 28.048025 112 119 123
-101.34706 -62.456867 28.067242 122 129 137
-105.42218 -62.369801 28.100241 149 153 160
-105.27293 -62.309967 28.06266 153 152 157
-105.07749 -62.327579 28.099463 140 137 142
-104.88796 -62.317425 28.095577 132 132 139
-104.72141 -62.310257 28.102764 126 135 143
-104.5518 -62.344482 28.061689 130 138 144
-103.48296 -62.256104 28.150253 82 88 83
-103.27711 -62.317196 28.126978 73 75 71
-103.08243 -62.338192 28.115129 79 86 80
-102.9721 -62.252602 28.125399 64 76 72
-102.40458 -62.31604 28.018835 50 63 53
-101.80059 -62.260372 28.089382 85 95 96
-101.71063 -62.298672 28.13508 84 93 93
-101.46655 -62.294937 28.078472 112 118 125
-101.36336 -62.310398 28.075689 124 129 139
-105.40521 -62.191917 28.025192 120 121 116
-105.07409 -62.097404 28.059219 122 125 127
-104.8791 -62.083679 28.091644 121 125 128
-104.73618 -62.10973 28.114733 139 143 151
-103.49736 -62.106331 28.093569 59 71 64
-103.28165 -62.114456 28.11331 70 78 71
-103.06638 -62.157692 28.098154 81 87 83
-102.99868 -62.192917 28.053858 67 76 71
-101.69016 -62.151016 28.120752 88 98 98
-101.50415 -62.13876 28.106855 106 113 119
-101.37849 -62.091084 28.050329 116 123 128
-105.11991 -61.921589 28.075628 125 129 134
-104.91042 -61.876621 28.077326 117 124 131
-104.71421 -61.899151 28.099062 128 134 141
-104.5348 -61.817173 28.115538 107 113 115
-104.3456 -61.875019 28.116417 95 99 93
-104.12439 -61.886513 28.150307 102 105 101
-103.44779 -61.90176 28.067589 59 71 66
-103.31387 -61.927441 28.120663 64 73 68
-101.70464 -61.976074 28.174877 117 126 131
-105.0183 -61.791489 28.024319 139 143 152
-104.92703 -61.730686 28.131683 122 128 143
-104.68961 -61.761276 28.11132 111 116 124
-104.508 -61.72673 28.089367 114 122 127
-104.28246 -61.727478 28.057352 98 109 106
-104.1347 -61.718098 28.040146 107 114 114
-103.30824 -61.755138 28.102167 46 57 49
-101.84869 -61.662079 28.153992 99 104 111
-101.65882 -61.769718 28.136604 162 160 171
-104.90856 -61.54607 28.017633 132 148 174
-104.69268 -61.575756 28.089806 94 106 120
-104.45496 -61.498596 28.03933 81 86 89
-104.28797 -61.471283 28.09075 95 104 96
-104.12594 -61.53302 28.007395 94 105 92
-103.2754 -61.547962 28.169163 60 71 65
-102.0983 -61.428322 28.073917 93 98 107
-101.88807 -61.502987 28.1182 103 110 118
-101.69372 -61.476807 28.107447 93 101 107
-104.62796 -61.280083 28.08305 130 130 128
-104.47952 -61.310314 28.140947 118 122 114
-102.2607 -61.38076 28.173733 89 103 102
-102.08796 -61.302044 28.150764 101 108 115
-101.93777 -61.295506 28.107948 91 102 108
-101.76322 -61.279739 28.089607 100 110 115
-105.06034 -61.038536 28.095242 58 69 73
-104.642 -61.108944 28.085779 129 126 133
-104.51087 -61.091221 28.120779 129 129 131
-104.3848 -61.069885 28.08065 151 153 150
-102.23002 -61.066902 28.111423 123 126 135
-102.08693 -61.109222 28.106558 101 109 115
-101.93874 -61.074375 28.077101 102 112 116
-101.76226 -61.118488 28.045166 126 134 145
-104.63462 -60.926208 28.058979 134 136 138
-104.50641 -60.894371 28.081272 138 138 140
-104.34095 -60.881481 28.07374 129 135 134
-102.49449 -60.804955 28.07284 105 111 118
-102.23025 -60.845318 28.105368 116 120 126
-102.07224 -60.911236 28.12018 104 110 115
-101.93901 -60.929306 28.090536 104 112 118
-104.62234 -60.6763 28.080484 134 134 142
-104.51736 -60.689259 28.071857 119 119 121
-104.29118 -60.709511 28.094158 135 141 138
-102.80183 -60.606731 28.150002 145 150 156
-102.65495 -60.712456 28.163858 107 113 121
-102.45991 -60.766628 28.085665 116 119 132
-102.27322 -60.757618 28.115108 104 110 122
-102.12563 -60.726353 28.100449 110 118 127
-101.96759 -60.731865 28.116652 111 118 128
-104.47255 -60.57217 28.013741 132 134 140
-104.27964 -60.454784 28.093237 123 124 129
-103.21397 -60.545284 28.049484 81 82 86
-103.08417 -60.542404 28.067507 91 96 98
-102.87663 -60.462883 28.086584 91 100 100
-102.7024 -60.50037 28.104891 85 96 96
-102.48987 -60.500671 28.12348 78 91 93
-102.3168 -60.542416 28.103994 105 114 122
-102.08089 -60.54863 28.042175 126 134 146
-101.99384 -60.558071 28.038628 135 149 162
-104.29212 -60.327061 28.087856 139 139 145
-104.1485 -60.284031 28.09733 130 130 139
-103.24081 -60.276997 28.128338 94 102 99
-103.14069 -60.297153 28.101662 80 87 87
-102.91706 -60.299393 28.112511 99 110 113
-102.69685 -60.318993 28.06522 108 117 122
-102.53041 -60.323002 28.080086 94 105 114
-102.29509 -60.323303 28.081268 113 121 129
-104.23117 -60.063889 28.061777 149 147 156
-104.15652 -60.109921 28.095961 140 137 143
-103.43594 -60.069229 28.129715 105 104 108
-103.28899 -60.08054 28.12628 109 112 114
-103.12057 -60.102085 28.111387 95 105 106
-102.90569 -60.090115 28.086084 144 149 153
-102.68162 -60.097679 28.022161 111 122 129
-102.50082 -60.11171 28.034628 115 127 138
-104.26632 -59.934547 28.020531 132 131 145
-104.11526 -59.898495 28.083883 131 129 140
-103.66476 -59.851849 28.169285 116 116 125
-103.43777 -59.843716 28.166285 118 119 120
-103.31155 -59.931965 28.147507 106 110 109
-103.10415 -59.891937 28.126583 110 113 118
-102.91045 -59.896759 28.081921 152 150 154
-104.00441 -59.714951 28.115196 110 112 125
-103.88387 -59.721363 28.124628 149 145 157
-103.66958 -59.709312 28.088434 132 130 136
-103.52568 -59.69611 28.1434 136 136 140
-103.28955 -59.672035 28.127897 136 136 142
-103.12959 -59.702244 28.09613 127 129 139
-102.90366 -59.794495 28.089041 139 138 140
-102.72887 -59.715118 28.018892 125 130 125
-102.488 -59.736942 28.037966 78 84 87
-104.0374 -59.487911 28.071796 146 153 162
-103.6393 -59.476898 28.054787 127 135 143
-103.50479 -59.522461 28.101957 132 137 144
-103.32433 -59.525028 28.110533 106 109 113
-103.1187 -59.577011 28.096867 146 146 155
-103.63841 -59.311588 28.028917 173 174 192
-103.52505 -59.265606 28.102894 109 115 121
-103.34482 -59.373932 28.104666 101 106 107
-103.83419 -55.837818 28.081682 122 125 123
-102.93415 -64.628464 28.301107 90 89 86
-102.6818 -64.629128 28.224398 116 108 95
-102.4873 -64.633751 28.239202 146 131 122
-102.29297 -64.635262 28.246017 142 130 120
-102.18602 -64.604874 28.217327 117 110 102
-104.24667 -64.53418 28.227423 182 150 151
-104.12091 -64.495483 28.278015 155 134 138
-103.89459 -64.463936 28.273136 154 146 149
-103.75176 -64.485611 28.297434 165 157 158
-103.50131 -64.43119 28.273239 114 111 109
-103.04924 -64.480057 28.262726 164 147 147
-102.91286 -64.481285 28.268658 149 146 147
-102.64439 -64.486694 28.284746 135 126 116
-102.49336 -64.480118 28.305502 132 127 118
-102.31541 -64.488503 28.307524 144 134 127
-102.13048 -64.499596 28.286182 159 149 140
-104.41427 -64.335373 28.241127 176 138 146
-104.27395 -64.277077 28.28269 159 153 159
-104.12926 -64.299591 28.288948 155 147 155
-103.90102 -64.284286 28.301512 153 148 154
-103.68677 -64.291031 28.321987 140 138 141
-103.48914 -64.272881 28.28491 137 137 140
-103.28538 -64.271812 28.292477 139 139 139
-103.11162 -64.295471 28.313002 157 153 157
-102.89153 -64.286339 28.286221 151 148 149
-102.6748 -64.305122 28.290144 142 141 141
-102.49763 -64.295731 28.312128 139 137 139
-102.29848 -64.294556 28.298281 149 142 144
-102.14443 -64.267235 28.282843 133 130 125
-104.44106 -64.090004 28.287279 145 145 151
-104.3207 -64.07769 28.301693 147 145 152
-104.09679 -64.087883 28.280333 140 141 150
-103.89745 -64.085365 28.304249 142 147 158
-103.70302 -64.101212 28.326687 140 143 152
-103.50983 -64.084129 28.301302 136 141 148
-103.29348 -64.098122 28.305447 128 129 132
-103.06207 -64.081734 28.297003 145 147 151
-102.89579 -64.088501 28.305462 140 143 146
-102.69108 -64.122269 28.289923 135 136 142
-102.49847 -64.113991 28.309538 141 141 149
-102.31206 -64.11422 28.301796 158 152 161
-102.13633 -64.11866 28.288023 161 156 163
-104.61578 -63.91304 28.288929 126 124 122
-104.4379 -63.882446 28.264122 136 141 145
-104.28831 -63.887459 28.288343 131 135 140
-104.06767 -63.904305 28.290085 136 142 150
-103.90044 -63.891941 28.297121 130 137 147
-103.69688 -63.89328 28.318832 138 140 147
-103.5045 -63.906525 28.313204 121 128 131
-103.32592 -63.874104 28.327124 104 111 112
-103.08246 -63.893116 28.292326 148 152 162
-102.91812 -63.906628 28.292274 144 148 157
-102.74271 -63.887436 28.261784 131 137 139
-102.47676 -63.919285 28.303989 142 144 153
-102.3136 -63.920792 28.261055 165 156 169
-102.14416 -63.920929 28.247322 133 141 144
-104.54079 -63.688789 28.237221 132 139 143
-104.26409 -63.681751 28.286661 96 106 101
-104.10406 -63.685719 28.292566 110 119 119
-103.91034 -63.706055 28.305658 124 131 136
-103.70569 -63.706165 28.308393 133 137 143
-103.47388 -63.69706 28.335297 105 113 114
-103.30045 -63.686756 28.286844 102 110 115
-103.10442 -63.710091 28.323706 131 135 143
-102.88614 -63.707706 28.324051 132 136 143
-102.75459 -63.725739 28.292313 127 133 136
-102.52721 -63.73164 28.281454 112 117 122
-102.35023 -63.746162 28.306162 133 134 143
-104.68392 -63.484821 28.228403 145 148 156
-104.46707 -63.500626 28.247917 116 123 123
-104.29832 -63.50787 28.308405 108 116 114
-104.07729 -63.492531 28.24946 107 117 118
-103.87364 -63.505531 28.304192 117 125 129
-103.71513 -63.515915 28.317602 118 124 131
-103.45744 -63.513496 28.340023 89 101 99
-103.29826 -63.486172 28.300104 89 101 102
-103.0856 -63.48877 28.307461 123 128 134
-102.92654 -63.515507 28.296589 122 126 131
-102.76109 -63.480747 28.289085 122 131 133
-102.58265 -63.514267 28.376686 155 139 151
-104.83673 -63.315945 28.227434 126 131 125
-104.69122 -63.271782 28.324173 122 125 126
-104.44953 -63.308994 28.286459 128 138 137
-104.26863 -63.291786 28.312586 112 118 122
-104.11547 -63.270195 28.321621 107 117 118
-103.89798 -63.319542 28.311853 103 112 114
-103.68169 -63.309055 28.315083 111 116 120
-103.56989 -63.298145 28.305971 109 115 119
-103.25047 -63.319099 28.280907 95 106 106
-103.10916 -63.29932 28.301746 91 102 101
-102.93674 -63.301037 28.316889 116 121 120
-102.7591 -63.24963 28.350805 103 111 113
-102.28436 -63.235119 28.288305 131 131 122
-102.10203 -63.233807 28.292788 117 119 111
-101.8856 -63.232925 28.28223 129 133 123
-105.01001 -63.089294 28.243959 116 121 127
-104.86764 -63.093678 28.350117 138 140 142
-104.69877 -63.091026 28.337606 132 133 139
-104.49068 -63.103088 28.312122 125 129 135
-104.3168 -63.153675 28.290119 128 135 139
-104.0729 -63.132153 28.315031 99 109 110
-103.91352 -63.077881 28.317808 84 95 94
-103.68202 -63.12109 28.297144 110 114 116
-103.49518 -63.094387 28.294218 114 118 118
-103.29137 -63.098217 28.30488 102 110 109
-103.0978 -63.103188 28.313118 95 105 103
-102.90372 -63.085602 28.301371 101 108 106
-102.70543 -63.040627 28.298113 99 106 106
-102.51526 -63.08366 28.278467 126 124 122
-102.33775 -63.111908 28.325571 137 136 140
-102.07619 -63.105373 28.396362 120 127 120
-104.86411 -62.91861 28.355234 135 137 142
-104.68276 -62.888172 28.325714 132 138 144
-104.52107 -62.895897 28.320395 124 130 141
-104.39013 -62.925194 28.233185 164 167 174
-104.08136 -62.938435 28.338739 109 117 119
-103.85095 -62.951725 28.324892 80 90 88
-103.71049 -62.922005 28.303537 85 90 88
-103.47414 -62.900841 28.323755 98 105 102
-103.2738 -62.89674 28.298254 73 86 80
-103.10206 -62.9105 28.31039 84 93 89
-102.89854 -62.906292 28.326754 109 114 114
-102.67812 -62.894169 28.321608 103 108 109
-102.54217 -62.905666 28.306953 103 110 110
-102.27814 -62.831539 28.266434 109 111 119
-102.07592 -62.833187 28.279188 116 123 130
-101.91305 -62.865185 28.31694 124 128 139
-101.76019 -62.846649 28.234844 122 127 138
-104.83309 -62.721645 28.330099 116 127 128
-104.69135 -62.716328 28.323734 115 123 125
-104.48542 -62.710487 28.303209 114 123 130
-104.38013 -62.700722 28.313559 108 116 125
-103.67362 -62.700439 28.337112 81 89 85
-103.51255 -62.685188 28.316191 76 86 83
-103.31241 -62.731361 28.291576 70 80 79
-103.05457 -62.671158 28.280148 86 92 86
-102.89346 -62.664436 28.283596 85 91 87
-102.70905 -62.712215 28.291634 98 103 101
-102.48778 -62.725418 28.274679 87 98 96
-102.27277 -62.694981 28.285427 101 110 111
-102.10635 -62.705967 28.321323 115 123 129
-101.86365 -62.735291 28.336639 127 131 139
-101.75189 -62.676235 28.306709 110 117 125
-105.08086 -62.440056 28.256538 133 134 135
-104.87146 -62.490047 28.292704 129 136 139
-104.71953 -62.519634 28.28982 128 136 143
-104.53923 -62.501778 28.294754 135 141 145
-103.7139 -62.5112 28.346306 64 73 64
-103.44735 -62.554783 28.340261 75 83 79
-103.30927 -62.483616 28.320862 70 76 73
-103.08199 -62.489586 28.291178 86 89 85
-102.92545 -62.516922 28.30685 99 103 100
-102.66536 -62.578476 28.290737 71 83 77
-102.4984 -62.512882 28.30714 59 70 63
-102.30825 -62.530952 28.292212 66 77 71
-102.09308 -62.538052 28.322237 85 95 92
-101.935 -62.516651 28.358761 88 100 97
-101.69649 -62.524628 28.301296 108 116 120
-101.45892 -62.454762 28.321722 142 141 145
-105.27084 -62.329327 28.250046 133 132 138
-105.07949 -62.302895 28.285339 156 155 160
-104.89752 -62.322487 28.326719 135 139 141
-104.69122 -62.302673 28.292246 135 142 150
-104.59438 -62.276844 28.28801 114 122 123
-103.80378 -62.321053 28.228914 50 64 51
-103.79131 -62.295811 28.317074 56 68 54
-103.43933 -62.295864 28.326256 86 89 85
-103.30379 -62.316513 28.317928 75 79 79
-103.09498 -62.268433 28.284252 75 83 79
-102.96642 -62.30191 28.303772 88 96 91
-101.68559 -62.282887 28.322289 98 105 106
-101.50193 -62.304585 28.284744 115 118 125
-101.38215 -62.371643 28.246674 141 136 142
-105.10567 -62.107922 28.267851 132 133 135
-104.87846 -62.051559 28.323296 131 134 137
-104.72951 -62.134907 28.291416 144 152 163
-103.41106 -62.183819 28.391777 56 73 69
-103.26954 -62.118759 28.323324 65 72 70
-103.12505 -62.150227 28.355427 70 80 74
-101.65077 -62.144604 28.303953 103 110 113
-101.50493 -62.128391 28.293589 118 124 129
-101.3604 -62.078674 28.329458 114 119 126
-105.05969 -61.850143 28.214775 117 124 129
-104.87528 -61.901268 28.309082 114 119 123
-104.72172 -61.90197 28.320225 115 122 128
-104.51233 -61.829796 28.279049 100 108 102
-104.34514 -61.867149 28.23489 98 102 97
-104.10333 -61.810585 28.313026 92 95 89
-103.91456 -61.881645 28.36496 74 82 72
-103.75584 -61.961159 28.356535 61 64 57
-103.26367 -61.919186 28.291185 66 75 69
-103.17305 -61.896862 28.309164 66 77 74
-102.87577 -61.812111 28.32523 89 99 89
-102.71767 -61.854183 28.357712 95 106 98
-102.11531 -61.817009 28.356518 83 85 84
-101.82953 -61.888412 28.301548 129 134 139
-101.69156 -61.875786 28.307976 129 133 140
-101.51966 -61.87352 28.3074 146 146 155
-101.35734 -61.910088 28.309912 126 126 133
-104.87811 -61.760464 28.295891 114 119 123
-104.69853 -61.755775 28.287575 113 120 127
-104.5461 -61.768921 28.288979 117 120 122
-104.13483 -61.632896 28.30151 97 104 100
-103.41355 -61.698479 28.274727 59 63 56
-103.25362 -61.721245 28.263657 52 62 56
-103.19962 -61.650307 28.229437 43 52 49
-102.95559 -61.768379 28.348587 69 78 67
-102.76791 -61.789116 28.350893 81 90 80
-102.33828 -61.671082 28.338638 44 56 53
-101.84322 -61.696774 28.335831 100 106 113
-101.74023 -61.736691 28.348703 109 116 125
-101.49474 -61.757946 28.303474 147 147 157
-104.27979 -61.472897 28.243477 90 101 91
-104.11707 -61.509575 28.233982 78 88 77
-102.266 -61.511318 28.359997 67 81 76
-102.11004 -61.478828 28.324923 91 97 103
-101.89704 -61.484467 28.343967 112 118 127
-101.69215 -61.56218 28.204296 129 135 144
-104.44143 -61.320774 28.326492 108 115 109
-104.29604 -61.364059 28.293091 96 108 96
-102.24432 -61.348537 28.333208 82 92 92
-102.10775 -61.299767 28.307972 92 102 107
-101.92103 -61.323887 28.296515 103 114 123
-104.87907 -61.092869 28.331953 112 119 127
-104.49718 -61.088463 28.332888 120 125 124
-102.29704 -61.020809 28.298746 113 114 123
-102.08346 -61.101704 28.319181 95 104 108
-101.93022 -61.075806 28.255423 116 122 128
-104.65824 -60.853806 28.265985 139 142 147
-104.50862 -60.942513 28.287622 140 142 142
-102.63824 -60.986977 28.364124 85 89 92
-102.45776 -60.827576 28.32192 109 112 122
-102.3073 -60.869003 28.303127 112 116 127
-102.07861 -60.908581 28.312365 102 109 115
-101.92374 -60.894615 28.246279 103 114 122
-104.51957 -60.73761 28.254944 131 132 134
-104.39277 -60.763027 28.266293 145 148 146
-102.69545 -60.692959 28.321812 111 114 122
-102.47421 -60.774563 28.299652 112 116 127
-102.29124 -60.770554 28.278381 102 108 117
-102.09492 -60.753181 28.258703 125 131 142
-101.96157 -60.735558 28.303772 102 113 124
-104.28894 -60.48283 28.327009 127 128 134
-103.10869 -60.49453 28.323612 92 99 101
-102.88438 -60.425922 28.32902 95 107 112
-102.73347 -60.509651 28.33884 79 90 93
-102.50423 -60.438297 28.306789 125 136 144
-102.26604 -60.405693 28.332409 110 114 123
-104.29236 -60.309898 28.286966 143 139 146
-104.18933 -60.216393 28.278639 136 134 139
-103.27895 -60.293926 28.292791 88 94 92
-103.11343 -60.245441 28.321016 91 99 99
-102.91232 -60.313293 28.286184 102 111 117
-102.77707 -60.391594 28.299351 116 129 135
-104.21714 -60.129078 28.293854 137 130 138
-104.14779 -60.10239 28.316 133 130 137
-103.63473 -60.015354 28.337511 120 117 125
-103.48797 -60.054153 28.31806 141 137 141
-103.29079 -60.076214 28.293396 111 117 118
-103.14857 -60.099472 28.298491 113 122 124
-104.21469 -59.94326 28.241512 140 135 150
-104.13647 -59.908318 28.313732 142 137 149
-103.67724 -59.894665 28.312963 116 118 126
-103.51047 -59.896236 28.300024 130 127 132
-103.30351 -59.884899 28.295515 119 122 124
-103.1013 -59.885902 28.305693 126 132 139
-104.06644 -59.728165 28.265888 153 150 167
-103.89159 -59.735382 28.301977 144 141 154
-103.71436 -59.756954 28.325523 140 138 145
-103.47727 -59.707043 28.284174 136 136 139
-103.3049 -59.710285 28.296183 127 128 132
-103.1279 -59.74601 28.298368 135 139 150
-104.07607 -59.556114 28.215805 147 149 170
-103.86449 -59.579269 28.294086 129 132 144
-103.7142 -59.533535 28.282253 127 135 144
-103.50213 -59.537029 28.301498 146 147 156
-103.33633 -59.522018 28.315189 122 126 130
-103.43892 -59.336048 28.287395 129 134 147
-104.23168 -64.50193 28.410793 141 116 111
-103.91382 -64.407829 28.514006 163 144 155
-103.70496 -64.455231 28.487894 147 149 148
-102.8703 -64.450378 28.473394 140 134 119
-102.66925 -64.42868 28.4585 155 140 133
-102.45708 -64.454254 28.424641 154 142 132
-102.30073 -64.445145 28.428833 145 136 128
-104.27532 -64.288834 28.506092 162 134 134
-104.10965 -64.274628 28.47229 158 149 154
-103.90104 -64.274628 28.474281 149 140 143
-103.72746 -64.226357 28.466335 130 130 133
-103.27258 -64.225578 28.487478 152 146 150
-103.05992 -64.254532 28.45126 134 133 131
-102.84817 -64.335449 28.50902 148 132 126
-102.68701 -64.267723 28.485853 146 137 136
-102.48037 -64.293999 28.486858 134 131 125
-102.29964 -64.28511 28.473909 137 137 128
-102.11781 -64.323608 28.443857 151 148 138
-104.45653 -64.027191 28.419033 159 158 164
-104.29122 -64.110092 28.454792 154 148 154
-104.09358 -64.105827 28.490051 149 144 150
-103.87312 -64.092224 28.49688 150 150 157
-103.70567 -64.100708 28.487049 148 150 160
-103.50131 -64.078888 28.498589 140 141 147
-103.31537 -64.111488 28.479578 151 150 157
-103.11613 -64.094093 28.492666 148 148 152
-102.84552 -64.070236 28.523773 133 139 138
-102.69955 -64.121025 28.498547 131 127 129
-102.50488 -64.116913 28.491888 149 143 149
-102.31738 -64.137268 28.474182 146 131 131
-104.4362 -63.909943 28.442295 145 147 153
-104.28951 -63.921047 28.480106 142 143 149
-104.09867 -63.91534 28.469614 132 133 137
-103.87552 -63.888836 28.482759 143 144 151
-103.6854 -63.906826 28.516504 151 154 165
-103.50824 -63.891445 28.503082 137 142 149
-103.3 -63.901932 28.507042 139 141 145
-103.09738 -63.914005 28.522764 132 134 135
-102.92346 -63.900089 28.491638 135 141 146
-102.74137 -63.933273 28.44594 141 141 150
-102.45859 -63.901062 28.488544 153 151 163
-102.37852 -63.988285 28.447805 129 124 129
-104.28634 -63.700542 28.482061 123 127 131
-104.10136 -63.690422 28.504883 127 131 129
-103.87579 -63.725178 28.524633 128 134 140
-103.69319 -63.692944 28.516216 130 134 140
-103.51774 -63.698689 28.497213 120 125 130
-103.31406 -63.700584 28.488459 121 124 129
-103.06196 -63.687786 28.489676 143 145 156
-102.93211 -63.689457 28.474529 140 144 154
-102.77735 -63.684383 28.436577 147 157 159
-102.45113 -63.710007 28.562988 134 134 146
-104.6719 -63.562172 28.429298 75 83 85
-104.45465 -63.401176 28.473619 90 100 99
-104.27252 -63.509476 28.499212 115 121 120
-104.10694 -63.503235 28.46036 116 121 122
-103.89153 -63.5079 28.454052 126 133 136
-103.70698 -63.514313 28.501595 127 133 141
-103.50585 -63.502594 28.507692 115 122 126
-103.29755 -63.487751 28.52035 110 117 120
-103.10539 -63.490841 28.483355 128 132 140
-102.93517 -63.524242 28.46895 127 134 139
-102.685 -63.541336 28.449169 109 116 112
-102.5423 -63.452904 28.493568 143 134 149
-102.37228 -63.566479 28.410461 110 121 113
-104.70287 -63.294201 28.497972 147 152 159
-104.48174 -63.288818 28.532539 113 118 119
-104.26061 -63.302696 28.507086 112 121 123
-104.10143 -63.265888 28.521925 113 123 127
-103.91571 -63.310524 28.544809 121 130 134
-103.65947 -63.292984 28.510609 115 121 124
-103.54449 -63.326935 28.515547 122 130 136
-103.27419 -63.319992 28.499386 103 113 115
-103.12237 -63.283707 28.517164 112 120 120
-102.90028 -63.260227 28.469164 133 133 130
-102.72906 -63.312511 28.500931 139 141 134
-104.81189 -63.033428 28.530783 132 135 140
-104.70643 -63.09906 28.533991 135 139 142
-104.50157 -63.089252 28.519209 135 141 149
-104.33748 -63.107559 28.509674 130 138 147
-104.06214 -63.112423 28.518528 103 114 114
-103.9049 -63.076324 28.495514 85 97 97
-103.69247 -63.100719 28.512856 106 110 114
-103.5089 -63.096066 28.499933 112 115 116
-103.25311 -63.088425 28.485613 115 121 123
-103.12475 -63.106667 28.506098 101 111 111
-102.8939 -63.060524 28.500973 117 124 126
-102.708 -63.056057 28.476379 118 122 124
-102.51678 -63.092949 28.47245 124 125 125
-102.28628 -63.110668 28.484743 125 129 128
-104.85648 -62.933968 28.476639 140 142 147
-104.69112 -62.920994 28.501568 132 137 142
-104.48782 -62.911949 28.520687 127 135 144
-104.31632 -62.899677 28.511612 118 125 130
-104.09432 -62.902374 28.533907 99 105 106
-103.85814 -62.942497 28.54356 80 90 89
-103.7041 -62.901089 28.51128 83 86 86
-103.47926 -62.888599 28.481983 105 109 108
-103.27563 -62.884045 28.502016 91 101 100
-103.10667 -62.921734 28.494389 90 99 97
-102.90265 -62.931133 28.508873 114 121 121
-102.68941 -62.941463 28.483213 121 126 131
-102.55783 -62.92289 28.501396 123 131 134
-101.89751 -62.836201 28.466257 127 134 141
-101.79997 -62.816181 28.409237 128 134 140
-104.83366 -62.695984 28.530552 130 136 140
-104.68986 -62.677025 28.495865 113 122 126
-104.47226 -62.702824 28.493286 120 129 138
-104.32728 -62.718899 28.528936 109 115 118
-104.08616 -62.708076 28.556934 97 101 102
-103.98999 -62.638474 28.477488 74 78 79
-103.64115 -62.684246 28.508265 68 78 72
-103.50659 -62.691738 28.506224 75 86 83
-103.31472 -62.704464 28.511478 81 91 90
-103.07243 -62.692924 28.497568 81 88 83
-102.88724 -62.696354 28.534285 93 100 97
-102.73428 -62.654282 28.470566 93 100 96
-102.51042 -62.675922 28.501846 91 98 99
-102.3222 -62.701832 28.522614 96 106 104
-102.08167 -62.659382 28.483446 112 120 124
-101.89565 -62.702888 28.512482 131 135 143
-101.759 -62.657291 28.489431 127 133 140
-104.8634 -62.485043 28.557062 147 151 154
-104.67285 -62.488586 28.51387 137 143 149
-104.54948 -62.518078 28.520523 125 134 146
-103.64127 -62.479298 28.547173 61 75 67
-103.52084 -62.513905 28.546644 71 80 77
-103.29747 -62.502331 28.520243 83 89 87
-103.1044 -62.445789 28.521372 89 94 94
-102.89042 -62.498569 28.504471 96 103 101
-102.71004 -62.562973 28.505199 99 110 106
-102.5124 -62.566185 28.499077 100 110 105
-102.23726 -62.59824 28.418165 80 91 88
-102.0787 -62.518814 28.510626 88 96 94
-101.92154 -62.532345 28.506786 98 107 107
-101.71918 -62.533901 28.51635 118 124 128
-101.58383 -62.425953 28.507965 114 119 125
-105.02826 -62.27729 28.496017 146 148 150
-104.90869 -62.296909 28.509457 145 147 150
-104.6718 -62.318695 28.488636 125 133 142
-104.59283 -62.362576 28.43952 129 138 146
-103.8449 -62.312443 28.553207 60 66 62
-103.72201 -62.347931 28.506596 81 90 85
-103.49355 -62.338081 28.510784 85 92 88
-103.28912 -62.30888 28.510084 82 88 87
-103.11082 -62.302597 28.501015 73 81 79
-102.93725 -62.303883 28.490582 101 108 105
-102.7579 -62.335464 28.584003 133 138 143
-102.03546 -62.203846 28.529978 59 68 72
-101.69551 -62.281982 28.513906 119 122 127
-101.50317 -62.264236 28.478977 132 135 140
