ply
format ascii 1.0
comment PCL generated
element vertex 1140
property float x
property float y
property float z
property uchar red
property uchar green
property uchar blue
element face 0
element camera 0
property float view_px
property float view_py
property float view_pz
property float x_axisx
property float x_axisy
property float x_axisz
property float y_axisx
property float y_axisy
property float y_axisz
property float z_axisx
property float z_axisy
property float z_axisz
property float focal
property float scalex
property float scaley
property float centerx
property float centery
property int viewportx
property int viewporty
property float k1
property float k2
end_header
23.454138 48.676357 16.429499 138 135 139
23.741093 48.74958 16.442411 117 120 123
24.259102 48.729706 16.474592 140 141 154
24.413668 48.767059 16.449238 152 148 157
23.28318 48.862755 16.492115 91 94 96
23.479134 48.887119 16.43062 102 105 108
23.703074 48.974815 16.448307 132 131 139
24.322489 48.880535 16.459337 129 127 130
24.498152 48.920349 16.472326 117 115 121
23.31913 49.195107 16.412603 133 133 137
23.505878 49.15089 16.438433 158 150 157
23.723837 49.088177 16.542936 147 142 148
23.855858 49.131233 16.473637 137 135 137
24.096638 49.049118 16.47333 95 94 99
24.308155 49.124779 16.460627 118 119 121
24.490122 49.105576 16.487543 128 125 128
24.677885 49.172997 16.478891 144 138 139
24.831877 49.14035 16.475479 115 116 123
23.329384 49.332985 16.446527 139 136 139
23.488537 49.294292 16.469704 136 134 138
23.730398 49.304932 16.518959 123 122 123
23.845367 49.305023 16.453909 109 108 107
24.173542 49.344593 16.559502 131 127 132
24.294977 49.295231 16.501715 132 131 133
24.478937 49.281796 16.518436 120 120 122
24.70401 49.251072 16.529247 158 152 153
24.8636 49.277287 16.549149 152 148 150
25.048616 49.32357 16.555496 148 144 150
25.246061 49.328789 16.522663 124 119 124
23.334133 49.46883 16.482241 139 134 138
23.479467 49.514969 16.480528 126 123 124
23.716433 49.506027 16.540998 116 111 114
23.884771 49.514839 16.493443 127 123 125
24.103491 49.538345 16.50403 131 128 132
24.306858 49.488895 16.512838 118 119 120
24.471584 49.493145 16.547123 109 111 111
25.082605 49.495758 16.567917 163 156 162
25.28343 49.550514 16.517179 156 153 159
23.313904 49.73135 16.496649 136 131 136
23.485735 49.654022 16.514078 134 128 132
23.73501 49.69603 16.511614 143 135 139
23.880678 49.685448 16.537663 137 131 135
24.100372 49.680008 16.544954 137 131 134
24.315825 49.695095 16.527882 120 121 122
24.494158 49.726536 16.516207 105 108 109
24.649565 49.729805 16.499666 96 101 100
25.134869 49.706852 16.528271 148 143 146
25.328268 49.722332 16.5091 139 137 140
23.182732 49.860893 16.553986 144 139 136
23.264677 49.907642 16.516632 125 121 125
23.51853 49.915211 16.540781 138 129 135
23.675436 49.893085 16.577753 121 118 119
24.140223 49.859531 16.564653 139 132 138
24.306505 49.922672 16.499243 104 106 107
24.507988 49.892563 16.520725 97 101 100
24.67123 49.886333 16.521215 103 105 106
24.805088 49.810806 16.512901 122 125 128
25.113956 49.87532 16.53051 128 126 127
25.292463 49.877541 16.502394 122 123 125
21.425989 50.136974 16.425714 139 140 145
21.692657 50.136555 16.480257 159 150 151
23.182781 50.077148 16.489189 135 131 140
23.273115 50.096916 16.474831 129 125 129
23.509817 50.113194 16.510693 130 122 128
23.659893 50.096008 16.499317 109 106 110
23.893581 50.092705 16.555801 153 139 157
24.150179 50.109077 16.534542 142 135 140
24.319901 50.081348 16.495422 104 103 107
24.490583 50.102001 16.527836 111 111 114
24.708456 50.137234 16.514307 102 104 105
24.882866 50.165581 16.484116 96 97 100
25.099474 50.119564 16.543243 132 131 133
25.314495 50.131641 16.476654 129 129 131
25.413906 50.196072 16.413454 147 142 149
21.338369 50.318562 16.411802 124 121 131
21.541626 50.254318 16.462006 138 136 137
21.725466 50.307079 16.502329 141 138 138
21.850222 50.29213 16.429253 137 135 135
22.301491 50.311462 16.429934 112 110 113
22.580822 50.364075 16.467424 186 165 173
22.701172 50.335224 16.486452 162 146 153
22.888651 50.360065 16.544167 153 142 147
23.09823 50.337303 16.502012 146 139 146
23.292173 50.295177 16.501337 129 125 130
23.503613 50.30172 16.503029 142 132 139
23.73815 50.335835 16.538836 116 110 118
23.892967 50.318619 16.563345 147 134 151
24.093271 50.286926 16.483427 146 134 144
24.311207 50.294983 16.512199 142 136 142
24.508968 50.31171 16.488466 103 101 106
24.707512 50.286842 16.497213 96 99 101
24.89205 50.296364 16.493883 110 112 114
25.092775 50.279526 16.489958 115 116 118
25.296694 50.307686 16.521189 137 134 138
25.437366 50.331837 16.484291 138 135 141
21.347897 50.401924 16.471182 160 153 169
21.49048 50.467262 16.415617 141 138 149
21.682283 50.507652 16.458643 129 127 130
21.909384 50.493816 16.486427 145 143 144
22.058495 50.559677 16.489523 129 126 125
22.355511 50.505966 16.433529 137 133 139
22.515106 50.514767 16.479263 149 143 148
22.673542 50.495518 16.513411 155 144 148
22.885651 50.495716 16.483315 134 129 134
23.108894 50.489613 16.525372 174 164 174
23.304058 50.507305 16.492641 106 103 105
23.490114 50.491974 16.451344 122 112 120
23.660038 50.489349 16.594921 120 114 120
23.940689 50.45784 16.461407 156 140 156
24.116266 50.517143 16.511213 126 119 125
24.315275 50.494465 16.501528 121 118 123
24.482006 50.508663 16.488585 105 107 108
24.697075 50.500244 16.502691 104 102 108
24.863922 50.497223 16.495628 102 104 108
25.142445 50.565308 16.491295 98 101 109
25.303007 50.488323 16.498116 136 133 137
25.43387 50.410572 16.502987 147 142 151
21.564451 50.722576 16.466259 148 148 152
21.699785 50.704567 16.46772 150 144 149
21.901905 50.704929 16.507635 136 134 136
22.09277 50.711857 16.47506 122 120 125
22.292431 50.703716 16.46118 137 134 138
22.516436 50.696259 16.503054 129 127 128
22.679247 50.71397 16.53054 123 118 121
22.885883 50.68185 16.487652 132 124 132
23.087427 50.740211 16.505051 129 120 129
23.301512 50.691395 16.514612 98 98 98
23.444521 50.69735 16.501287 91 91 89
23.719843 50.646317 16.541937 149 131 139
23.902723 50.70055 16.534006 117 111 114
24.12199 50.717674 16.489027 120 117 122
24.301132 50.708122 16.462469 125 123 127
24.545256 50.736511 16.530947 108 108 117
24.705616 50.686783 16.465118 105 108 108
24.917883 50.656307 16.479271 111 111 114
25.10671 50.700115 16.464539 110 109 117
25.304525 50.728516 16.488089 97 101 105
25.462767 50.701061 16.504181 104 105 110
21.547276 50.9268 16.438141 134 132 138
21.70117 50.881123 16.47397 136 133 137
21.877857 50.89389 16.483664 120 120 125
22.110853 50.917549 16.472034 124 123 126
22.296631 50.90192 16.49687 130 129 131
22.503605 50.892681 16.513245 133 129 134
22.644829 50.848221 16.485167 139 135 135
22.918953 50.905731 16.505285 120 113 122
23.084993 50.899952 16.525175 115 109 115
23.298922 50.89719 16.525675 100 98 102
23.479536 50.913857 16.533058 96 99 101
23.675365 50.937504 16.506912 104 104 107
23.914232 50.902061 16.487356 138 135 137
24.109869 50.907299 16.48629 150 144 149
24.284046 50.932632 16.490021 149 140 147
24.496 50.91848 16.539522 135 129 136
24.669502 50.893826 16.488409 126 122 131
24.831015 50.927452 16.491163 147 144 145
25.255266 50.847588 16.53294 91 95 102
21.381678 51.084141 16.401627 120 119 127
21.534643 51.043728 16.43191 111 114 119
21.715981 51.04998 16.421593 92 98 103
21.936287 51.145126 16.47364 112 111 115
22.091898 51.106133 16.521002 135 132 137
22.292421 51.073627 16.521173 154 146 152
22.524429 51.132771 16.524885 113 111 115
22.650791 51.071011 16.533365 108 105 110
22.950392 51.140656 16.546734 125 117 128
23.123175 51.1049 16.493652 116 111 116
23.301014 51.094406 16.509571 109 108 110
23.482002 51.087784 16.516432 106 103 107
23.69895 51.103722 16.537289 104 103 108
23.918976 51.121952 16.500122 90 96 97
24.135138 51.130127 16.494968 120 112 119
24.296885 51.095589 16.523018 134 129 138
24.470991 51.119133 16.488516 127 124 130
24.735445 51.138405 16.525906 123 120 132
24.943817 51.171612 16.434307 148 145 150
21.138121 51.274677 16.404491 106 108 116
21.936855 51.276901 16.50473 139 132 139
22.068771 51.270794 16.543158 131 127 132
22.289209 51.325241 16.520662 114 114 118
22.507759 51.312817 16.529636 123 117 125
22.694195 51.287685 16.533909 118 110 120
22.922226 51.319988 16.455938 92 94 96
23.12925 51.288254 16.493172 114 113 114
23.306837 51.285637 16.473257 97 95 104
23.514793 51.289619 16.486607 109 107 112
23.691771 51.322346 16.525358 104 102 112
23.926798 51.312698 16.515005 99 102 107
24.040094 51.369503 16.47764 93 96 100
24.374283 51.31488 16.496754 103 105 110
24.512533 51.269073 16.513744 103 104 109
24.658865 51.320328 16.555267 110 111 120
24.911591 51.338909 16.479378 129 121 124
25.036627 51.334396 16.415174 162 149 151
21.931837 51.503056 16.469934 135 134 136
22.131811 51.513123 16.512991 114 115 119
22.291763 51.509937 16.519442 112 113 118
22.461014 51.483177 16.511564 104 103 113
22.720572 51.530586 16.528286 100 97 104
22.885191 51.516052 16.533918 98 100 103
23.132051 51.477222 16.476692 80 84 87
23.301693 51.516148 16.504847 89 91 97
23.50423 51.520443 16.488499 109 107 112
23.701958 51.51054 16.499979 107 107 110
23.897802 51.490444 16.495008 92 95 99
24.104515 51.452553 16.506586 85 92 95
24.288757 51.443352 16.487469 102 103 112
24.495289 51.470055 16.511585 95 100 107
24.651108 51.500835 16.566534 120 120 131
24.876593 51.500668 16.517485 138 133 133
25.018589 51.552082 16.537277 122 122 130
21.745134 51.762928 16.470488 102 110 119
21.837715 51.797272 16.463531 106 113 118
22.148479 51.682884 16.442347 89 97 100
22.323545 51.706936 16.494854 112 114 118
22.489452 51.723808 16.544146 107 108 111
22.727789 51.726585 16.512716 108 109 111
22.905083 51.706654 16.521936 89 91 96
23.109295 51.729958 16.488199 92 96 100
23.283285 51.690323 16.496056 100 101 105
23.473776 51.728882 16.539165 110 110 114
23.699224 51.693993 16.489939 117 115 116
23.837475 51.720844 16.502663 107 109 112
24.133636 51.711731 16.479137 95 95 99
24.307796 51.649269 16.492622 98 102 108
24.490656 51.707092 16.534834 104 108 114
24.726843 51.698196 16.51376 157 150 153
24.948101 51.682709 16.543758 132 130 131
25.040415 51.705017 16.511833 136 133 139
25.658997 51.771286 16.47583 98 104 107
21.732737 51.893848 16.462503 120 122 130
21.891466 51.910698 16.448185 109 111 118
22.152418 51.914246 16.482756 132 130 135
22.329735 51.896717 16.496367 101 105 109
22.495846 51.881397 16.525738 116 116 118
22.683083 51.895176 16.499926 111 111 114
22.89677 51.917023 16.502331 101 103 105
23.096422 51.876438 16.485426 101 103 106
23.288237 51.900677 16.477663 123 118 125
23.494415 51.921722 16.546389 117 116 121
23.760475 51.891167 16.537647 123 123 124
23.868835 51.964897 16.448244 103 104 108
24.112253 51.879536 16.478451 106 108 109
24.316631 51.901127 16.509392 99 100 105
24.471193 51.919666 16.524435 97 102 108
24.753622 51.901276 16.490126 145 140 144
24.91527 51.911526 16.492096 137 135 135
25.14126 51.910755 16.47595 138 137 143
25.248541 51.917358 16.428787 114 117 124
25.611061 51.820702 16.531935 129 133 138
25.844168 51.914658 16.429867 121 125 126
26.093527 51.836906 16.436581 110 107 109
21.564054 52.089645 16.436357 115 120 122
21.692429 52.10791 16.484764 121 125 128
21.882 52.097221 16.464138 112 114 118
22.157339 52.070717 16.528011 115 118 119
22.314816 52.09301 16.488995 106 111 114
22.492769 52.098232 16.508049 109 111 113
22.702625 52.068623 16.523773 117 117 118
22.899544 52.090107 16.49243 110 111 112
23.099762 52.141392 16.477789 110 111 114
23.277237 52.106693 16.531065 125 126 135
23.471886 52.072861 16.457083 110 113 116
23.681206 52.033245 16.518753 103 108 109
23.841475 52.099564 16.466452 95 99 99
24.12957 52.110092 16.495823 112 113 114
24.30719 52.090199 16.51034 81 88 91
24.500143 52.131523 16.531546 103 109 117
24.726212 52.144081 16.496605 105 110 110
24.913101 52.126629 16.536757 117 123 123
25.046608 52.052399 16.485218 126 129 131
25.25267 52.136597 16.45089 154 149 154
21.544258 52.260193 16.434118 110 117 119
21.721985 52.238762 16.463957 113 117 118
21.874187 52.267174 16.46386 107 110 113
22.073847 52.293991 16.462212 86 92 95
22.324774 52.310291 16.478989 100 105 108
22.499123 52.307056 16.539429 107 111 112
22.718159 52.238132 16.49242 122 122 126
22.948526 52.294415 16.482939 119 118 119
23.084749 52.298847 16.492088 122 120 121
23.297928 52.298161 16.519121 136 135 140
23.450497 52.267078 16.487301 93 99 103
23.665899 52.245621 16.501427 89 94 99
23.903444 52.27504 16.500626 102 104 107
24.10158 52.295261 16.512108 101 107 109
24.299583 52.282524 16.504402 103 105 107
24.53857 52.248886 16.474209 125 126 135
24.676147 52.237877 16.573994 111 116 118
24.90279 52.284752 16.497511 109 111 115
25.09783 52.25737 16.469126 138 136 141
25.280487 52.28727 16.463095 135 133 141
25.521446 52.330746 16.475857 108 111 113
25.698576 52.319687 16.494118 137 139 143
25.923523 52.281433 16.469669 135 139 141
26.072617 52.255718 16.475668 121 121 122
26.264751 52.357307 16.446548 170 174 185
21.879622 52.410088 16.425123 116 118 117
22.137516 52.487934 16.497732 111 112 115
22.309624 52.490589 16.481817 110 113 118
22.480354 52.510052 16.492195 88 96 98
22.743023 52.572273 16.512207 108 110 106
22.888559 52.501606 16.495974 126 128 129
23.067074 52.523903 16.546032 127 126 127
23.256344 52.523212 16.528957 135 132 135
23.511499 52.517063 16.524178 132 131 135
23.789471 52.521404 16.498817 100 99 106
23.943218 52.522545 16.513681 93 99 102
24.122665 52.495029 16.479378 99 105 106
24.283804 52.577335 16.458963 142 135 135
24.551208 52.512592 16.462841 126 127 130
24.705261 52.5135 16.456865 138 136 138
24.860437 52.544933 16.49906 129 127 131
25.108696 52.487629 16.502186 113 117 121
25.296522 52.486603 16.493536 120 123 128
25.53112 52.453033 16.460302 111 114 118
25.690815 52.483288 16.520275 99 108 107
25.952461 52.536575 16.509525 115 119 121
26.082951 52.445885 16.535881 145 144 148
22.133451 52.721157 16.435381 116 112 113
22.323252 52.724998 16.507738 121 122 123
22.503893 52.673954 16.48921 109 111 110
22.729706 52.669594 16.505379 115 115 116
22.905842 52.712242 16.511276 100 105 104
23.131416 52.626602 16.557175 111 111 113
23.340916 52.695801 16.451942 121 117 117
23.485401 52.730896 16.554747 147 142 144
23.721405 52.728539 16.523439 88 88 87
23.924715 52.71714 16.490528 133 132 131
24.087395 52.70303 16.506516 139 135 136
24.29439 52.742821 16.462023 156 149 155
24.446754 52.719788 16.461679 152 145 149
24.720186 52.662891 16.444979 118 118 124
24.849785 52.702312 16.45677 123 123 129
25.115307 52.709583 16.460888 117 123 128
25.25635 52.625664 16.457911 110 117 120
25.677814 52.629456 16.495087 119 123 124
26.079531 52.61718 16.466867 104 113 120
22.102757 52.892792 16.476786 146 144 143
22.3074 52.926926 16.49527 127 129 130
22.49509 52.903233 16.481592 99 104 106
22.705406 52.896641 16.493073 97 102 103
22.894756 52.902977 16.506758 98 103 101
23.088648 52.92207 16.533682 114 115 115
23.345446 52.929756 16.466705 131 129 127
23.475477 52.876602 16.49369 144 140 136
23.674931 52.865089 16.432041 118 116 114
23.887083 52.878422 16.497143 133 133 132
24.122616 52.904068 16.508074 130 128 132
24.311823 52.891247 16.525211 146 142 147
24.45145 52.87772 16.501701 159 149 155
24.716845 52.87941 16.46804 103 109 114
24.881992 52.836021 16.429382 106 113 113
21.921616 53.133492 16.465204 123 123 126
22.133177 53.122211 16.478912 122 124 125
22.283129 53.113102 16.485273 130 129 128
22.490088 53.111462 16.482357 121 122 121
22.702253 53.10445 16.497494 95 101 101
22.922535 53.105568 16.499868 109 113 111
23.09313 53.103958 16.505394 122 122 122
23.308674 53.079521 16.513958 131 129 127
23.521351 53.15052 16.468107 168 156 164
23.662163 53.142502 16.525288 204 181 191
23.911259 53.041424 16.456884 124 125 126
24.118273 53.086643 16.497484 124 123 126
24.290718 53.078526 16.489683 125 123 127
24.471794 53.078445 16.455692 129 125 131
24.653034 53.115765 16.47234 104 110 112
21.927467 53.314613 16.493538 140 138 145
22.109488 53.30666 16.482693 127 126 130
22.28915 53.297707 16.490423 133 131 132
22.480196 53.296299 16.485918 130 129 126
22.68865 53.292446 16.506132 110 114 114
22.92662 53.316265 16.492041 117 120 119
23.072468 53.291954 16.515827 125 126 125
23.339605 53.294144 16.503111 138 136 135
23.526133 53.281673 16.527836 157 145 146
23.742498 53.29985 16.519209 152 140 145
23.9809 53.316879 16.458 83 89 89
24.134613 53.277592 16.511856 95 102 101
24.297087 53.262272 16.475498 110 113 113
24.485344 53.288712 16.456169 121 122 126
24.602167 53.233841 16.554605 169 168 173
21.946918 53.419552 16.462582 115 114 120
22.105797 53.457718 16.501665 117 116 120
22.306744 53.499374 16.503361 129 129 130
22.51626 53.514561 16.505489 119 121 120
22.693327 53.517281 16.489592 117 121 122
22.917404 53.493763 16.503481 127 126 126
23.076269 53.500721 16.515692 124 124 126
23.308958 53.488747 16.51613 145 141 141
23.547264 53.445694 16.504864 146 138 140
23.707155 53.443863 16.476706 147 140 147
23.956139 53.511963 16.431114 89 98 97
24.112566 53.474995 16.476095 89 97 96
24.281292 53.512291 16.480061 118 123 120
24.504839 53.509232 16.505396 121 122 128
22.144444 53.62339 16.42556 127 123 125
22.308027 53.701801 16.48457 137 136 138
22.515211 53.681137 16.503489 120 122 123
22.672827 53.687618 16.493803 103 108 108
22.912226 53.678215 16.480732 120 121 121
23.067144 53.687164 16.488008 132 131 132
23.34223 53.63855 16.427044 151 145 150
23.500616 53.676041 16.49111 114 115 115
23.663946 53.664429 16.439856 87 90 93
24.117048 53.702698 16.47683 97 101 102
24.313936 53.716755 16.472025 123 124 122
24.4737 53.695122 16.445189 117 117 120
22.336071 53.836521 16.50963 132 132 137
22.518877 53.86087 16.506464 125 126 130
22.698231 53.865486 16.490145 123 123 126
22.926691 53.88678 16.482481 123 125 125
23.082867 53.902248 16.504919 119 121 120
23.284103 53.868587 16.48671 115 116 119
23.420088 53.814457 16.554605 69 77 79
23.638857 53.976463 16.413994 106 115 117
24.152582 53.899048 16.525528 126 124 128
24.272409 53.86647 16.460484 133 131 130
24.432926 53.850777 16.402033 85 83 88
22.588551 54.023617 16.413445 107 101 111
22.956203 54.026897 16.517246 107 107 111
23.101526 54.12743 16.50271 122 124 124
23.264936 54.102097 16.470528 110 114 113
23.172369 54.251366 16.508558 130 125 128
23.858145 54.328354 16.407003 96 89 102
23.289417 48.763912 16.612381 125 123 128
24.285128 48.76162 16.679388 97 91 103
23.226786 48.860165 16.635975 56 62 62
23.723694 49.144028 16.63508 149 144 151
24.345432 49.18005 16.68416 148 140 147
24.503334 49.170197 16.686081 150 145 151
24.692577 49.172997 16.707302 154 150 156
23.526564 49.371479 16.629511 120 120 124
23.691864 49.275974 16.644045 124 122 125
24.334364 49.283264 16.691694 146 142 143
24.492435 49.313694 16.693129 139 137 140
24.715422 49.323067 16.71689 150 147 150
24.902334 49.295963 16.68495 142 140 146
25.091967 49.350597 16.700356 148 146 150
23.561972 49.505085 16.679171 118 118 122
23.683039 49.508282 16.680593 125 122 124
23.859041 49.536591 16.618948 141 135 137
24.112724 49.567795 16.653419 118 115 118
24.325201 49.52364 16.674141 117 120 120
24.494953 49.508987 16.714867 122 125 125
24.700144 49.529587 16.750555 133 133 133
24.896042 49.484283 16.705564 158 153 155
25.09444 49.508602 16.686953 153 147 151
25.24456 49.507694 16.696396 135 133 141
23.355438 49.734901 16.695208 164 153 159
23.491751 49.701275 16.707724 138 129 134
23.726871 49.696404 16.714674 149 142 145
23.916248 49.708767 16.677032 139 133 136
24.0818 49.695179 16.686682 133 129 131
24.304169 49.702179 16.698683 123 121 123
24.501657 49.700825 16.678259 113 115 115
24.688929 49.695831 16.711872 109 112 111
24.913536 49.659225 16.737276 146 141 143
25.102413 49.708908 16.700329 156 149 154
25.252939 49.696224 16.667418 140 137 141
23.161108 49.873306 16.628332 133 122 131
23.295774 49.911663 16.713341 145 139 143
23.494123 49.926441 16.723192 132 128 132
23.676119 49.890572 16.718868 141 137 138
23.888136 49.844429 16.747084 151 144 147
24.083181 49.905216 16.722641 154 146 150
24.314953 49.894489 16.708866 125 122 124
24.518621 49.921333 16.696402 100 106 105
24.681044 49.899231 16.706825 106 110 109
24.841505 49.946026 16.749798 103 105 105
25.085299 49.88789 16.718744 128 125 128
25.241394 49.868225 16.687481 128 128 131
21.519672 50.170574 16.794834 114 109 126
23.177328 50.136028 16.733799 109 113 113
23.312437 50.097343 16.695816 123 122 123
23.506224 50.106716 16.703655 116 115 116
23.685392 50.085716 16.72381 109 109 108
23.872185 50.119675 16.749023 129 123 129
24.118782 50.106411 16.737745 150 144 148
24.320721 50.104248 16.700237 109 109 110
24.512804 50.091591 16.66625 109 112 112
24.686954 50.092655 16.706383 114 114 115
24.877844 50.166847 16.705244 103 105 107
25.100233 50.13287 16.710546 146 142 147
25.248671 50.093735 16.702173 135 133 137
21.660282 50.262119 16.627045 140 138 140
22.768663 50.393215 16.640467 132 124 127
22.830259 50.371517 16.677805 166 146 152
23.115015 50.366673 16.687372 141 135 140
23.295712 50.30687 16.686438 130 128 131
23.47221 50.26796 16.710691 132 128 131
23.703508 50.311779 16.706038 137 128 135
23.926975 50.314434 16.718662 119 113 116
24.094259 50.321674 16.725613 121 117 116
24.289711 50.288601 16.708704 113 112 113
24.487894 50.294003 16.681196 119 116 118
24.724836 50.237881 16.69252 114 117 118
24.894249 50.257832 16.715151 125 125 129
25.082096 50.280373 16.697262 124 124 127
25.262012 50.313538 16.686966 128 126 130
21.875504 50.558075 16.640713 137 133 138
22.563719 50.559807 16.677893 143 137 142
22.689793 50.528564 16.658327 155 145 148
22.908524 50.515961 16.712002 151 142 146
23.100101 50.489334 16.701277 160 152 158
23.300552 50.487743 16.693216 140 132 137
23.46678 50.512032 16.68708 135 125 132
23.73243 50.454479 16.719959 157 141 153
23.901024 50.485306 16.695112 164 154 162
24.114685 50.509014 16.707912 122 117 117
24.293715 50.49498 16.69276 117 113 115
24.465832 50.466053 16.701159 109 103 108
24.721325 50.522022 16.679729 102 100 104
24.895027 50.495823 16.659258 124 124 126
25.101711 50.513008 16.676025 134 130 135
25.277182 50.507195 16.675201 136 133 139
21.688911 50.763992 16.628939 147 146 156
21.909973 50.708179 16.660173 137 135 137
22.536177 50.706417 16.683668 141 138 142
22.689018 50.706398 16.684158 138 133 137
22.896378 50.673752 16.722277 134 128 132
23.125116 50.726326 16.707195 119 114 118
23.31601 50.708965 16.701551 126 121 125
23.463245 50.723114 16.711666 97 96 97
23.752197 50.729206 16.694157 140 128 135
23.924213 50.699253 16.675919 137 130 137
24.099691 50.692146 16.71204 121 118 123
24.260918 50.723747 16.703791 126 124 127
24.441021 50.78434 16.668919 123 118 126
24.717985 50.656155 16.66147 144 139 150
24.947191 50.641819 16.688776 125 123 127
25.130796 50.64653 16.665379 107 109 114
25.242647 50.666351 16.689808 122 119 129
21.570887 50.988297 16.649868 101 103 105
21.704844 50.89077 16.63743 139 138 143
21.820002 50.828587 16.701292 145 145 150
22.094585 50.870773 16.621119 112 109 115
22.334087 50.964062 16.641636 142 138 141
22.51022 50.926617 16.666803 136 132 136
22.660069 50.886341 16.707945 151 146 151
22.865963 50.879154 16.681154 132 127 129
23.130386 50.886307 16.673622 124 117 123
23.293436 50.913452 16.742151 119 116 123
23.503885 50.919067 16.704294 98 101 103
23.672268 50.913296 16.718586 101 102 103
23.888157 50.926735 16.689184 113 115 113
24.115252 50.895378 16.688526 145 142 141
24.297512 50.913879 16.718723 141 138 140
24.525066 50.954384 16.696903 124 122 133
21.994827 51.171032 16.652975 153 156 165
22.108158 51.146347 16.65473 133 133 140
22.296711 51.0961 16.685854 138 135 138
22.485727 51.107399 16.71294 132 129 132
22.668589 51.084736 16.733021 122 119 123
22.92107 51.130409 16.728037 118 111 118
23.104687 51.113811 16.69803 109 106 110
23.289892 51.114128 16.714661 113 112 114
23.494518 51.09898 16.698174 111 112 114
23.682224 51.10923 16.728941 105 107 109
23.888271 51.079254 16.678013 88 94 97
24.092569 51.10482 16.694929 115 113 120
24.295038 51.094437 16.696981 145 141 144
24.458172 51.089901 16.679558 130 127 133
24.641884 51.13887 16.666845 136 132 146
21.990313 51.297222 16.649351 133 132 137
22.110874 51.312721 16.684633 141 137 142
22.313234 51.286243 16.703058 136 133 137
22.486074 51.318211 16.716097 135 132 136
22.715101 51.286766 16.709349 124 119 125
22.917532 51.283916 16.736551 128 122 124
23.109165 51.258793 16.717913 114 111 111
23.305822 51.30043 16.709558 124 122 122
23.500566 51.301804 16.726997 123 121 123
23.738285 51.31905 16.692554 103 104 108
23.882959 51.257198 16.68828 103 105 113
24.097763 51.358604 16.701149 102 105 109
24.335253 51.295021 16.684067 123 123 128
24.488291 51.289318 16.716673 120 119 128
24.685284 51.304138 16.653824 136 132 142
24.881054 51.351036 16.64217 122 117 129
21.952528 51.507603 16.635384 122 111 127
22.11573 51.45163 16.688303 127 126 130
22.330956 51.491241 16.689644 111 112 116
22.469048 51.50795 16.731876 121 119 125
22.689363 51.507912 16.764717 139 133 139
22.860895 51.519318 16.739841 106 105 107
23.120203 51.535061 16.712656 89 94 96
23.309549 51.508141 16.701889 101 104 105
23.519747 51.506351 16.732273 124 119 126
23.673952 51.535625 16.707804 110 111 115
23.855555 51.494659 16.715975 108 107 114
24.145546 51.467552 16.737886 100 103 108
24.296211 51.445034 16.766796 114 115 123
24.539846 51.550789 16.641888 139 137 149
24.726772 51.520538 16.704063 131 130 139
24.89402 51.513477 16.707354 131 130 139
22.196119 51.661728 16.69944 88 83 90
22.343323 51.702274 16.69998 109 111 115
22.492228 51.705154 16.724304 130 128 133
22.69449 51.707531 16.736897 112 112 115
22.900398 51.672516 16.712299 95 98 102
23.116961 51.688965 16.694401 94 99 100
23.291792 51.696007 16.715919 104 105 105
23.506466 51.732758 16.708448 109 109 112
23.694942 51.654697 16.650917 101 104 106
23.899927 51.649002 16.697586 108 110 116
24.115427 51.678307 16.692036 111 111 115
24.316105 51.686275 16.710842 124 121 125
24.546944 51.701004 16.687183 130 132 141
24.750513 51.65382 16.682215 118 120 127
24.893114 51.698486 16.675297 133 132 136
25.015013 51.786373 16.611729 122 120 121
22.182318 51.842888 16.610115 116 112 113
22.326164 51.913357 16.682344 141 137 141
22.484734 51.891811 16.716908 143 138 141
22.679863 51.89595 16.681389 109 112 114
22.892281 51.913292 16.664793 97 101 102
23.116705 51.907413 16.695614 117 116 120
23.298407 51.908478 16.719009 124 120 123
23.474081 51.871368 16.680819 114 114 118
23.666388 51.921757 16.728968 122 121 123
23.896248 51.858871 16.676735 99 103 105
24.065338 51.887657 16.697792 104 106 105
24.312391 51.896763 16.715916 115 115 119
24.542404 51.886063 16.717463 117 120 124
24.711327 51.830917 16.754337 134 133 140
24.904261 51.887264 16.726503 159 154 162
25.023714 51.98077 16.631584 137 131 137
25.554098 51.977352 16.657507 108 115 115
22.157448 52.164642 16.700474 148 145 145
22.315334 52.09251 16.703644 133 132 134
22.491533 52.086685 16.698275 137 134 135
22.699953 52.100555 16.676823 126 125 125
22.908974 52.122536 16.686728 129 129 129
23.101391 52.088047 16.7055 122 122 123
23.286432 52.072701 16.697037 104 107 108
23.477722 52.114731 16.721544 103 104 108
23.673216 52.101265 16.67757 103 105 110
23.864555 52.085846 16.699919 91 95 96
24.141201 52.121616 16.722296 126 126 128
24.321966 52.095425 16.724239 116 119 126
24.557684 52.106327 16.702536 120 125 130
24.723484 52.170097 16.703213 117 122 120
24.883244 52.171822 16.697142 119 125 125
25.030275 52.089043 16.710104 142 141 148
25.476278 52.059677 16.783644 117 126 131
25.693848 52.094078 16.703888 99 98 105
25.889114 52.080555 16.698439 124 124 118
22.164301 52.286182 16.743563 144 141 145
22.325504 52.301331 16.690905 124 124 128
22.482523 52.305725 16.718941 126 126 128
22.700788 52.296204 16.691814 137 135 135
22.894438 52.290852 16.733183 141 139 139
23.079302 52.28223 16.700397 127 125 128
23.337824 52.253574 16.695009 87 92 94
23.497145 52.244099 16.680269 90 96 101
23.662607 52.229988 16.693552 105 110 113
23.883154 52.31662 16.641853 118 119 122
24.124216 52.328621 16.714767 79 86 88
24.288755 52.31192 16.660105 83 89 91
24.563391 52.240677 16.644308 123 127 132
24.664188 52.255203 16.673389 117 122 123
24.837477 52.236546 16.673079 122 120 122
25.139038 52.324516 16.665344 126 130 133
25.538139 52.379322 16.642296 91 96 93
25.647486 52.37466 16.613941 114 123 120
25.902361 52.229599 16.708637 143 141 142
22.165628 52.49416 16.719961 140 136 141
22.325796 52.499054 16.723528 135 131 135
22.507595 52.506882 16.726698 132 130 132
22.704285 52.4986 16.73414 131 129 132
22.918346 52.499252 16.709484 118 121 121
23.117905 52.48455 16.676111 172 164 169
23.296095 52.524075 16.713629 138 134 136
23.506935 52.542347 16.644442 123 122 125
23.793615 52.564522 16.71582 68 77 86
23.922295 52.580299 16.648808 88 97 97
24.114269 52.511875 16.690763 92 100 101
24.274458 52.512775 16.70849 93 100 103
24.522348 52.447651 16.723265 97 102 105
24.689087 52.443317 16.757006 106 110 112
24.877691 52.557888 16.655989 123 127 126
25.124462 52.471489 16.673126 116 120 124
25.242451 52.460766 16.663366 110 114 122
25.694553 52.500324 16.63941 103 109 108
25.867142 52.547215 16.618044 114 118 122
22.184404 52.703487 16.72617 167 161 165
22.335997 52.690052 16.697474 139 135 137
22.498411 52.683495 16.696507 121 122 121
22.683603 52.689991 16.715521 107 111 113
22.91226 52.705067 16.689016 110 114 112
23.098761 52.704979 16.705124 130 130 128
23.296846 52.686726 16.715597 146 142 141
23.484058 52.670795 16.714594 147 134 142
23.670389 52.70747 16.719275 120 119 121
23.957027 52.716713 16.682144 141 138 137
24.087337 52.716396 16.675085 133 132 131
24.250284 52.691376 16.673914 131 130 132
24.48312 52.752552 16.609072 104 110 117
24.72847 52.697609 16.67532 113 119 121
24.895231 52.758595 16.672735 112 117 117
25.067993 52.681732 16.678045 113 117 119
25.652653 52.612961 16.605743 141 145 149
22.173615 52.914158 16.643274 143 144 145
22.29575 52.931255 16.657509 140 140 139
22.4611 52.906509 16.689711 109 113 113
22.710623 52.870754 16.652967 109 112 117
22.924536 52.899128 16.67979 116 119 116
23.096357 52.88908 16.680391 137 134 133
23.293041 52.89608 16.681412 140 137 136
23.474001 52.903095 16.670942 118 118 118
23.682709 52.887146 16.720184 83 86 89
23.949923 52.861683 16.711601 121 124 124
24.10615 52.884975 16.694504 135 133 135
24.275034 52.889885 16.663099 141 137 140
24.461609 52.872543 16.667589 112 114 117
24.691759 52.842098 16.680353 125 129 132
24.825798 52.80518 16.621828 124 129 133
22.184181 53.097725 16.629259 124 131 129
22.305758 53.112572 16.663132 118 124 123
22.475506 53.110458 16.651669 106 112 113
22.95458 53.071232 16.687067 123 123 122
23.094843 53.103294 16.684952 121 123 120
23.292429 53.103901 16.690989 150 145 143
23.465805 53.10363 16.68379 153 146 146
23.75695 53.027355 16.730072 102 103 108
23.961258 53.060455 16.699341 112 114 113
24.105703 53.085976 16.671221 129 130 130
24.276718 53.093204 16.648848 139 137 144
24.492315 53.105228 16.660044 115 118 120
24.62364 53.154572 16.641293 113 116 120
21.960537 53.313274 16.631323 141 141 150
22.136551 53.297432 16.645412 119 123 126
22.313248 53.289112 16.687992 120 124 124
22.491119 53.307407 16.692051 122 124 125
22.674261 53.309887 16.658724 107 112 114
22.94676 53.2939 16.644083 102 110 105
23.115969 53.31258 16.694086 134 132 132
23.297024 53.301495 16.697495 142 139 139
23.474062 53.301453 16.702112 141 138 139
23.655134 53.295227 16.644342 167 153 158
23.902405 53.255436 16.690603 115 115 119
24.160526 53.25267 16.678097 99 102 105
24.278936 53.338108 16.612982 117 116 118
24.421658 53.209297 16.672562 130 130 135
22.05497 53.424675 16.621668 131 130 134
22.341831 53.464714 16.687294 126 127 130
22.493402 53.465488 16.697416 126 126 130
22.709917 53.493145 16.666016 110 113 116
22.922607 53.495171 16.651234 139 139 140
23.099121 53.493679 16.676682 132 130 130
23.284229 53.465607 16.680788 132 130 131
23.485556 53.465721 16.664068 138 136 138
23.623632 53.486816 16.671988 151 141 145
24.279943 53.527546 16.655935 143 142 145
24.449123 53.484337 16.60244 122 124 131
22.361803 53.702206 16.667273 133 135 138
22.469898 53.670956 16.645199 108 112 112
22.737286 53.666164 16.660759 116 119 118
22.864937 53.658836 16.697628 111 113 115
23.098385 53.685123 16.693977 113 117 117
23.284988 53.677383 16.707388 126 127 130
23.491287 53.671421 16.685968 122 121 123
23.635443 53.650608 16.630369 107 109 113
24.1595 53.614021 16.630785 97 101 100
24.309738 53.686367 16.622488 141 140 143
22.361994 53.886204 16.672398 159 157 163
22.476959 53.863457 16.653233 138 136 142
23.105843 53.88287 16.66798 115 118 120
23.271564 53.839897 16.685781 123 121 126
24.239828 53.807167 16.615484 129 126 128
22.981827 54.079525 16.607136 125 129 128
23.133785 54.026539 16.622633 114 121 121
24.577259 49.191235 16.842518 115 112 122
24.638222 49.188915 16.841082 149 144 155
24.29665 49.284531 16.809029 124 125 125
24.535982 49.346066 16.886127 142 139 143
24.695259 49.303883 16.867723 147 144 151
24.909481 49.360504 16.820602 148 147 152
23.586199 49.436634 16.816565 166 164 168
24.373154 49.588192 16.841192 136 135 140
24.523533 49.492939 16.865911 137 136 138
24.681313 49.503662 16.881651 141 139 142
24.89683 49.494228 16.89547 137 136 140
25.063553 49.533203 16.878742 144 143 147
23.357639 49.773933 16.806232 123 118 121
23.50355 49.752022 16.87229 173 160 163
23.696236 49.721172 16.923487 157 148 152
23.928391 49.763851 16.823492 125 120 124
24.143707 49.744267 16.846992 134 131 133
24.229816 49.690086 16.827631 142 138 141
24.507511 49.693924 16.873405 115 118 119
24.716949 49.709423 16.865675 135 134 134
24.904072 49.70385 16.901127 146 142 144
25.106245 49.701092 16.888865 156 152 158
23.180405 49.929047 16.8204 115 115 123
23.321293 49.966408 16.851223 131 131 131
23.499256 49.897606 16.89048 144 137 139
23.70989 49.921158 16.901716 134 129 130
23.878012 49.899475 16.909279 154 146 150
24.110386 49.87458 16.93425 146 138 141
24.255728 49.923927 16.876642 140 133 137
24.521904 49.858521 16.860863 113 115 117
24.724918 49.90287 16.898535 132 131 131
24.900949 49.893368 16.909266 144 141 143
25.118458 49.887115 16.885679 139 136 140
23.31809 50.069061 16.860123 100 103 103
23.522203 50.102589 16.858704 122 121 124
23.696489 50.107174 16.889677 127 123 125
23.889963 50.110313 16.905916 151 142 145
24.092873 50.11647 16.909998 145 137 137
24.271345 50.092731 16.893486 136 128 130
24.51848 50.14032 16.846457 119 119 122
24.724821 50.10503 16.884748 123 125 124
24.905712 50.108231 16.900438 139 136 140
25.105505 50.110119 16.90711 150 145 152
25.219618 50.122375 16.853949 134 136 141
23.300444 50.32304 16.849354 125 126 128
23.523329 50.336166 16.880419 131 126 129
23.688164 50.27446 16.905338 131 126 128
23.900005 50.309662 16.918776 126 121 122
24.08717 50.289494 16.882538 125 122 122
24.267057 50.272511 16.857058 121 117 118
24.510448 50.265026 16.887119 99 101 104
24.74345 50.221645 16.887442 135 135 133
24.870754 50.245811 16.878979 133 131 136
25.068533 50.228958 16.880966 130 129 134
22.560036 50.546589 16.846294 117 116 126
22.654837 50.535454 16.811525 117 116 115
22.912363 50.548595 16.8612 125 123 128
23.099949 50.544254 16.881598 146 139 144
23.311874 50.507027 16.89366 155 147 150
23.506464 50.503387 16.929419 139 131 134
23.670134 50.512123 16.920975 172 158 165
23.922325 50.51215 16.911222 135 130 131
24.101196 50.52232 16.878702 130 123 125
24.31023 50.463696 16.854816 120 115 119
24.955555 50.470196 16.912659 115 115 121
25.092384 50.536495 16.850904 139 135 142
25.23403 50.464142 16.858482 149 146 153
22.540899 50.604137 16.864334 116 111 119
22.736132 50.735176 16.87034 146 140 145
22.899466 50.69519 16.889454 148 142 146
23.093136 50.706726 16.913834 145 139 141
23.308804 50.683567 16.915104 130 125 127
23.480198 50.686192 16.915054 124 121 124
23.705093 50.734257 16.920467 147 139 145
23.925959 50.674843 16.916048 129 125 126
24.087111 50.699905 16.880049 134 128 132
24.263935 50.68478 16.863087 112 108 116
24.9659 50.647739 16.87961 110 112 118
25.082731 50.640038 16.843313 122 121 128
22.588249 50.890106 16.864576 150 144 148
22.686298 50.885262 16.900532 156 149 153
22.888231 50.89415 16.920815 159 152 155
23.109095 50.896423 16.918732 141 134 137
23.273285 50.886051 16.912632 124 120 124
23.504271 50.89299 16.894169 107 109 111
23.71093 50.909061 16.903824 108 111 110
23.875507 50.903194 16.899019 137 134 136
24.105888 50.888016 16.888016 147 143 143
24.291033 50.927273 16.884924 136 132 134
24.447746 50.884506 16.835367 149 143 150
22.174166 51.145542 16.805384 94 92 105
22.309406 51.194672 16.841936 154 151 165
22.482731 51.157612 16.85273 130 128 133
22.708458 51.111584 16.904076 136 133 135
22.902739 51.107746 16.907207 137 131 134
23.114296 51.109966 16.905279 130 125 129
23.312508 51.105743 16.8836 118 117 119
23.499239 51.104107 16.892878 103 110 111
23.73336 51.098423 16.873907 112 115 115
23.892813 51.122101 16.941343 121 120 125
24.113609 51.118256 16.909313 134 132 136
24.326912 51.09362 16.945034 136 132 140
24.442213 51.104553 16.869284 138 129 144
22.151791 51.328167 16.865683 134 133 144
22.318609 51.308647 16.865646 130 128 135
22.518736 51.325943 16.868736 130 128 132
22.678762 51.294922 16.931452 155 148 149
22.910084 51.300758 16.891607 140 134 134
23.114706 51.276554 16.885939 137 131 130
23.287949 51.293705 16.909662 139 136 136
23.504236 51.307648 16.88271 122 122 123
23.724737 51.273445 16.889242 104 109 109
23.882513 51.306324 16.922337 122 122 124
24.140598 51.330692 16.896481 124 123 129
24.294489 51.304768 16.906744 124 122 129
24.477055 51.274124 16.910131 139 132 144
24.698277 51.371498 16.838083 167 154 159
22.181944 51.416451 16.851519 122 127 133
22.300648 51.483383 16.852257 113 115 120
22.508631 51.507084 16.893023 127 125 129
22.691895 51.513359 16.913034 139 135 139
22.908033 51.523861 16.938847 121 118 124
23.1019 51.503532 16.898872 100 102 105
23.291542 51.510151 16.895636 118 118 118
23.507839 51.50782 16.885752 134 130 134
23.645967 51.471935 16.892731 136 131 139
23.906454 51.452637 16.906713 112 111 113
24.120932 51.53405 16.898563 112 115 116
24.275246 51.44289 16.898764 120 120 125
24.469738 51.453552 16.850094 131 130 133
24.731258 51.521233 16.836197 172 167 180
24.819571 51.443882 16.837378 193 187 196
22.365973 51.677441 16.86697 90 97 101
22.515146 51.696503 16.86278 132 130 133
22.696804 51.688183 16.887701 119 120 125
22.896496 51.676334 16.880608 104 105 111
23.125631 51.704128 16.870583 103 107 108
23.308743 51.702324 16.892649 130 128 127
23.481497 51.682297 16.870392 131 129 131
23.662418 51.703381 16.890142 104 104 112
23.911964 51.655567 16.896288 83 90 94
24.074417 51.637527 16.90176 96 102 108
24.325516 51.694679 16.864443 141 136 139
24.491669 51.687885 16.863504 152 146 150
24.694092 51.741062 16.859329 151 145 148
24.819151 51.78978 16.864248 247 235 245
22.344341 51.939018 16.861702 109 112 114
22.504141 51.903664 16.882082 122 121 126
22.687084 51.897427 16.87636 121 122 124
22.888554 51.877918 16.892124 104 107 109
23.131231 51.893597 16.86503 112 115 116
23.292089 51.905262 16.90214 125 123 123
23.46594 51.879097 16.890322 121 120 121
23.711597 51.888481 16.892986 100 103 108
23.874153 51.899303 16.897491 82 85 92
24.092741 51.933647 16.852375 96 99 101
24.331522 51.932873 16.900942 145 141 143
24.506172 51.903778 16.893028 157 149 151
24.724243 51.953278 16.864634 157 157 168
24.835794 51.919598 16.860046 154 146 153
22.345634 52.118507 16.869509 126 129 131
22.508543 52.104969 16.900421 154 149 151
22.689129 52.114342 16.908123 148 143 146
22.905052 52.109493 16.899298 105 108 112
23.087841 52.080887 16.880663 99 103 105
23.298534 52.08292 16.887331 99 102 106
23.507681 52.105724 16.874987 105 106 110
23.650354 52.089558 16.886974 96 101 104
23.924194 52.101067 16.874397 107 107 107
24.123844 52.088409 16.842342 117 120 123
24.302313 52.0807 16.901398 131 128 134
24.54533 52.072014 16.900639 152 147 154
24.659876 52.070557 16.8988 160 157 164
24.89999 52.104721 16.875546 161 157 167
25.062366 52.113945 16.866999 160 160 165
25.224968 52.055408 16.800686 115 122 125
22.327633 52.286854 16.878239 136 134 137
22.500221 52.287006 16.911482 148 143 145
22.701399 52.300426 16.913219 130 130 131
22.888502 52.331623 16.896255 138 136 138
23.049149 52.294289 16.880518 132 130 135
23.254999 52.310074 16.915752 96 97 102
23.447414 52.208099 16.900406 109 115 116
24.050632 52.320179 16.858295 70 82 82
24.390259 52.286655 16.912706 108 113 120
24.535015 52.284657 16.887152 118 120 126
24.711628 52.298138 16.905783 126 126 132
24.880737 52.288719 16.899414 131 132 141
25.034948 52.285198 16.925533 110 116 116
25.310146 52.290703 16.97356 132 134 138
25.524466 52.341312 16.860609 113 118 117
25.677198 52.33147 16.886726 119 125 129
25.90801 52.290279 16.909548 121 122 123
22.185392 52.585632 16.800066 129 121 127
22.314737 52.49757 16.866707 141 139 142
22.484779 52.496052 16.876064 134 132 134
22.716488 52.494312 16.884678 130 129 130
22.888155 52.497414 16.890198 136 133 136
23.113647 52.547173 16.876017 142 140 140
23.267168 52.521381 16.856861 153 147 149
23.433563 52.471008 16.976704 92 96 111
23.979172 52.549652 16.876753 80 88 92
24.152344 52.537659 16.820206 101 106 109
24.293127 52.528267 16.898016 91 97 99
24.480995 52.486263 16.855673 98 106 106
24.672541 52.469189 16.882576 102 107 108
24.880356 52.480404 16.901285 106 110 113
25.127459 52.465401 16.893375 110 116 116
25.331858 52.433323 16.807983 97 99 98
25.538048 52.492138 16.881308 114 119 118
25.684351 52.508602 16.879206 122 126 129
25.877867 52.474716 16.899523 124 127 128
22.327375 52.672672 16.885679 148 145 147
22.509155 52.684071 16.892534 123 127 129
22.698156 52.68417 16.862204 106 111 113
22.902124 52.680264 16.865416 108 112 111
23.103518 52.702877 16.872425 122 125 124
23.276167 52.706814 16.871708 135 134 135
23.517778 52.771343 16.960863 117 119 122
23.630632 52.634983 16.931818 93 95 102
23.94273 52.720509 16.897495 108 112 109
24.120899 52.73008 16.904434 104 109 109
24.268311 52.674225 16.973806 90 96 103
24.540745 52.707466 16.946169 105 113 112
24.690248 52.738258 16.911411 115 120 121
24.872721 52.710754 16.834206 119 126 129
22.002874 52.914516 16.945635 87 85 86
22.520132 52.833515 16.842823 128 125 130
22.684271 52.841839 16.886347 97 99 106
22.958939 52.878624 16.906763 99 105 104
23.114223 52.878204 16.884624 118 121 118
23.298969 52.899307 16.891964 119 122 119
23.480223 52.909344 16.892792 115 118 120
23.662062 52.937096 16.874104 105 110 111
23.991343 52.943676 16.888105 102 111 110
24.123913 52.890335 16.867727 102 110 109
24.314264 52.866222 16.894453 122 122 124
24.495068 52.940269 16.978874 100 106 112
24.645472 52.853981 16.804552 108 114 117
22.859516 53.166508 16.859505 72 81 80
23.108011 53.089165 16.884745 101 107 104
23.308996 53.133106 16.868212 135 132 131
23.470802 53.104958 16.878309 153 146 146
23.655306 53.063141 16.933643 111 112 117
23.954092 53.115734 16.877232 87 94 97
24.100908 53.110119 16.922205 104 110 110
24.320581 53.099548 16.88096 115 119 119
24.417551 53.109848 16.864746 141 142 144
22.394711 53.387501 16.816633 120 125 124
22.466297 53.37281 16.830107 127 131 134
23.148022 53.287102 16.882421 119 122 119
23.298515 53.289532 16.864389 136 133 132
23.462231 53.280926 16.875303 146 140 141
23.657316 53.388725 16.878193 151 142 150
23.916304 53.265823 16.887615 82 87 89
22.376963 53.462639 16.824959 117 121 123
22.485214 53.498699 16.823381 141 139 145
23.148857 53.523266 16.890606 112 117 115
23.285931 53.489746 16.905977 119 121 119
23.514786 53.504215 16.901205 118 121 120
23.636477 53.533276 16.892603 110 112 112
23.15856 53.665455 16.946692 131 127 131
23.298483 53.685135 16.866268 120 121 124
23.495602 53.636669 16.886105 121 121 125
23.238907 53.80323 16.807949 119 118 125
24.522171 49.357513 17.034817 155 152 157
24.539047 49.491226 17.050341 124 125 126
24.684858 49.530613 17.064047 144 142 147
24.876518 49.567257 17.013479 145 143 146
23.698675 49.774975 17.035753 157 147 149
24.710365 49.657597 17.060192 116 118 120
24.938398 49.709656 17.062344 148 144 147
25.075533 49.783646 17.013672 152 146 150
23.573858 49.936199 17.06782 145 141 145
23.698606 49.904797 17.055212 141 134 136
23.937626 49.955444 17.057568 146 138 143
24.064533 49.956375 17.063169 164 149 152
24.723392 49.875847 17.012648 102 107 108
24.898634 49.902733 17.073225 137 136 139
25.051708 49.882561 17.060171 150 147 152
23.517998 50.08395 17.05971 129 126 132
23.724592 50.073296 17.061905 139 135 135
23.900171 50.099808 17.083712 145 140 140
24.098934 50.084366 17.083542 144 136 135
24.240459 50.13834 17.016979 139 130 133
24.7547 50.041546 17.074274 112 114 118
24.904722 50.093273 17.086695 128 128 133
25.065992 50.110149 17.027227 149 146 154
23.523149 50.357052 17.098879 171 157 163
23.718008 50.31115 17.071918 136 131 135
23.893465 50.309326 17.062281 143 139 142
24.077862 50.262356 17.083296 127 122 124
24.22164 50.216724 17.032951 156 146 150
24.900843 50.271294 17.089241 107 109 115
25.0205 50.254341 17.070402 133 130 138
23.342133 50.540092 17.028999 154 148 152
23.527706 50.499836 17.091599 164 152 157
23.675161 50.508308 17.106443 164 153 156
23.879143 50.51128 17.109982 138 130 133
24.046024 50.546555 17.055054 132 124 128
22.634872 50.799225 17.042662 136 135 141
22.955492 50.752476 17.038622 156 150 153
23.079405 50.678898 17.040136 147 143 149
23.29509 50.707062 17.047308 132 129 130
23.521372 50.692547 17.072184 148 142 143
23.700136 50.71204 17.111418 143 137 139
23.905247 50.704933 17.087433 134 129 131
24.042864 50.731667 17.050833 151 144 150
22.718029 50.901829 17.060562 149 145 150
22.894461 50.912857 17.082483 157 149 153
23.085661 50.899269 17.067469 138 132 135
23.245106 50.913136 17.049477 134 126 130
23.53602 50.834824 17.117043 153 148 151
23.701704 50.8806 17.091536 124 124 124
23.894608 50.907383 17.104805 151 147 147
24.071556 50.900818 17.110779 154 146 150
24.207699 50.95031 17.05332 142 138 144
22.733297 51.054897 17.079994 136 133 135
22.896818 51.084835 17.083294 143 136 139
23.09244 51.087029 17.056982 134 129 135
23.275011 51.151966 17.085724 107 110 115
23.509684 51.15918 17.080278 90 92 96
23.782564 51.085281 17.085958 121 124 121
23.91301 51.094032 17.087357 146 142 144
24.132896 51.10463 17.052402 155 146 155
24.252075 51.148621 17.054182 137 130 140
22.581078 51.352322 17.009861 153 144 152
22.734732 51.325073 17.063421 154 147 150
22.916811 51.319229 17.087515 152 144 146
23.088587 51.310974 17.101793 156 148 149
23.281109 51.31913 17.09053 141 137 141
23.458031 51.307255 17.058819 111 115 117
23.657553 51.261898 17.034565 86 91 94
23.916601 51.293312 17.065975 133 132 133
24.100655 51.278271 17.077564 153 145 151
24.273922 51.301598 17.041805 146 140 151
22.260107 51.596043 17.008823 102 102 110
22.545172 51.507069 17.071623 116 114 121
22.713793 51.475773 17.088398 134 131 135
22.908138 51.476231 17.083836 131 126 130
23.094683 51.501148 17.11866 135 132 133
23.282015 51.516891 17.117884 140 138 139
23.490856 51.493484 17.057917 124 125 131
23.630316 51.442757 17.029352 108 110 117
23.938301 51.523087 17.091911 107 109 112
24.103262 51.464211 17.047991 115 115 117
24.341509 51.493519 17.015924 146 147 154
22.277046 51.618649 17.056889 112 111 120
22.521294 51.707542 17.071598 109 110 116
22.703499 51.714893 17.065922 116 116 123
22.898245 51.69133 17.058504 99 99 106
23.119978 51.65976 17.095364 124 123 125
23.292229 51.681587 17.089632 123 123 124
23.449507 51.713482 17.091892 158 156 164
23.707144 51.717865 17.053398 100 103 111
23.894257 51.696106 17.043577 85 93 96
24.054871 51.626263 17.119398 98 103 107
24.304811 51.738205 17.105558 80 85 88
24.528538 51.733986 17.040335 114 115 125
24.693638 51.776039 17.061314 141 139 146
22.54318 51.937485 17.050781 113 112 119
22.681864 51.898109 17.110094 111 113 119
22.842123 51.996986 17.090038 98 99 102
23.156298 51.895237 17.075731 110 114 112
23.299728 51.873569 17.056221 122 122 123
23.442814 51.885666 17.048582 119 119 120
