ply
format ascii 1.0
comment PCL generated
element vertex 1095
property float x
property float y
property float z
property uchar red
property uchar green
property uchar blue
element face 0
element camera 0
property float view_px
property float view_py
property float view_pz
property float x_axisx
property float x_axisy
property float x_axisz
property float y_axisx
property float y_axisy
property float y_axisz
property float z_axisx
property float z_axisy
property float z_axisz
property float focal
property float scalex
property float scaley
property float centerx
property float centery
property int viewportx
property int viewporty
property float k1
property float k2
end_header
-22.924252 -80.108147 24.703003 109 116 119
-22.742668 -80.162544 24.679871 89 95 97
-22.049019 -80.085808 24.689783 123 130 131
-21.94766 -80.102089 24.725349 115 123 123
-21.480736 -80.019165 24.79439 100 110 109
-21.372004 -80.157722 24.742573 96 107 102
-20.459457 -80.022545 24.693098 79 89 88
-23.67227 -79.844658 24.70199 147 149 153
-23.522352 -79.904404 24.716993 149 147 150
-23.294197 -79.927643 24.718378 133 136 137
-23.087709 -79.896996 24.714603 133 136 139
-22.92688 -79.872704 24.712397 126 131 137
-22.762604 -79.856956 24.646532 104 110 118
-22.082333 -79.90049 24.654963 138 143 145
-21.92672 -79.878326 24.705582 132 135 138
-21.304747 -79.925598 24.764301 100 110 110
-20.750593 -79.894417 24.644928 91 103 107
-23.684277 -79.701569 24.712811 139 143 147
-23.50952 -79.677635 24.729435 140 142 145
-23.294975 -79.682167 24.710991 146 143 146
-23.066542 -79.673737 24.706945 131 134 137
-22.883078 -79.694443 24.726639 121 126 130
-22.756664 -79.720741 24.702511 112 117 119
-22.100548 -79.764198 24.714636 141 143 141
-23.867044 -79.417938 24.704065 156 155 156
-23.724846 -79.497002 24.683681 131 134 139
-23.467649 -79.481346 24.67746 144 142 146
-23.293087 -79.524994 24.682552 155 153 154
-23.093634 -79.473801 24.721951 156 153 152
-22.897175 -79.48793 24.684982 137 138 142
-22.647396 -79.543221 24.69108 128 131 137
-22.053833 -79.484535 24.749115 139 148 156
-21.955276 -79.420166 24.746208 129 136 140
-21.281776 -79.453735 24.759974 107 111 116
-21.144554 -79.43779 24.733973 118 124 128
-20.721191 -79.406242 24.726116 165 166 168
-24.744635 -79.377457 24.768496 141 146 152
-24.033854 -79.319519 24.705946 167 163 168
-23.874199 -79.311508 24.71558 147 147 150
-23.742262 -79.315674 24.740152 134 135 140
-23.515198 -79.330688 24.719521 141 138 140
-23.351126 -79.280899 24.673475 140 138 139
-23.076649 -79.294022 24.683002 140 142 144
-22.840836 -79.325714 24.728937 146 143 146
-22.749573 -79.311028 24.694981 124 126 130
-22.506876 -79.307816 24.711969 121 127 130
-22.005756 -79.316284 24.720726 133 131 136
-21.940807 -79.302284 24.719944 109 113 116
-21.469521 -79.355675 24.715836 104 104 106
-21.256559 -79.309204 24.735226 94 101 105
-21.072231 -79.300964 24.679495 95 101 103
-20.854401 -79.25705 24.691439 78 88 85
-23.883505 -79.112953 24.660007 157 155 162
-23.763662 -79.153275 24.703087 152 149 156
-23.442642 -79.026428 24.720709 146 136 144
-23.327679 -79.096497 24.664993 126 126 129
-23.078365 -79.088966 24.709684 154 148 153
-22.852798 -79.124992 24.69788 145 138 144
-22.660389 -79.117325 24.654194 121 127 125
-22.513313 -79.131035 24.731777 107 112 115
-22.3909 -79.177162 24.703438 94 95 97
-21.860983 -79.191605 24.62627 91 97 93
-21.699028 -79.159653 24.718496 90 93 99
-21.586882 -79.011276 24.744675 107 116 115
-21.273405 -79.07473 24.74427 87 95 96
-21.14617 -79.099792 24.660116 82 92 93
-24.061558 -78.83062 24.607893 150 142 146
-23.884211 -78.933472 24.711651 137 136 144
-23.714203 -78.975883 24.654505 110 111 115
-23.308712 -78.882797 24.676994 138 135 142
-23.083227 -78.902565 24.750486 178 171 179
-22.960203 -78.843765 24.60532 155 152 156
-22.673807 -78.893509 24.729986 144 144 145
-22.526459 -78.940483 24.660221 129 127 128
-21.299185 -78.986908 24.721367 96 101 104
-23.897415 -78.765808 24.694532 166 164 168
-23.298569 -78.691513 24.678028 147 142 149
-23.071283 -78.652153 24.672815 169 167 173
-22.895401 -78.716042 24.665003 153 150 154
-22.708767 -78.701553 24.702778 155 151 158
-22.519873 -78.701614 24.691479 114 124 127
-20.874441 -78.7351 24.728615 116 124 131
-20.707266 -78.684639 24.641518 91 97 109
-22.883408 -78.492355 24.728977 168 154 163
-22.692703 -78.535439 24.736038 153 145 152
-22.557098 -78.495018 24.678909 158 158 166
-22.841303 -78.322182 24.624498 135 133 134
-22.672146 -78.308685 24.661005 180 172 179
-22.542795 -78.297325 24.68335 128 126 127
-22.380148 -78.209442 24.628815 132 134 140
-22.684221 -78.15757 24.611576 165 156 159
-22.530289 -78.087669 24.646154 162 156 155
-22.319595 -78.099457 24.610611 142 145 152
-29.410627 -91.840286 24.851112 50 49 55
-29.27891 -91.868881 24.941975 87 89 100
-29.073627 -91.877403 24.91699 164 154 159
-28.923153 -91.866013 24.872921 144 143 150
-28.733475 -91.922829 24.873236 115 113 122
-28.468132 -91.805733 24.846992 141 132 153
-27.67557 -91.842232 24.850613 217 202 223
-27.46907 -91.866074 24.919415 65 55 69
-27.232077 -91.92572 24.990602 162 148 163
-26.962624 -91.902138 24.926811 183 170 188
-29.727758 -91.66571 24.897669 65 66 69
-29.487627 -91.694435 24.939362 161 156 164
-29.277388 -91.724091 24.931858 140 136 146
-29.087503 -91.703369 24.89864 135 136 140
-28.922462 -91.717934 24.886993 148 148 156
-28.722513 -91.667885 24.883324 141 136 151
-28.530846 -91.730225 24.897148 162 160 169
-28.17709 -91.648293 24.871592 186 167 187
-27.825859 -91.66037 24.833094 216 196 204
-27.701475 -91.671242 24.91622 179 168 177
-27.518633 -91.695473 24.937157 173 163 168
-27.282421 -91.635246 24.852551 119 120 123
-27.110268 -91.670006 24.891747 138 136 138
-26.866032 -91.666794 24.911396 119 121 126
-26.748625 -91.600159 24.818581 192 184 195
-29.684563 -91.524757 24.919281 89 89 104
-29.584366 -91.508163 24.974403 136 132 142
-29.304205 -91.504128 24.924063 157 155 163
-29.152822 -91.55661 24.948454 145 145 149
-28.861723 -91.54261 24.892874 159 148 154
-28.679886 -91.482994 24.882902 167 158 163
-28.491251 -91.49987 24.87672 168 160 172
-28.30126 -91.469902 24.889395 168 162 179
-28.100529 -91.466347 24.874506 121 114 125
-27.847393 -91.519112 24.892321 147 146 149
-27.708948 -91.482079 24.909714 151 148 151
-27.48805 -91.486832 24.910088 146 143 148
-27.308386 -91.482239 24.915541 138 137 142
-27.120422 -91.51535 24.900787 131 128 132
-26.867504 -91.509819 24.922213 132 131 137
-26.73864 -91.464165 24.911585 135 134 141
-29.680077 -91.296539 24.899691 93 92 96
-29.547674 -91.277672 24.929575 127 127 132
-29.362188 -91.215981 24.90835 124 128 131
-29.108427 -91.224182 24.994699 96 99 109
-28.422546 -91.270027 24.914114 114 110 116
-28.26832 -91.2453 24.920502 154 151 159
-28.109705 -91.275139 24.890032 128 127 130
-27.901461 -91.30069 24.882603 118 120 122
-27.708477 -91.304787 24.90505 145 139 140
-27.480301 -91.304863 24.911325 137 135 142
-27.340235 -91.278816 24.956505 185 176 186
-27.081192 -91.300285 24.885345 167 163 166
-26.867775 -91.249207 24.953266 139 139 145
-26.746593 -91.267174 24.965425 132 133 141
-29.664026 -91.113327 24.907841 97 98 99
-29.524887 -91.125694 24.89925 114 119 122
-29.336292 -91.101494 24.893072 106 105 112
-29.115715 -91.009674 24.984543 70 80 82
-28.44245 -91.128639 24.868319 119 122 124
-28.284231 -91.082222 24.898314 111 116 120
-28.090088 -91.107552 24.896832 119 121 124
-27.880276 -91.085442 24.877476 130 133 133
-27.718304 -91.100044 24.89654 128 131 131
-27.479891 -91.085281 24.898205 131 132 138
-27.338909 -91.077194 24.910408 134 134 140
-27.072554 -91.091286 24.922762 145 140 144
-26.883881 -91.089348 24.905386 118 121 123
-26.759731 -91.089867 24.911175 131 133 137
-26.283569 -91.051041 24.940376 128 117 128
-25.986097 -91.011559 24.869465 205 191 206
-29.679201 -90.988518 24.899908 78 85 93
-29.459249 -90.880173 24.855446 140 144 149
-29.317219 -90.870277 24.885904 132 135 138
-29.100952 -90.901505 24.961731 81 91 90
-28.933573 -90.821091 24.878792 112 115 124
-28.759327 -90.911888 24.866474 108 115 125
-28.45439 -90.861725 24.867548 109 116 118
-28.290508 -90.913086 24.875954 120 125 128
-28.087889 -90.868797 24.884815 111 117 120
-27.878849 -90.892967 24.896006 115 120 121
-27.705091 -90.898048 24.915211 149 148 151
-27.492575 -90.902321 24.921219 131 132 134
-27.28824 -90.88546 24.920847 128 130 133
-27.083023 -90.87661 24.892548 127 129 134
-26.880434 -90.877289 24.919445 117 119 124
-26.699413 -90.842125 24.884996 165 162 166
-26.492487 -90.868515 24.894949 163 152 156
-26.285696 -90.877731 24.90797 154 144 153
-26.108522 -90.868828 24.919552 158 148 157
-25.959913 -90.891838 24.93944 176 164 175
-29.875801 -90.633072 24.819935 147 146 152
-29.733603 -90.665909 24.837856 179 170 178
-29.459646 -90.716537 24.864927 148 152 154
-29.294559 -90.692932 24.902849 129 132 135
-29.069479 -90.710709 24.899754 108 111 116
-28.953697 -90.71003 24.942163 112 117 123
-28.734756 -90.73214 24.930288 117 120 128
-28.476589 -90.703407 24.899891 113 116 118
-28.281372 -90.696854 24.887022 117 120 123
-28.08745 -90.70813 24.89645 131 133 135
-27.898653 -90.695518 24.897217 142 144 145
-27.691551 -90.696754 24.907944 133 133 135
-27.492151 -90.704208 24.918961 140 139 142
-27.306683 -90.697403 24.927923 140 139 143
-27.089167 -90.698402 24.905981 133 133 135
-26.878126 -90.675575 24.909595 126 125 129
-26.701332 -90.692001 24.895241 135 133 134
-26.48975 -90.705978 24.910641 160 152 154
-26.308838 -90.71418 24.922575 162 154 159
-26.101465 -90.705528 24.919636 163 156 160
-25.883913 -90.70919 24.909571 169 161 165
-25.688543 -90.656433 24.913124 160 151 157
-25.567316 -90.639923 24.840422 150 148 153
-30.253584 -90.403252 24.956417 182 167 168
-30.113678 -90.504074 24.938623 170 154 156
-29.857086 -90.557159 24.89493 160 153 158
-29.711901 -90.502068 24.859478 151 149 155
-29.520084 -90.491158 24.858677 137 139 144
-29.302837 -90.516968 24.887417 142 142 146
-29.084459 -90.538811 24.924963 122 121 122
-28.946075 -90.479744 24.903131 134 136 137
-28.627283 -90.4767 24.92264 110 113 114
-28.503544 -90.507965 24.9076 112 115 117
-28.306215 -90.49649 24.906466 123 126 128
-28.110518 -90.499863 24.910624 139 140 139
-27.879557 -90.495316 24.896658 130 129 132
-27.700449 -90.523369 24.9251 144 140 142
-27.477839 -90.497215 24.956926 159 152 156
-27.289545 -90.48336 24.93243 145 140 142
-27.108934 -90.489708 24.90148 118 120 121
-26.895454 -90.475502 24.89534 127 126 128
-26.70154 -90.499367 24.922972 140 135 138
-26.479788 -90.528511 24.905478 142 136 144
-26.314344 -90.512863 24.92766 161 152 151
-26.086802 -90.476303 24.90601 140 137 137
-25.915897 -90.494385 24.907553 123 123 122
-25.696381 -90.511253 24.910593 127 130 131
-25.577927 -90.513809 24.912519 125 129 127
-30.213673 -90.247559 24.91758 179 177 182
-30.192053 -90.232742 24.842285 198 188 196
-29.867294 -90.257263 24.855856 133 130 135
-29.655764 -90.267754 24.914001 136 137 141
-29.50053 -90.28553 24.879278 127 131 136
-29.287321 -90.272377 24.898252 129 132 131
-29.170414 -90.281029 24.877831 109 115 116
-28.855202 -90.288002 24.919991 118 123 128
-28.725357 -90.286903 24.906702 118 123 126
-28.532087 -90.333389 24.922323 112 119 122
-28.28861 -90.361198 24.901592 114 117 118
-28.071388 -90.309547 24.898083 124 125 126
-27.900021 -90.303581 24.924643 126 122 123
-27.675999 -90.320656 24.897017 126 127 129
-27.497681 -90.279327 24.919514 135 130 130
-27.311794 -90.313354 24.894419 120 121 119
-27.096708 -90.303307 24.913368 108 109 113
-26.910904 -90.304161 24.903339 147 138 142
-26.695944 -90.356339 24.932634 168 157 164
-26.540491 -90.379578 24.971571 135 131 134
-26.266605 -90.323044 24.907169 132 133 131
-26.094894 -90.305649 24.904634 131 133 132
-25.896208 -90.310486 24.904608 116 120 120
-25.741667 -90.298012 24.862463 108 110 112
-30.473747 -90.067657 24.863888 155 149 158
-30.303221 -90.105911 24.930464 164 159 167
-30.19434 -90.088463 24.976646 127 121 125
-29.875937 -90.123344 24.909241 135 136 138
-29.697212 -90.099152 24.934631 136 136 138
-29.526213 -90.109238 24.915251 125 127 130
-29.290133 -90.107025 24.896233 126 131 134
-29.11832 -90.096077 24.895781 122 127 126
-28.920937 -90.094742 24.905586 110 114 114
-28.709642 -90.123848 24.910381 129 131 138
-28.493341 -90.07399 24.903492 161 152 156
-28.281958 -90.075539 24.881372 147 136 141
-28.103598 -90.096077 24.904745 136 132 137
-27.914146 -90.082878 24.904638 130 127 132
-27.684158 -90.119255 24.895702 122 119 119
-27.545309 -90.12516 24.879038 137 131 132
-27.321148 -90.107712 24.880266 105 112 111
-27.097946 -90.123772 24.91571 135 133 137
-26.930113 -90.08741 24.928507 151 141 142
-26.711592 -90.040375 24.93058 120 117 119
-26.487581 -90.112381 24.921204 119 118 118
-26.284454 -90.100616 24.904852 120 125 122
-26.098431 -90.118843 24.907906 129 130 130
-25.873436 -90.128807 24.906158 129 131 133
-25.694496 -90.101402 24.879921 144 139 144
-25.575836 -90.118141 24.860678 155 145 152
-30.442871 -89.92585 24.896231 129 128 136
-30.323883 -89.862541 24.946714 152 149 154
-29.979206 -89.83165 24.855965 98 102 101
-29.648701 -89.898018 24.894361 136 136 134
-29.500628 -89.902733 24.886496 120 122 125
-29.323975 -89.883949 24.890402 142 143 146
-29.120518 -89.908325 24.874969 126 125 129
-28.897715 -89.891777 24.901258 139 137 141
-28.679588 -89.922157 24.866865 154 149 152
-28.485792 -89.898903 24.94072 158 151 151
-28.283388 -89.879242 24.929125 149 145 145
-28.082043 -89.890167 24.88887 130 129 128
-27.899956 -89.916672 24.881426 127 127 127
-27.715508 -89.891304 24.88718 148 142 144
-27.502157 -89.870972 24.8988 164 157 163
-27.30477 -89.909645 24.905491 140 138 141
-27.044991 -89.895927 24.918259 154 149 154
-26.926998 -89.907097 24.909363 128 124 128
-26.699512 -89.930138 24.928547 123 122 123
-26.501595 -89.846184 24.927612 115 116 116
-26.339497 -89.92012 24.913517 123 121 122
-26.115013 -89.909561 24.899536 159 147 149
-25.911287 -89.91304 24.896708 153 145 149
-25.701071 -89.896538 24.9023 150 142 149
-25.513866 -89.864128 24.87841 166 159 167
-25.279911 -89.835564 24.851665 160 151 161
-25.081917 -89.823814 24.895367 190 173 185
-24.981247 -89.840782 24.854599 134 124 132
-30.424076 -89.696411 24.880175 169 159 172
-30.304699 -89.699028 24.912945 152 147 154
-30.113352 -89.755127 24.935705 117 120 123
-29.915989 -89.74115 24.958439 134 137 137
-29.685328 -89.71991 24.908655 130 130 131
-29.502188 -89.684204 24.890123 137 138 140
-29.32099 -89.708618 24.915792 124 128 128
-29.08749 -89.704323 24.899242 138 133 138
-28.883654 -89.710876 24.920385 147 144 147
-28.714521 -89.740784 24.958136 175 168 168
-28.489677 -89.729668 24.928587 167 161 167
-28.313465 -89.691696 24.925026 135 133 130
-28.104961 -89.756973 24.895903 125 126 127
-27.870125 -89.721054 24.884829 127 126 127
-27.722824 -89.726746 24.932882 130 129 132
-27.422947 -89.755585 24.934713 164 154 153
-27.306641 -89.776817 24.888529 169 161 164
-27.062614 -89.685326 24.962008 117 122 127
-26.895599 -89.747009 24.924479 119 123 129
-26.710625 -89.688225 24.910614 107 109 111
-26.553724 -89.761536 24.925791 121 124 122
-26.282459 -89.715317 24.928839 112 108 109
-26.09693 -89.709923 24.892105 136 145 137
-25.879637 -89.739311 24.932653 168 152 154
-25.640915 -89.730789 24.920061 166 156 156
-25.481646 -89.739258 24.921696 163 154 158
-25.311836 -89.713768 24.923897 177 163 166
-25.109913 -89.704483 24.907572 144 135 138
-24.901972 -89.700523 24.882254 158 149 155
-24.713942 -89.647217 24.82836 188 180 184
-24.560417 -89.613068 24.877514 191 186 193
-30.430094 -89.436295 24.948736 165 145 152
-30.33736 -89.478889 24.956127 162 151 158
-30.060726 -89.455055 24.851517 152 156 157
-29.848585 -89.547668 24.973064 123 125 124
-29.633072 -89.585114 24.957682 174 169 169
-29.495485 -89.511993 24.937422 168 160 160
-29.316874 -89.508751 24.863554 134 132 135
-29.036716 -89.540688 24.863211 134 136 138
-28.882158 -89.523804 24.876793 125 126 127
-28.718414 -89.463867 24.950644 118 120 118
-28.476896 -89.453728 24.907959 103 107 103
-28.315756 -89.526062 24.901573 130 129 130
-27.926207 -89.55069 24.885748 127 127 125
-26.890596 -89.501915 24.985836 120 129 136
-26.744028 -89.520302 24.926826 113 120 128
-26.538725 -89.564972 24.956287 125 95 105
-26.32177 -89.478516 24.948254 115 116 114
-26.114935 -89.476662 24.846619 124 128 122
-25.966478 -89.544731 24.923826 166 154 150
-25.256645 -89.500679 24.92597 108 107 108
-25.119974 -89.51741 24.894039 138 137 136
-24.874325 -89.474136 24.883057 148 142 143
-24.705576 -89.49585 24.897034 170 165 166
-24.518227 -89.510712 24.910673 175 169 173
-24.377966 -89.443489 24.906462 176 168 169
-30.42804 -89.377655 24.94766 130 120 125
-30.290855 -89.324219 24.919897 144 138 143
-30.132908 -89.291946 24.895844 145 140 145
-29.745823 -89.232986 24.97595 114 123 122
-29.428656 -89.271454 24.960058 137 139 135
-29.341618 -89.30024 24.903381 143 144 142
-28.675488 -89.390724 24.93993 102 104 103
-28.485111 -89.335251 24.911564 136 134 131
-28.323824 -89.364227 24.874535 165 159 162
-26.545275 -89.39537 24.956234 164 163 169
-26.343666 -89.332443 24.903093 129 131 132
-26.089403 -89.342285 24.905495 117 119 122
-25.418449 -89.208572 24.932318 112 117 111
-25.268816 -89.336494 24.876099 149 142 146
-25.073366 -89.313301 24.916361 147 137 137
-24.894289 -89.305397 24.914799 143 137 135
-24.707186 -89.303635 24.911427 142 140 139
-24.542534 -89.286629 24.898302 135 132 132
-24.294733 -89.284111 24.922388 141 137 136
-30.217358 -89.155991 24.894337 101 98 102
-30.094412 -89.072151 24.901363 134 133 136
-29.930819 -89.01754 24.842041 119 120 118
-29.654123 -89.11882 24.895802 115 114 119
-29.562807 -89.003967 24.923523 187 176 171
-28.280184 -89.062134 24.885687 119 122 127
-28.17091 -89.042274 24.939966 70 71 75
-26.499691 -89.085144 24.929256 108 111 107
-26.331364 -89.167412 24.978468 139 132 126
-25.874531 -89.084167 24.946369 117 123 115
-25.486517 -89.014069 24.975334 106 108 105
-25.306967 -89.051292 24.913914 98 100 98
-25.101727 -89.073738 24.909771 115 114 115
-24.922274 -89.101349 24.93145 131 127 126
-24.690296 -89.113281 24.944859 143 140 137
-24.512543 -89.102104 24.91407 133 132 132
-24.33131 -89.126801 24.919226 113 116 114
-24.137566 -89.161972 24.9006 81 92 86
-30.096189 -88.930923 24.899372 115 116 120
-29.881964 -88.930321 24.899199 97 97 96
-29.720839 -88.90612 24.941641 110 109 105
-29.284067 -88.892624 24.812189 146 145 140
-29.178055 -88.986183 24.898029 148 147 143
-28.938635 -88.918175 24.843346 192 195 188
-28.701786 -88.848587 24.860722 106 117 113
-28.298929 -88.849632 24.964245 120 126 124
-27.714375 -88.890472 24.832697 92 91 97
-27.290213 -88.829689 24.893156 86 90 96
-26.881882 -88.872208 24.89831 93 97 104
-26.489876 -88.905327 24.965067 90 96 98
-26.290161 -88.889992 24.89863 81 84 88
-26.093313 -88.88121 24.912693 80 85 88
-25.933134 -88.943932 24.834242 90 90 93
-25.336395 -88.89946 24.878298 113 116 114
-25.100883 -88.893898 24.93396 113 111 110
-24.907734 -88.932991 24.947582 132 126 128
-24.703024 -88.934837 24.927485 139 136 136
-24.517145 -88.908287 24.881798 136 134 132
-24.384104 -88.805489 24.833866 166 158 160
-30.277334 -88.743523 24.85778 87 86 99
-30.083309 -88.692444 24.932856 109 112 122
-29.843885 -88.715477 24.980169 117 121 125
-29.679777 -88.689606 24.909716 104 107 106
-29.202923 -88.721519 24.938627 109 114 117
-28.933392 -88.676147 24.901663 98 102 113
-27.746923 -88.708305 24.968506 81 77 74
-27.253902 -88.673874 24.904987 82 84 92
-27.060083 -88.659538 24.91671 92 96 99
-26.855333 -88.672112 24.915552 88 89 95
-26.726971 -88.723671 24.917919 102 104 101
-26.574259 -88.604919 24.884699 63 71 73
-26.091581 -88.671547 24.850534 86 87 95
-25.893976 -88.723785 24.9608 102 104 108
-25.422869 -88.758911 24.853745 116 123 116
-25.277292 -88.724014 24.882149 103 104 104
-25.051243 -88.786743 24.897087 118 118 118
-24.956709 -88.732117 24.945564 148 141 137
-24.630486 -88.709366 24.952293 128 120 115
-24.501818 -88.703262 24.922533 143 138 136
-24.346958 -88.661522 24.896547 139 138 135
-30.102385 -88.520081 24.971077 97 99 105
-29.899315 -88.460114 24.90815 142 139 147
-29.734657 -88.496628 24.853785 158 150 155
-29.4625 -88.492668 24.98732 88 92 93
-29.087824 -88.458351 24.924568 103 107 111
-28.48247 -88.421532 24.865171 106 117 112
-28.342028 -88.488098 24.916336 100 106 101
-28.087902 -88.429367 24.882782 68 74 79
-27.692009 -88.493828 24.896734 105 109 120
-27.579592 -88.489136 24.806139 106 110 113
-27.298901 -88.416115 24.858671 67 79 77
-27.078491 -88.544907 24.885561 84 87 91
-26.99515 -88.479889 24.91889 88 87 92
-26.692665 -88.524765 24.926777 92 97 100
-26.205347 -88.51506 24.816492 89 95 93
-26.051367 -88.50705 24.929655 104 101 112
-25.949091 -88.436562 24.83889 86 93 99
-25.610388 -88.458649 24.984215 109 99 107
-25.427649 -88.579811 24.954315 146 146 146
-25.314623 -88.518639 24.873846 94 101 96
-25.103186 -88.529366 24.915848 109 108 110
-24.457563 -88.482689 24.914288 122 123 119
-24.324968 -88.474449 24.90752 122 125 122
-30.057583 -88.269867 24.955292 171 168 174
-29.786129 -88.345169 24.820904 202 182 193
-29.058031 -88.348839 24.985928 103 108 111
-28.704451 -88.29834 24.938156 134 139 138
-28.493795 -88.273094 24.86796 150 153 149
-27.727894 -88.274521 24.901917 88 93 99
-27.450911 -88.335197 24.924383 79 84 87
-27.280994 -88.324684 24.904087 81 91 89
-27.111485 -88.292511 24.833578 89 94 98
-26.929962 -88.398659 24.971445 88 90 91
-26.607407 -88.331436 24.922564 76 84 82
-26.504038 -88.293533 24.871447 81 90 88
-26.38203 -88.364594 24.846928 87 94 97
-26.058075 -88.267418 24.842358 105 104 111
-25.910105 -88.296387 24.907997 92 92 100
-25.511221 -88.256477 24.963501 108 109 114
-25.28471 -88.33905 24.811722 93 104 100
-25.197832 -88.367027 24.915295 98 103 106
-24.888885 -88.317406 24.863415 67 68 71
-24.793913 -88.392487 24.944954 112 110 115
-24.436647 -88.327301 24.944551 129 130 124
-24.336676 -88.295647 24.926657 141 140 135
-24.071096 -88.289268 24.905542 157 156 153
-23.923565 -88.286118 24.927061 153 149 149
-30.006121 -88.064583 24.972042 115 113 118
-28.718328 -88.176834 24.965258 81 85 94
-28.555145 -88.00647 24.869511 103 107 112
-28.250135 -88.173149 24.819975 100 97 104
-28.092838 -88.062584 24.893257 127 132 126
-27.504505 -88.151299 24.874489 75 85 87
-27.330294 -88.098938 24.918514 83 88 94
-27.116673 -88.077065 24.860744 92 94 96
-26.889891 -88.081367 24.882889 97 102 105
-26.66539 -88.126335 24.961304 91 90 100
-26.567152 -88.060234 24.95319 68 72 73
-26.057566 -88.128929 24.883736 105 105 111
-25.948286 -88.062958 24.873404 116 115 123
-25.719658 -88.097313 24.87241 94 99 102
-25.551548 -88.095238 24.973942 159 147 147
-25.078865 -88.117012 24.905685 84 86 90
-24.995773 -88.038101 24.944864 73 77 80
-24.660782 -88.036919 24.819988 78 82 85
-24.468941 -88.126305 24.956686 122 122 117
-24.314199 -88.076347 24.935863 125 124 122
-24.129934 -88.057808 24.924814 120 120 118
-23.901718 -88.139221 24.87311 156 159 152
-23.728382 -88.074738 24.923664 191 174 178
-29.922016 -87.914108 24.896072 104 100 104
-28.521715 -87.87442 24.806519 105 116 112
-28.14539 -87.931046 24.871067 108 113 115
-27.936892 -87.808586 24.844126 111 111 113
-27.492447 -87.828506 24.806322 99 97 98
-27.320129 -87.848816 24.900478 82 88 90
-27.103695 -87.893135 24.88839 96 103 103
-26.495678 -87.906631 24.848568 104 109 108
-26.361271 -87.93 24.845604 98 102 110
-26.017984 -87.999878 24.937887 84 83 94
-25.900217 -87.931458 24.924423 111 116 120
-25.449112 -87.930061 24.818663 81 83 78
-25.081133 -87.895775 24.930922 120 124 123
-24.936651 -87.898895 24.901413 63 70 76
-24.689106 -87.892914 24.928425 95 99 102
-24.432938 -87.922798 24.956875 125 124 120
-24.283705 -87.898613 24.927811 123 122 120
-24.105654 -87.885094 24.890839 131 129 128
-23.868341 -87.859718 24.90609 158 145 144
-23.742916 -87.911888 24.910378 152 140 141
-23.510382 -87.889748 24.927473 131 133 129
-30.075504 -87.747131 24.902023 184 181 188
-29.8328 -87.714012 24.907412 176 165 169
-27.886444 -87.757347 24.882774 110 111 114
-27.754095 -87.604843 24.999939 96 99 106
-27.24684 -87.755424 24.932798 100 99 107
-27.125834 -87.702492 24.881323 94 100 101
-26.47798 -87.663719 24.992956 110 109 115
-26.254026 -87.714088 24.858015 95 102 101
-26.150553 -87.683754 24.852861 95 94 93
-25.893173 -87.690483 24.865993 108 105 108
-25.536402 -87.760277 24.844564 62 72 74
-25.317474 -87.688194 24.949739 118 120 120
-25.05629 -87.675285 24.887632 98 101 98
-24.892258 -87.659157 24.931795 89 91 91
-24.690186 -87.694855 24.911648 117 117 116
-24.485603 -87.711662 24.911835 106 108 106
-24.309381 -87.71032 24.912199 119 118 112
-24.082321 -87.71199 24.904011 129 123 123
-23.902973 -87.710777 24.916698 151 143 145
-23.698484 -87.680763 24.908411 124 124 123
-23.51137 -87.779312 24.93808 119 128 123
-30.016182 -87.585686 24.83147 193 167 180
-29.906652 -87.514107 24.952616 125 126 128
-29.662764 -87.520493 24.929514 122 120 125
-28.57526 -87.587234 24.878834 97 93 107
-26.885498 -87.571861 24.954823 92 93 98
-26.440022 -87.476913 24.905485 128 128 126
-26.255514 -87.461357 24.860771 81 83 82
-26.102829 -87.490776 24.874596 105 111 110
-25.83707 -87.403671 24.878185 68 74 80
-25.694254 -87.498344 24.86141 104 107 110
-25.484444 -87.491577 24.930246 86 89 90
-25.294434 -87.520432 24.891521 104 107 106
-25.106964 -87.453659 24.869383 107 108 111
-24.870316 -87.527626 24.902935 102 99 98
-24.64999 -87.499977 24.880144 120 116 112
-24.498865 -87.520226 24.924669 120 122 116
-24.291346 -87.491264 24.910965 115 112 110
-24.09008 -87.495094 24.898342 127 129 126
-23.887011 -87.547203 24.878815 134 138 135
-23.709087 -87.499023 24.810551 142 138 152
-29.851976 -87.317017 24.967497 123 119 123
-29.725273 -87.265228 24.971846 166 157 160
-29.459059 -87.317451 24.996719 96 98 99
-29.228258 -87.375771 24.982487 116 118 125
-29.102882 -87.270767 24.916737 118 118 121
-27.851849 -87.31881 24.821278 113 122 117
-26.413301 -87.39106 24.823536 91 96 99
-26.261036 -87.256653 24.899824 95 101 101
-26.110304 -87.322098 24.891821 92 89 96
-25.895992 -87.36042 24.881426 99 99 104
-25.754717 -87.28064 24.901388 83 85 85
-25.49151 -87.26873 24.900423 101 109 108
-25.337582 -87.310516 24.974503 93 100 102
-25.079391 -87.296532 24.908594 108 111 110
-24.892361 -87.296204 24.928574 113 114 111
-24.713623 -87.292786 24.909147 112 111 108
-24.493523 -87.285934 24.926043 112 114 110
-24.280422 -87.286064 24.912743 111 115 112
-24.071236 -87.323845 24.905994 132 127 124
-23.92738 -87.274109 24.890549 134 133 131
-23.759911 -87.220863 24.869129 163 146 152
-30.047548 -87.081932 24.917555 186 175 186
-29.880985 -87.074333 24.883053 146 139 142
-29.712915 -87.103455 24.904087 140 135 137
-29.529156 -87.116814 24.925129 106 104 106
-29.257277 -87.000687 24.963379 140 130 128
-28.923637 -87.08876 24.971165 89 87 88
-28.753168 -87.051651 24.955353 109 108 113
-28.466108 -87.024704 24.913795 108 106 107
-26.845654 -87.043121 24.944986 96 101 97
-26.645502 -87.02565 24.96102 107 118 115
-26.476025 -87.095291 24.911726 106 110 109
-26.317028 -87.091156 24.923025 120 125 123
-26.170553 -87.091766 24.944828 128 126 126
-25.76543 -87.128136 24.952566 205 186 188
-25.410559 -87.142212 24.97208 69 69 69
-25.292257 -87.091446 24.923513 101 103 101
-25.101749 -87.11731 24.92153 115 116 115
-24.935656 -87.078987 24.880207 92 94 93
-24.725416 -87.133415 24.927481 114 114 110
-24.288664 -87.121353 24.898174 117 120 116
-24.070616 -87.104973 24.936432 131 136 132
-23.836374 -87.18779 24.947819 113 118 117
-23.704815 -87.122894 24.913996 126 130 126
-23.482481 -87.073296 24.905712 157 155 154
-23.382017 -87.017105 24.900158 148 149 150
-23.085087 -87.148193 24.812042 176 162 161
-22.891657 -87.013161 24.800047 67 59 70
-30.049438 -86.886612 24.89642 171 157 160
-29.894588 -86.903542 24.911869 159 151 151
-29.723894 -86.933731 24.944948 136 131 134
-29.597057 -86.876869 24.846989 179 168 172
-29.028566 -86.908447 24.908882 137 140 140
-28.939072 -86.913696 24.943802 110 112 112
-28.741131 -86.897942 24.925739 99 104 101
-28.377203 -86.951752 24.965387 124 130 128
-28.160976 -86.904312 24.903309 110 117 113
-27.28388 -86.816467 24.925262 95 105 99
-27.138119 -86.868271 24.931217 84 94 85
-26.881472 -86.862274 24.91345 102 110 109
-26.777695 -86.888893 24.872379 126 134 130
-26.490116 -86.826614 24.900597 86 92 87
-26.264084 -86.984337 24.909235 129 129 127
-26.001062 -86.931229 24.834991 137 132 129
-25.828571 -86.940247 24.907082 136 133 128
-25.717085 -86.891602 24.944525 117 120 119
-25.451391 -86.942802 24.886301 121 127 125
-25.282953 -86.934677 24.897261 102 106 105
-25.037151 -86.908066 24.936453 103 107 103
-24.950539 -86.921158 24.912334 101 101 98
-24.79776 -86.909866 24.865498 104 111 107
-24.328844 -86.926003 24.950388 106 110 110
-24.197144 -86.999008 24.972803 108 113 110
-23.700951 -86.892731 24.870476 160 149 151
-23.554108 -86.900139 24.903355 116 114 109
-23.279804 -86.888992 24.877066 157 150 149
-23.182962 -86.849602 24.92218 168 153 158
-30.070072 -86.68811 24.84269 144 136 137
-29.889877 -86.697021 24.930233 152 146 149
-29.687033 -86.656021 24.945763 132 133 132
-29.204483 -86.665123 24.998175 116 113 114
-29.06958 -86.675079 24.844879 83 83 85
-28.843704 -86.740646 24.904739 98 99 97
-28.704542 -86.736473 24.879471 124 125 123
-28.51334 -86.723259 24.937542 123 130 126
-28.363394 -86.655792 24.967819 122 131 126
-28.094088 -86.603668 24.906874 142 146 145
-27.254843 -86.647552 24.91021 99 109 106
-27.145605 -86.68203 24.908773 90 99 96
-26.904823 -86.6492 24.838406 92 98 94
-26.637156 -86.660248 24.905396 91 97 92
-26.584564 -86.71859 24.933678 144 154 145
-26.399422 -86.737373 24.860668 121 131 123
-26.151369 -86.792503 24.825596 92 99 90
-25.895983 -86.708008 24.851257 107 111 108
-25.715572 -86.731522 24.90493 128 128 122
-25.486532 -86.724449 24.891363 128 126 124
-25.257259 -86.66024 24.922794 107 110 110
-25.097919 -86.708733 24.919744 96 100 98
-24.964523 -86.7229 24.929096 96 106 102
-24.684376 -86.688065 24.913071 93 100 96
-24.477499 -86.711945 24.939606 98 98 102
-24.321419 -86.693977 24.955236 109 121 117
-24.120611 -86.681572 24.915197 104 107 109
-23.643227 -86.719116 24.98634 141 135 134
-23.511337 -86.657021 24.892595 129 118 115
-23.308163 -86.661102 24.933401 162 146 146
-23.091812 -86.674225 24.882683 168 160 161
-22.925705 -86.717979 24.861897 160 154 155
-22.723598 -86.730125 24.883224 118 121 110
-30.402843 -86.518219 24.864079 176 156 165
-30.360847 -86.426697 24.856361 175 166 173
-30.078003 -86.548515 24.933508 157 153 156
-29.898052 -86.53215 24.920803 154 150 154
-29.690178 -86.522415 24.903286 143 141 143
-29.586578 -86.495331 24.918781 141 133 135
-28.858187 -86.446198 24.968851 103 98 92
-28.695084 -86.57682 24.902361 124 123 119
-28.506586 -86.528358 24.868498 116 122 115
-28.311052 -86.5103 24.884411 123 134 130
-27.431347 -86.43531 24.807491 89 100 96
-27.285986 -86.505463 24.878218 101 112 109
-27.10161 -86.532585 24.916077 121 128 127
-26.938576 -86.539841 24.864594 149 161 158
-26.471815 -86.467247 24.867493 93 96 93
-26.275173 -86.437874 24.883566 84 89 90
-26.099194 -86.49865 24.883944 105 109 109
-25.892628 -86.47834 24.915756 103 105 107
-25.682127 -86.485817 24.930285 112 115 112
-25.500469 -86.462204 24.8969 116 117 115
-25.272005 -86.474098 24.904524 95 100 96
-25.0825 -86.520905 24.933449 88 95 93
-24.934622 -86.530106 24.929483 93 100 98
-24.761623 -86.533318 24.998051 110 119 118
-24.473965 -86.497589 24.855576 96 104 105
-24.357243 -86.520927 24.882084 89 95 96
-23.422892 -86.498657 24.92367 102 97 92
-23.260439 -86.486595 24.93985 134 127 124
-23.1038 -86.482925 24.911108 148 141 138
-22.94165 -86.478004 24.903793 146 140 140
-22.707922 -86.481468 24.837973 112 110 114
-30.643703 -86.386444 24.800888 55 58 67
-30.462189 -86.28302 24.888369 206 195 195
-30.290201 -86.282425 24.911039 146 140 139
-30.053453 -86.30616 24.852959 133 135 132
-29.897665 -86.288155 24.92388 132 126 125
-29.709837 -86.295372 24.892885 144 133 134
-29.582371 -86.245743 24.86692 95 86 87
-29.12405 -86.296143 24.929636 136 137 134
-28.882589 -86.310936 24.923113 121 115 123
-28.662601 -86.263931 24.870798 93 97 99
-27.7003 -86.283302 24.994965 100 111 105
-27.532446 -86.281242 24.861929 99 107 103
-27.055042 -86.275864 24.924435 105 111 104
-26.623972 -86.226898 24.911684 82 87 83
-26.469677 -86.302811 24.901794 98 101 95
-26.273096 -86.329124 24.91127 97 102 98
-26.112457 -86.347618 24.918783 105 109 109
-25.948267 -86.258629 24.885561 113 118 112
-25.675985 -86.320786 24.89797 93 98 96
-25.496601 -86.289238 24.911018 92 95 92
-25.294365 -86.302246 24.93495 94 95 94
-25.074594 -86.377647 24.917452 94 98 95
-24.930605 -86.335106 24.838755 86 92 91
-24.720043 -86.261261 24.909081 112 117 118
-24.520947 -86.248039 24.894291 124 128 132
-24.320419 -86.259613 24.917572 82 88 89
-24.02949 -86.2453 24.876503 108 118 119
-23.979836 -86.268394 24.905357 103 110 116
-23.306698 -86.269394 24.915499 108 106 108
-23.045429 -86.314522 24.928257 143 134 132
-22.911814 -86.296829 24.915455 151 137 137
-22.717609 -86.307129 24.894894 164 149 152
-22.583385 -86.243217 24.86021 96 93 97
-30.656076 -86.09507 24.858467 162 157 154
-30.480385 -86.135757 24.945271 172 166 162
-30.261894 -86.093796 24.905916 134 131 129
-30.106712 -86.091232 24.899952 157 150 151
-29.91773 -86.063065 24.890411 154 147 148
-29.714808 -86.080673 24.890818 129 125 125
-29.538918 -86.169991 24.819946 118 118 122
-29.334923 -86.005455 24.808699 111 105 107
-29.002956 -86.12606 24.951874 103 107 111
-28.851501 -86.146118 24.920399 113 111 123
-28.668173 -86.103256 24.902679 115 111 119
-28.516327 -86.088371 24.898842 98 99 102
-28.333099 -86.026649 24.882887 80 84 86
-28.071173 -86.12381 24.939789 116 122 118
-27.723625 -86.087952 24.906242 87 96 94
-27.48155 -86.184364 24.840334 89 101 97
-26.899843 -86.071472 24.933756 143 144 144
-26.749886 -86.102097 24.865135 87 86 90
-26.560959 -86.014641 24.911158 105 113 114
-25.869741 -86.078705 24.904694 92 96 92
-25.676596 -86.096657 24.912937 97 102 98
-25.479189 -86.070518 24.928066 96 100 94
-25.332031 -86.124992 24.908562 90 94 88
-25.111544 -86.090523 24.930508 88 95 92
-24.908649 -86.056465 24.883183 98 102 101
-24.682415 -86.105675 24.897451 126 126 126
-24.497486 -86.118629 24.909842 102 106 110
-24.284697 -86.102776 24.93531 94 99 103
-24.127813 -86.120392 24.963932 112 114 119
-23.425152 -86.092651 24.865067 114 118 119
-23.282108 -86.084976 24.938414 117 115 111
-23.090725 -86.084915 24.920492 118 117 114
-22.916149 -86.077377 24.920609 134 130 129
-22.677345 -86.074715 24.910557 136 129 129
-22.564186 -86.095428 24.88899 134 125 124
-30.698568 -85.929138 24.948584 156 149 147
-30.536066 -85.852592 24.960037 200 180 185
-30.246399 -85.935783 24.923029 140 135 135
-30.093513 -85.940918 24.963022 156 151 150
-29.919924 -85.937416 24.910015 159 149 151
-29.705856 -85.898621 24.898169 132 130 128
-29.518389 -85.862762 24.926144 127 124 124
-29.365469 -85.895653 24.943247 121 122 121
-28.313627 -85.873924 24.882225 111 107 107
-28.172197 -85.809433 24.915178 103 101 102
-27.822899 -85.931313 24.833176 103 111 113
-27.70117 -85.888481 24.943825 92 98 96
-27.006805 -85.85865 24.864988 82 87 87
-26.872721 -85.872421 24.880554 100 101 103
-26.7033 -85.899734 24.898775 118 117 121
-26.516825 -85.884636 24.858664 104 110 108
-25.676678 -85.919083 24.889034 120 121 121
-25.504074 -85.896019 24.906981 94 99 95
-25.362192 -85.893608 24.876593 97 101 98
-25.114983 -85.871521 24.880581 107 108 108
-24.902561 -85.920952 24.931913 98 100 101
-24.726395 -85.86116 24.871269 81 86 89
-24.426502 -85.974312 24.814167 102 106 110
-24.207767 -85.897621 24.848949 95 98 102
-24.039509 -85.92144 24.898773 116 123 123
-23.459572 -85.942848 24.871382 111 111 107
-23.278397 -85.905739 24.939627 114 115 112
-23.103123 -85.909927 24.896996 119 119 117
-22.902559 -85.912056 24.901466 125 125 123
-22.727453 -85.89798 24.874281 119 120 117
-22.551874 -85.975052 24.885307 85 85 80
-30.669262 -85.681801 24.891275 103 96 94
-30.596905 -85.734879 24.978096 165 148 150
-30.359905 -85.628166 24.880966 124 122 118
-30.067135 -85.688217 24.890026 130 128 126
-29.892868 -85.700844 24.87442 126 123 120
-29.717434 -85.682304 24.883614 134 133 130
-29.538559 -85.71434 24.883541 119 121 118
-29.302126 -85.713051 24.889162 171 156 156
-28.237406 -85.749252 24.924236 84 84 82
-27.712406 -85.768013 24.97031 103 112 104
-27.34342 -85.665497 24.981659 104 106 103
-27.090578 -85.758278 24.875973 85 89 90
-26.932367 -85.683167 24.907408 87 88 89
-26.715176 -85.744217 24.914167 114 117 118
-25.662441 -85.78672 24.809074 104 115 111
-25.49869 -85.710434 24.891312 105 107 106
-25.285545 -85.719505 24.879993 113 114 112
-25.03075 -85.770813 24.85722 120 126 124
-24.978371 -85.695709 24.863976 102 101 105
-24.749571 -85.744034 24.849888 77 86 91
-24.543335 -85.638367 24.879555 129 129 133
-24.271454 -85.727005 24.927614 134 130 130
-24.086637 -85.764816 24.806549 126 125 133
-23.703281 -85.661255 24.902189 100 103 104
-23.468569 -85.702896 24.899485 130 121 118
-23.305052 -85.675911 24.901379 126 123 121
-23.119095 -85.687416 24.867489 128 127 125
-22.890759 -85.70327 24.90167 97 101 97
-22.741108 -85.713249 24.880396 107 105 103
-30.657825 -85.537445 24.893038 143 135 136
-30.532621 -85.542061 24.889902 132 131 128
-30.304495 -85.50679 24.835781 141 136 137
-30.078382 -85.502495 24.894203 137 135 131
-29.880737 -85.534157 24.899637 134 132 127
-29.699835 -85.504684 24.892481 132 127 125
-29.492487 -85.49688 24.895647 124 123 121
-29.349735 -85.540276 24.855938 134 124 121
-28.938309 -85.555313 24.885487 108 106 104
-27.718592 -85.485352 24.893946 83 91 87
-27.492437 -85.493217 24.804062 104 110 100
-27.2339 -85.48616 24.807098 104 109 104
-27.135038 -85.516197 24.903473 101 107 104
-26.977982 -85.483253 24.942152 118 120 118
-26.747082 -85.518173 24.826138 74 75 78
-26.555273 -85.473366 24.87149 79 79 78
-25.461323 -85.446915 24.893776 114 120 119
-25.27356 -85.528931 24.901785 114 119 115
-25.075476 -85.462265 24.963894 137 136 135
-24.868172 -85.483177 24.92161 120 121 126
-24.753698 -85.406334 24.933121 82 84 96
-24.562826 -85.447556 24.848198 126 121 128
-24.351933 -85.459999 24.936691 139 134 137
-23.636019 -85.512756 24.923452 117 116 117
-23.518097 -85.476707 24.932215 114 111 110
-23.282883 -85.508575 24.921904 145 140 137
-23.132193 -85.488281 24.903975 157 148 147
-22.916021 -85.528839 24.894831 104 109 105
-22.727139 -85.596855 24.970833 86 90 82
-30.655888 -85.398605 24.860058 176 163 159
-30.277311 -85.302406 24.935469 151 152 151
-30.100224 -85.336914 24.89588 155 150 149
-29.894148 -85.333191 24.869394 163 157 156
-29.688932 -85.316345 24.906702 159 147 144
-29.523298 -85.356087 24.913269 137 133 133
-29.289337 -85.259811 24.96648 121 126 125
-29.095137 -85.32415 24.872873 110 113 108
-28.910389 -85.276962 24.981609 106 106 108
-27.879601 -85.331116 24.911554 124 122 127
-27.69043 -85.227615 24.833639 105 106 106
-27.535509 -85.276337 24.924854 84 85 87
-27.05871 -85.365738 24.872686 132 137 131
-26.852381 -85.327225 24.919359 102 107 108
-26.734097 -85.350441 24.97505 78 82 81
-26.509541 -85.249268 24.818232 77 83 79
-26.320763 -85.357971 24.916763 92 98 99
-25.879841 -85.375801 24.959814 131 137 127
-25.445393 -85.267807 24.922331 104 110 107
-25.318277 -85.31739 24.916693 98 106 104
-25.077414 -85.293709 24.906191 103 108 107
-24.813732 -85.298615 24.828358 109 113 115
-24.673634 -85.32682 24.808859 131 119 129
-24.312468 -85.236542 24.970362 89 90 95
-23.627018 -85.398125 24.92774 129 125 122
-23.500402 -85.347206 24.918228 136 130 128
-23.392052 -85.368965 24.906246 117 118 113
-23.08209 -85.30896 24.931749 135 129 127
-22.914824 -85.297432 24.897633 131 133 131
-30.483164 -85.085632 24.875656 150 150 144
-30.286339 -85.192223 24.841438 153 159 161
-30.037374 -85.056427 24.863161 165 157 157
-29.901323 -85.093941 24.906929 172 159 158
-29.793951 -85.165474 24.916449 200 185 181
-29.297543 -85.091232 24.890265 109 112 111
-29.110754 -85.100861 24.876381 112 112 111
-28.914434 -85.083336 24.889977 144 139 139
-28.496895 -85.043404 24.964489 152 148 144
-27.893936 -85.166237 24.894167 125 123 120
-27.713772 -85.158646 24.930832 109 110 107
-27.570719 -85.119843 24.933945 100 100 100
-26.90814 -85.047836 24.857918 85 87 84
-26.6831 -85.062325 24.891251 82 84 82
-26.526196 -85.068039 24.899199 87 91 86
-26.34486 -85.096298 24.866655 77 85 82
-26.174469 -85.147156 24.895966 111 112 108
-25.695248 -85.006241 24.838482 102 103 93
-25.481583 -85.137878 24.90403 95 98 96
-25.316494 -85.160347 24.873861 110 117 115
-25.097645 -85.141922 24.912743 103 112 114
-24.365448 -85.003738 24.817663 114 118 121
-24.137505 -85.065834 24.885986 95 98 98
-23.992025 -85.040802 24.866667 100 100 100
-23.263132 -85.037094 24.990046 135 121 124
-23.08514 -85.09613 24.925299 136 128 126
-22.933861 -85.081795 24.865576 141 135 136
-22.693022 -85.091316 24.848772 139 143 148
-20.652605 -85.043098 24.902971 154 152 152
-20.54776 -85.03714 24.904184 150 141 144
-30.652903 -84.887268 24.866762 102 96 98
-30.512417 -84.884186 24.867632 146 141 140
-30.088369 -84.899994 24.850624 169 167 165
-29.928974 -84.901146 24.896311 147 140 140
-29.744013 -84.884132 24.975321 172 165 162
-29.41386 -84.922813 24.833603 93 97 98
-29.268183 -84.905792 24.906818 115 118 117
-29.102404 -84.909912 24.886713 115 116 114
-28.912895 -84.874115 24.906496 125 124 123
-28.70075 -84.837051 24.935316 124 123 120
-28.546368 -84.874657 24.930475 120 116 116
-27.237391 -84.886086 24.910654 88 91 88
-27.087259 -84.864693 24.90126 99 101 98
-26.901888 -84.886871 24.930933 107 108 103
-26.695257 -84.909576 24.944815 121 125 116
-26.508183 -84.887016 24.899067 110 116 109
-26.260027 -84.955399 24.858421 81 85 80
-26.099773 -84.874344 24.901981 90 100 91
-25.887686 -84.897369 24.932392 109 112 107
-25.711861 -84.878578 24.903515 106 108 105
-25.508467 -84.869904 24.873302 100 104 101
-25.340071 -84.894859 24.890732 84 87 85
-25.09309 -84.884735 24.903278 95 99 97
-24.545137 -84.834236 24.972025 107 108 109
-24.259043 -84.880165 24.961966 103 100 98
-24.099394 -84.972939 24.897905 92 99 98
-23.821213 -84.865997 24.977629 135 131 133
-23.723791 -84.88829 24.914616 106 99 106
-23.436392 -84.899536 24.954699 150 141 141
-23.318552 -84.906448 24.900087 149 137 138
-23.073334 -84.939018 24.929903 157 145 145
-22.938238 -84.916542 24.915453 139 134 135
-22.672295 -84.934868 24.863863 126 128 125
-20.846859 -84.885498 24.98988 130 133 134
-20.689154 -84.909256 24.899855 146 147 149
-20.492657 -84.967636 24.911757 146 140 143
-20.337313 -84.886658 24.892521 112 116 116
-30.630253 -84.73735 24.830662 131 125 125
-30.518063 -84.716408 24.844624 132 129 125
-30.353802 -84.695946 24.870113 155 152 149
-30.08429 -84.714035 24.854233 149 147 146
-29.896646 -84.697174 24.924015 175 168 167
-29.766951 -84.735039 24.872889 200 174 175
-29.428629 -84.721214 24.909851 110 112 108
-29.297766 -84.701668 24.891483 126 126 124
-29.08503 -84.701508 24.900312 130 129 128
-28.910645 -84.73175 24.894436 133 125 126
-28.688765 -84.711555 24.92774 128 123 124
-28.528481 -84.710701 24.888151 121 120 120
-28.37896 -84.672638 24.8517 149 145 144
-27.148178 -84.746254 24.92099 87 90 87
-26.883055 -84.689873 24.954952 115 116 113
-26.712641 -84.640762 24.981634 120 120 119
-26.506071 -84.70829 24.920137 116 118 112
-26.33807 -84.66375 24.893898 122 124 114
-26.081635 -84.677094 24.907499 105 106 101
-25.885632 -84.674232 24.923147 122 124 119
-25.706451 -84.710159 24.906397 117 121 116
-25.536619 -84.697868 24.891424 100 106 103
-25.300232 -84.708008 24.914112 95 99 96
-25.113573 -84.668686 24.906536 104 109 106
-24.954025 -84.684204 24.834023 100 100 104
-24.797958 -84.710739 24.810333 104 108 114
-24.498272 -84.662231 24.93886 110 111 108
-24.302057 -84.695007 24.910843 124 122 117
-24.136873 -84.67276 24.899181 136 136 131
-23.839621 -84.787811 24.93227 129 131 130
-23.672228 -84.708084 24.904596 112 111 112
-23.513191 -84.650856 24.932878 134 131 129
-23.291519 -84.699104 24.907518 150 150 146
-23.101278 -84.74015 24.870922 144 142 139
-22.91313 -84.727959 24.922132 129 134 133
-22.725517 -84.650246 24.835236 171 177 175
-22.486013 -84.613632 24.835243 134 132 130
-21.016422 -84.629784 24.929745 129 137 138
-20.92054 -84.683151 24.871298 148 152 152
-20.773743 -84.774467 24.900118 143 141 143
-20.418818 -84.64624 24.984612 115 119 118
-20.328835 -84.692924 24.909006 100 108 107
-20.055889 -84.637459 24.925476 117 120 116
-19.893574 -84.628616 24.938931 192 183 179
-19.733253 -84.682465 24.924925 158 160 159
-19.505383 -84.64592 24.913168 141 144 142
-30.508884 -84.569199 24.820749 137 134 130
-30.285095 -84.490555 24.849033 161 154 154
-30.11784 -84.504616 24.87278 172 159 158
-29.911888 -84.517868 24.889473 185 169 167
-29.477608 -84.556023 24.925453 146 149 145
-29.256554 -84.492813 24.928276 126 126 124
-29.086567 -84.468445 24.907076 129 128 128
-28.884722 -84.498398 24.902761 131 128 130
-28.698019 -84.486511 24.898325 123 119 119
-28.491899 -84.467255 24.894562 132 126 128
-28.277618 -84.471519 24.898628 119 116 117
-28.085833 -84.474945 24.901279 101 101 98
-27.889908 -84.44207 24.912287 124 127 121
-27.392477 -84.44751 24.86286 119 121 120
-27.078459 -84.495636 24.968702 121 122 113
-26.892448 -84.482002 24.91971 125 124 120
-26.689253 -84.477936 24.914396 115 114 110
-26.517008 -84.49659 24.91007 136 137 133
-26.283358 -84.524261 24.918966 131 132 125
-26.108122 -84.502983 24.920616 130 131 121
-25.904224 -84.530884 24.926592 134 132 124
-25.701344 -84.491982 24.907267 131 135 127
-25.503496 -84.472313 24.877216 110 113 108
-25.296686 -84.471924 24.866886 123 123 122
-25.11314 -84.493156 24.898836 126 124 121
-24.899105 -84.50576 24.889164 113 117 109
-24.68298 -84.530441 24.86375 126 126 120
-24.480436 -84.492332 24.929213 141 138 134
-24.310423 -84.493095 24.891804 112 112 109
-24.110752 -84.495506 24.884497 114 116 117
-23.871895 -84.433945 24.898567 149 149 152
-23.637722 -84.541397 24.892208 121 120 118
-23.536327 -84.534599 24.901062 122 122 120
-23.29287 -84.4729 24.917751 147 150 144
-23.116661 -84.47467 24.899704 161 154 149
-22.871403 -84.502441 24.938099 124 126 123
-22.703772 -84.548752 24.975563 139 135 138
-22.555153 -84.531128 24.881121 154 151 150
-22.374952 -84.476662 24.841736 96 109 99
-21.02306 -84.511955 24.877853 143 148 147
-20.950451 -84.486786 24.900457 136 140 137
-20.450272 -84.493271 24.985283 107 114 112
-20.301342 -84.499519 24.891127 89 99 95
-20.092424 -84.478706 24.857445 106 114 109
-19.95743 -84.470947 24.866123 124 130 123
-19.32539 -84.538986 24.883606 113 119 118
-30.276505 -84.326927 24.867708 137 131 129
-30.095818 -84.307648 24.871241 157 147 147
-29.979794 -84.306137 24.922903 162 149 151
-29.629782 -84.312317 24.976347 139 140 133
-29.247341 -84.288353 24.900064 135 133 131
-29.115963 -84.312729 24.899042 134 132 131
-28.892336 -84.294319 24.884869 134 132 131
-28.728096 -84.300034 24.905924 140 136 135
-28.512611 -84.271049 24.889263 125 122 121
-28.334463 -84.312965 24.883469 120 119 119
-28.089046 -84.342384 24.892618 124 124 123
-27.926678 -84.294693 24.899599 97 96 95
-27.664986 -84.296387 24.944704 117 117 112
-27.455921 -84.292053 24.898682 124 122 120
-27.365025 -84.334526 24.909359 123 124 121
-27.112183 -84.358391 24.970274 139 139 132
-26.872557 -84.282875 24.925726 138 137 135
-26.692406 -84.288033 24.902357 120 118 117
-26.518366 -84.296906 24.93997 122 120 118
-26.381327 -84.298676 24.929665 124 129 124
-26.053303 -84.290688 24.955662 137 136 130
-25.87701 -84.258957 24.952566 150 150 150
-25.684988 -84.300926 24.949694 142 143 138
-25.515053 -84.29464 24.912588 136 133 130
-25.320364 -84.302666 24.90555 134 129 128
-25.126743 -84.322777 24.908432 137 134 134
-24.919228 -84.252007 24.900404 126 132 129
-24.448854 -84.25106 24.983454 113 109 105
-24.321602 -84.278694 24.93218 136 132 128
-24.072939 -84.319221 24.907036 116 115 114
-23.937386 -84.285225 24.91704 115 119 114
-23.667549 -84.233551 24.845816 114 115 114
