ply
format ascii 1.0
comment PCL generated
element vertex 1114
property float x
property float y
property float z
property uchar red
property uchar green
property uchar blue
element face 0
element camera 0
property float view_px
property float view_py
property float view_pz
property float x_axisx
property float x_axisy
property float x_axisz
property float y_axisx
property float y_axisy
property float y_axisz
property float z_axisx
property float z_axisy
property float z_axisz
property float focal
property float scalex
property float scaley
property float centerx
property float centery
property int viewportx
property int viewporty
property float k1
property float k2
end_header
-94.37825 -11.130627 20.729593 109 126 108
-92.649376 -11.048747 20.68799 163 157 173
-92.528946 -11.031275 20.675022 159 139 155
-92.335602 -11.085302 20.64624 79 91 88
-92.045258 -11.176087 20.648888 137 127 138
-91.949333 -11.164322 20.700413 84 80 84
-95.462318 -10.973095 20.606462 100 102 85
-95.241882 -10.904076 20.663776 157 151 150
-95.103676 -10.929861 20.655907 113 113 116
-94.938904 -10.952484 20.694233 61 75 67
-94.639305 -10.935144 20.682133 104 118 107
-92.618225 -10.959253 20.658972 121 109 124
-92.466583 -10.954701 20.674503 91 92 101
-92.362473 -10.919636 20.664856 67 77 66
-95.406219 -10.746778 20.609924 105 110 94
-95.327652 -10.723108 20.657433 147 152 135
-95.116394 -10.754178 20.658045 149 149 142
-94.931244 -10.791218 20.675421 158 176 164
-96.046532 -9.2309217 20.728336 124 130 130
-95.918945 -9.2070827 20.714046 141 130 147
-95.72271 -9.2431993 20.645733 88 87 95
-95.999763 -9.0332985 20.710823 188 175 193
-95.744064 -9.1571398 20.65136 137 137 149
-95.150406 -9.0037355 20.727421 81 80 88
-96.236305 -8.8739319 20.601879 183 183 195
-96.104469 -8.9470739 20.674587 130 131 143
-95.863556 -8.9461374 20.684141 106 117 127
-95.727425 -8.9987774 20.681515 67 96 84
-95.213905 -8.9267693 20.625938 176 164 178
-95.15831 -8.9046984 20.692446 180 177 189
-95.893105 -8.754859 20.63788 97 104 123
-95.752922 -8.7524614 20.69828 45 75 75
-95.519821 -8.6743908 20.694042 169 172 180
-95.293335 -8.7337399 20.683071 99 111 107
-95.03096 -8.6896582 20.726837 190 191 195
-94.937935 -8.7058945 20.687416 136 136 146
-96.325653 -8.4554205 20.635532 148 126 156
-95.857994 -8.4134464 20.714329 135 137 138
-95.644707 -8.4787006 20.626268 124 126 141
-95.437584 -8.5766296 20.661091 179 175 186
-95.321114 -8.5490913 20.628231 91 103 103
-95.048996 -8.4961138 20.682089 149 123 152
-96.230713 -8.3051195 20.63908 171 168 180
-96.082748 -8.2468853 20.656105 144 141 137
-95.968903 -8.3434086 20.68256 154 161 146
-95.644264 -8.3043966 20.638317 202 187 213
-95.507866 -8.3859491 20.600605 141 135 153
-95.246185 -8.2625027 20.637756 166 150 177
-95.073357 -8.2135353 20.747011 110 103 111
-96.231125 -8.136261 20.619572 139 129 139
-96.12648 -8.1751137 20.651566 139 120 116
-95.401688 -8.0804424 20.649368 128 128 149
-95.345787 -8.0788088 20.674826 173 167 170
-95.174149 -8.1351328 20.712509 124 121 136
-94.863632 -8.1368618 20.690495 146 144 144
-95.659958 -7.9326673 20.719147 236 225 241
-95.507843 -7.8605671 20.699436 134 119 142
-95.382584 -7.8594685 20.631516 145 135 152
-95.135239 -7.8792119 20.662584 144 145 152
-95.485985 -7.7040157 20.642494 169 151 168
-95.331421 -7.6526356 20.669838 132 125 135
-95.155838 -7.7139974 20.651672 104 110 110
-95.455772 -7.5638542 20.658409 145 124 149
-95.346695 -7.5549459 20.657082 170 154 166
-95.724968 -7.2264671 20.648569 245 229 255
-96.042137 -7.1925507 20.633533 216 210 224
-95.918625 -7.0669065 20.615948 150 145 168
-94.297569 -4.8540125 20.659122 166 143 159
-97.062241 -21.221897 20.823978 132 146 142
-97.266953 -21.026346 20.841965 150 154 139
-97.078659 -21.132725 20.872154 168 164 147
-96.089195 -21.041901 20.870386 84 106 89
-95.890099 -21.025066 20.85252 60 89 60
-97.220238 -20.999418 20.863869 166 170 133
-97.125275 -20.970373 20.918505 150 151 134
-96.909187 -20.88217 20.838251 91 102 94
-96.175423 -20.944321 20.913773 102 122 97
-95.987671 -20.914158 20.899601 27 61 24
-95.689606 -20.885298 20.894175 66 101 65
-95.494408 -20.835592 20.952671 57 73 59
-95.679321 -20.718571 20.88088 67 92 70
-95.490784 -20.692581 20.904428 107 126 105
-94.915977 -20.621725 20.941599 90 108 86
-96.328751 -20.504894 20.928894 95 123 99
-96.045959 -20.485037 20.882561 13 47 22
-95.960869 -20.448736 20.812254 51 83 56
-95.646515 -20.518854 20.889811 73 96 71
-95.51384 -20.467466 20.955654 63 92 67
-94.865334 -20.482517 20.841301 135 145 135
-94.782875 -20.407824 20.855984 76 93 83
-96.448494 -20.295542 20.864143 81 98 76
-96.230194 -20.285465 20.913452 62 98 68
-95.714523 -20.329227 20.862167 35 74 42
-95.516075 -20.292141 20.896193 134 147 130
-95.257988 -20.279028 20.898552 119 136 125
-95.150414 -20.292095 20.869864 66 96 68
-94.893288 -20.257755 20.850672 79 100 78
-94.714233 -20.231327 20.838018 58 86 63
-96.246811 -20.111917 20.939911 42 74 53
-95.861916 -20.021572 20.839005 21 65 14
-95.625008 -20.171486 20.893162 100 117 101
-95.445953 -20.133722 20.884636 84 100 83
-95.307587 -20.057209 20.892298 97 113 101
-95.117989 -20.140465 20.849178 67 88 70
-94.891579 -20.088427 20.870321 94 117 97
-94.727112 -20.084366 20.882435 51 78 60
-96.106781 -19.919895 20.826801 119 148 128
-95.924217 -19.877996 20.905659 82 107 86
-95.73764 -19.855907 20.846729 50 78 55
-95.464912 -19.947195 20.892941 73 97 76
-95.320381 -19.90243 20.851612 132 138 131
-95.113228 -19.874374 20.85042 77 101 85
-94.888824 -19.904596 20.880863 76 98 79
-95.854042 -19.706545 20.845453 108 113 102
-95.746399 -19.697012 20.832224 96 108 90
-95.305725 -19.774323 20.894369 132 144 135
-95.850861 -19.551929 20.830845 141 149 137
-95.72348 -19.515907 20.841574 122 127 112
-94.651329 -19.503679 20.838617 57 88 70
-95.700203 -19.369743 20.80085 102 111 92
-94.061813 -18.729818 20.835491 45 70 43
-93.934517 -18.749273 20.863955 41 71 41
-93.729744 -18.667423 20.875782 149 155 143
-93.491783 -18.688646 20.892799 141 142 128
-93.326744 -18.721525 20.822691 88 104 79
-93.06134 -18.638565 20.831902 29 69 27
-92.975266 -18.608593 20.803024 14 56 10
-95.442703 -18.466356 20.874832 73 92 74
-95.357079 -18.451092 20.885077 63 78 52
-94.289581 -18.585485 20.804638 74 90 64
-94.018959 -18.463205 20.847656 67 91 71
-93.870827 -18.477486 20.865028 93 101 87
-93.693817 -18.459818 20.857265 104 102 89
-93.51442 -18.442825 20.852367 138 136 121
-93.279099 -18.480278 20.914833 53 79 58
-93.105408 -18.484102 20.914589 45 75 45
-92.969406 -18.459431 20.863766 122 134 107
-92.755554 -18.424564 20.845501 74 90 86
-95.51638 -18.281641 20.905136 86 97 86
-95.33963 -18.282982 20.877052 99 108 90
-95.167847 -18.206942 20.802202 80 93 76
-94.633064 -18.262674 20.803473 155 173 161
-94.556465 -18.219641 20.821114 28 55 36
-94.256737 -18.301758 20.803265 39 63 37
-94.117516 -18.285639 20.887522 76 90 74
-93.870506 -18.295828 20.88658 162 162 156
-93.725121 -18.25902 20.939651 145 143 129
-93.465096 -18.240334 20.854671 135 133 124
-93.281769 -18.270094 20.881351 68 89 65
-93.103294 -18.267075 20.817869 109 122 100
-92.889725 -18.323715 20.825695 71 96 71
-92.760712 -18.323046 20.828922 88 108 82
-95.616333 -18.179859 20.872198 77 94 81
-95.510239 -18.041786 20.878181 92 99 81
-95.323212 -18.097198 20.900677 137 139 127
-94.480225 -18.019024 20.854507 72 82 72
-94.313408 -18.095722 20.833466 191 171 180
-94.122772 -18.067572 20.886997 135 137 126
-93.945084 -18.105837 20.914673 207 203 201
-93.700272 -18.04763 20.924381 187 187 185
-93.541992 -18.075108 20.860214 104 110 102
-93.31266 -18.109194 20.940176 89 99 86
-93.083725 -18.051792 20.943245 120 122 112
-92.933914 -18.154736 20.848721 66 81 66
-92.76194 -18.116467 20.847721 81 92 72
-95.461151 -17.988636 20.942125 127 131 118
-95.348328 -17.953838 20.937912 175 176 175
-94.661972 -17.892981 20.83 73 85 62
-94.455627 -17.842808 20.940693 82 90 80
-94.322205 -17.879183 20.969584 146 147 136
-94.08194 -17.895563 20.957924 145 144 130
-93.873016 -17.901344 20.948288 79 89 76
-93.728058 -17.96196 20.947598 128 132 119
-93.503799 -17.955999 20.953199 154 149 144
-93.325127 -17.91259 20.927452 50 77 52
-93.075653 -17.861107 20.868889 79 89 79
-92.973175 -17.951401 20.87051 89 104 87
-92.721176 -17.911156 20.898605 82 93 74
-92.50528 -17.938797 20.846024 65 81 71
-96.235771 -17.63587 20.805256 147 149 139
-96.075615 -17.640892 20.88266 119 133 126
-94.729256 -17.69075 20.922585 106 115 100
-94.436172 -17.718067 20.874168 122 128 122
-94.276482 -17.678444 20.900864 160 167 159
-94.131477 -17.681875 20.962547 111 126 115
-93.921272 -17.74036 20.956795 135 129 126
-93.625053 -17.687737 20.939106 87 83 82
-93.465729 -17.66106 20.974485 86 98 83
-93.28318 -17.721458 20.960945 47 71 49
-93.092651 -17.746475 20.865225 49 81 61
-92.92588 -17.767414 20.87114 78 88 77
-92.733307 -17.683954 20.862419 58 81 66
-92.541916 -17.701738 20.821873 32 60 26
-92.237518 -17.680962 20.829609 62 90 58
-96.255852 -17.585335 20.818031 161 153 149
-96.073219 -17.49394 20.902754 164 166 164
-95.31028 -17.485754 20.82675 122 126 129
-95.100967 -17.511913 20.816696 141 146 129
-94.938995 -17.449825 20.883543 125 132 127
-94.649017 -17.433928 20.89353 166 167 154
-94.453842 -17.483932 20.914402 128 136 125
-94.281273 -17.49803 20.924982 162 163 151
-94.115204 -17.452017 20.970009 91 103 87
-93.89328 -17.538349 20.966167 164 169 166
-93.782883 -17.504593 20.897356 136 123 117
-93.466873 -17.565495 20.93404 100 109 96
-93.353966 -17.475239 20.93162 67 79 60
-93.047523 -17.552164 20.914833 60 91 73
-92.877144 -17.518566 20.857996 56 85 65
-92.692932 -17.491583 20.868776 14 53 20
-92.493767 -17.548166 20.89064 71 99 74
-92.308189 -17.476286 20.846619 65 80 63
-92.14344 -17.437952 20.957054 11 53 5
-96.201401 -17.271006 20.866604 126 124 123
-96.139023 -17.359711 20.818327 142 143 136
-95.66494 -17.220116 20.813877 145 149 132
-95.463554 -17.271269 20.816845 117 131 116
-95.26931 -17.286087 20.862398 143 150 135
-95.137825 -17.289814 20.936104 151 148 136
-94.907494 -17.31439 20.874952 117 124 109
-94.644302 -17.294685 20.893274 201 192 181
-94.473999 -17.323357 20.903713 194 201 196
-94.272652 -17.343872 20.932869 149 154 153
-94.107552 -17.336525 20.958887 121 128 115
-93.868401 -17.229786 20.910065 167 168 156
-93.699394 -17.326653 20.91151 154 151 138
-93.573212 -17.274414 20.911911 147 144 147
-93.237213 -17.374096 20.872589 44 69 46
-93.128052 -17.255087 20.90764 61 73 62
-92.918533 -17.289616 20.911018 34 59 43
-92.63195 -17.277622 20.897551 44 65 54
-92.457886 -17.298927 20.896187 48 70 56
-92.359161 -17.279137 20.882051 38 66 49
-92.065979 -17.239895 20.89473 49 80 60
-91.946747 -17.230267 20.852619 65 77 63
-91.794601 -17.232872 20.906673 146 142 148
-90.151321 -17.341711 20.822624 188 189 173
-88.670212 -17.271835 20.819771 115 122 103
-88.488197 -17.272646 20.920183 51 78 44
-88.321014 -17.261185 20.853846 91 98 84
-95.871674 -17.040596 20.838894 122 131 115
-95.617058 -17.044109 20.904196 140 144 141
-95.471848 -17.013508 20.83688 94 105 94
-95.267166 -17.065128 20.835392 177 181 180
-95.147125 -17.081602 20.831583 129 129 133
-94.851791 -17.145315 20.919006 120 133 130
-94.717102 -17.1045 20.907572 128 129 126
-94.524902 -17.147535 20.932493 161 159 146
-94.293221 -17.11545 20.949495 175 170 173
-94.146057 -17.130074 20.927502 109 110 112
-93.877701 -17.111683 20.958605 139 148 145
-93.701553 -17.094456 20.916708 144 144 144
-93.537376 -17.123093 20.903492 91 88 92
-93.100189 -17.116364 20.878803 65 76 70
-92.859634 -17.052834 20.851746 53 70 56
-92.702805 -17.042389 20.819054 55 71 64
-92.514877 -17.118935 20.901768 98 108 103
-92.325211 -17.119587 20.924698 86 92 80
-92.176178 -17.028461 20.858831 169 158 163
-91.928284 -17.166653 20.966991 119 118 116
-91.668221 -17.072735 20.8528 163 158 153
-91.213203 -17.002386 20.896065 100 101 103
-88.936264 -17.001947 20.907917 137 126 120
-88.767632 -17.131001 20.969336 205 195 185
-88.415543 -17.1754 20.893139 148 143 138
-88.368614 -17.17622 20.876711 128 123 116
-96.260551 -16.813896 20.883152 154 151 142
-96.046356 -16.889973 20.872713 124 128 111
-95.880966 -16.837265 20.850126 145 144 138
-95.666328 -16.893459 20.889343 142 146 141
-95.449646 -16.925175 20.91016 125 131 124
-95.283401 -16.963333 20.89502 98 107 102
-95.153137 -16.86167 20.895542 135 141 136
-94.866562 -16.912689 20.873863 156 163 160
-94.727829 -16.948997 20.941109 102 104 102
-94.458664 -16.905457 20.886885 115 118 122
-94.366943 -16.936127 20.905067 183 178 183
-94.048714 -16.907755 20.882711 97 100 98
-93.877228 -16.949657 20.946671 157 150 156
-93.689713 -16.903625 20.873104 168 156 166
-93.553436 -16.859875 20.947388 172 173 177
-93.344437 -16.872261 20.944859 183 173 185
-92.900955 -16.991703 20.965092 76 94 85
-92.673286 -16.895018 20.938612 38 61 41
-92.491104 -16.879059 20.869759 71 85 75
-92.296333 -16.939293 20.933834 83 85 83
-92.085632 -16.902779 20.905781 120 125 119
-91.904213 -16.880363 20.891853 80 87 78
-91.63913 -16.892601 20.918638 76 84 76
-91.592102 -16.811872 20.925232 114 120 116
-91.263809 -16.94795 20.837452 139 133 121
-89.067993 -16.859985 20.882544 151 145 139
-88.756363 -16.84234 20.822695 123 129 119
-88.412018 -16.950798 20.822104 171 169 174
-87.65094 -16.81447 20.807453 205 191 180
-87.590919 -16.819481 20.834551 127 112 105
-87.298576 -16.809441 20.851744 155 144 150
-86.953621 -16.83523 20.807468 73 82 65
-96.504242 -16.680046 20.821785 157 162 153
-96.331955 -16.630077 20.905878 124 138 124
-96.125412 -16.650242 20.845959 96 109 94
-95.830109 -16.668348 20.899809 120 131 122
-95.647934 -16.641918 20.862003 135 137 128
-95.469734 -16.722651 20.894835 150 152 141
-95.326385 -16.742411 20.868742 118 124 112
-95.133804 -16.682968 20.864435 88 99 91
-94.967491 -16.731684 20.893145 85 95 86
-94.700104 -16.631294 20.871574 159 153 156
-94.487503 -16.714474 20.948456 192 181 187
-94.365685 -16.728012 20.878626 141 131 139
-94.183037 -16.789801 20.889185 70 78 80
-93.852783 -16.765347 20.905018 125 123 129
-93.723694 -16.759642 20.878727 66 66 65
-93.566109 -16.724039 20.869917 61 49 63
-92.890778 -16.661976 20.939137 39 56 48
-92.751289 -16.672274 20.919819 80 89 84
-92.45565 -16.717505 20.896227 38 65 47
-92.302292 -16.734013 20.937693 50 72 63
-92.072067 -16.718328 20.960979 68 82 75
-91.897423 -16.72118 20.960224 79 86 80
-91.665131 -16.666225 20.891537 75 93 79
-91.178383 -16.797857 20.963379 123 128 134
-89.285515 -16.637325 20.876143 160 154 142
-89.157913 -16.686314 20.838442 193 190 183
-87.679672 -16.68796 20.888016 185 183 175
-87.508408 -16.724606 20.883867 175 179 170
-87.382172 -16.685293 20.915344 162 156 160
-87.041229 -16.716793 20.870403 168 169 154
-99.865074 -16.451338 20.833006 175 170 161
-96.699905 -16.502342 20.840229 86 106 74
-96.535568 -16.485783 20.863537 173 172 167
-96.297668 -16.516733 20.919214 135 148 141
-96.100891 -16.478283 20.821529 207 207 206
-95.844215 -16.461535 20.867487 164 164 165
-95.677238 -16.457602 20.902296 157 159 157
-95.463539 -16.550541 20.919785 118 124 113
-95.303429 -16.545065 20.917604 142 145 139
-95.16925 -16.515366 20.872658 118 128 118
-94.954193 -16.479176 20.887817 114 116 113
-94.692261 -16.5592 20.869774 131 124 133
-94.552948 -16.548737 20.851482 116 116 118
-94.377129 -16.565201 20.831882 209 207 212
-93.690643 -16.526131 20.876495 125 136 122
-93.035339 -16.483927 20.836569 33 54 35
-92.971657 -16.571054 20.960049 52 70 61
-92.752266 -16.430666 20.870514 49 59 60
-92.517502 -16.532661 20.898624 90 102 102
-92.047516 -16.505489 20.90205 58 68 57
-91.935478 -16.52446 20.889797 48 68 59
-91.713341 -16.42861 20.865675 57 79 72
-91.517784 -16.41906 20.838711 62 76 67
-90.999458 -16.404701 20.811382 174 172 159
-89.488289 -16.509594 20.889732 184 172 168
-89.249794 -16.503073 20.859463 220 210 206
-89.169891 -16.593037 20.89101 188 179 170
-88.465073 -16.49144 20.836224 186 182 178
-88.388504 -16.499876 20.832623 175 175 165
-87.895294 -16.549925 20.817026 226 219 217
-87.757011 -16.54166 20.817169 214 198 197
-87.480812 -16.571747 20.964527 141 137 128
-87.322906 -16.576595 20.94936 172 172 157
-100.0647 -16.324327 20.881207 160 161 148
-99.911163 -16.287718 20.842239 139 143 125
-99.111237 -16.236334 20.927238 51 80 42
-96.686455 -16.338617 20.873028 103 114 103
-96.464996 -16.33794 20.899689 126 137 126
-96.288345 -16.353519 20.871593 112 125 120
-96.028107 -16.344299 20.849598 148 158 154
-95.875847 -16.266979 20.833862 148 158 153
-95.671463 -16.34333 20.878803 167 165 160
-95.498772 -16.308308 20.880262 153 151 150
-95.292374 -16.329741 20.917694 116 125 118
-95.107048 -16.347366 20.895653 113 119 116
-94.899384 -16.304552 20.911882 112 124 118
-94.716736 -16.270048 20.885616 96 117 109
-94.548462 -16.252235 20.93206 114 134 123
-93.824646 -16.327156 20.812233 228 242 242
-93.613434 -16.313688 20.931396 53 70 54
-92.958191 -16.252371 20.923714 21 27 15
-92.700775 -16.355835 20.961472 64 62 64
-92.03833 -16.312847 20.971439 40 62 53
-91.817612 -16.309826 20.971519 31 63 55
-91.660622 -16.288475 20.896271 41 67 58
-91.458046 -16.223211 20.875904 72 95 85
-91.271912 -16.263641 20.872459 68 84 74
-91.141159 -16.224207 20.8671 71 81 80
-90.974632 -16.260918 20.847868 141 147 143
-87.87043 -16.312471 20.878481 182 175 163
-87.774048 -16.297096 20.838247 145 148 129
-87.544151 -16.203058 20.877342 167 159 163
-87.307838 -16.263853 20.88055 189 182 175
-100.2869 -16.011061 20.902304 148 143 133
-100.06703 -16.1035 20.960432 162 156 146
-99.860718 -16.14468 20.839241 118 131 111
-99.689743 -16.058121 20.910305 53 76 51
-99.507462 -16.053864 20.823479 73 98 67
-99.230354 -16.126261 20.829691 84 106 71
-99.063095 -16.112677 20.837585 102 118 95
-98.867561 -16.050905 20.899624 61 90 65
-96.4785 -16.012522 20.848825 99 118 104
-96.289497 -16.146648 20.862307 109 125 110
-96.028542 -16.128038 20.873558 117 122 114
-95.841675 -16.135513 20.858454 158 164 164
-95.67215 -16.091116 20.867535 112 124 112
-95.460403 -16.059885 20.868252 137 129 135
-95.296783 -16.102478 20.891825 108 109 107
-95.147125 -16.121317 20.925619 131 123 125
-94.940369 -16.122787 20.898643 205 196 204
-94.735168 -16.163172 20.942261 100 112 106
-93.710022 -16.045502 20.82633 77 92 87
-93.073822 -16.128633 20.876081 58 66 63
-92.202316 -16.05324 20.8645 30 51 34
-92.03524 -16.107944 20.910797 27 61 50
-91.851685 -16.061773 20.908325 33 55 47
-91.675255 -16.077066 20.923521 43 68 58
-91.48291 -16.077297 20.906042 62 88 78
-91.285835 -16.085215 20.846146 61 76 70
-91.141586 -16.156841 20.851704 133 134 132
-90.958656 -16.101324 20.8009 113 119 116
-89.378761 -16.001884 20.803659 201 187 184
-87.827103 -16.140398 20.828207 223 221 215
-87.642044 -16.047787 20.940201 197 186 182
-87.48172 -16.145813 20.830147 176 165 159
-87.330185 -16.079041 20.883873 198 197 193
-100.82517 -15.901294 20.831884 107 122 103
-100.64973 -15.84305 20.857067 112 109 95
-100.46632 -15.854237 20.821981 160 165 160
-100.24587 -15.895513 20.874506 148 152 136
-100.14118 -15.886622 20.842257 103 120 109
-99.83638 -15.975064 20.894529 44 71 39
-99.646622 -15.922276 20.927547 95 110 85
-99.497398 -15.903625 20.915882 146 150 133
-99.294136 -15.888963 20.914452 61 87 56
-99.055511 -15.914453 20.857412 64 88 48
-98.898071 -15.888147 20.860552 49 79 51
-98.781982 -15.922711 20.887224 30 52 16
-96.600006 -15.835804 20.820616 148 162 144
-96.443428 -15.869983 20.86648 156 167 161
-96.213875 -15.894173 20.81768 134 140 133
-96.096664 -15.84217 20.823675 164 161 155
-95.900055 -15.893847 20.906919 124 129 111
-95.703156 -15.957792 20.950476 115 126 120
-95.542496 -15.941187 20.866177 124 118 115
-95.340195 -15.866102 20.923622 123 130 118
-95.082329 -15.840224 20.906408 116 114 113
-94.879791 -15.856926 20.905998 98 93 96
-94.773773 -15.843149 20.91202 190 176 188
-93.757401 -15.921778 20.99416 45 56 39
-92.901649 -15.986042 20.824886 101 103 118
-92.754227 -15.810484 20.860298 33 59 34
-92.22702 -15.863312 20.914753 24 49 34
-92.046036 -15.92626 20.917118 41 65 53
-91.870399 -15.89681 20.862951 39 62 52
-91.671997 -15.916826 20.941849 36 63 54
-91.482346 -15.930417 20.952633 26 62 47
-91.300591 -15.956081 20.933571 46 71 64
-91.161804 -15.870665 20.89299 47 73 65
-90.950348 -15.896797 20.82103 92 104 92
-88.645874 -15.864743 20.839424 155 136 158
-88.329971 -15.849209 20.842268 190 177 168
-88.153427 -15.87599 20.848967 200 192 187
-87.683945 -15.906959 20.877388 144 143 141
-87.540779 -15.994454 20.892647 200 185 182
-100.86273 -15.739742 20.870317 141 154 129
-100.68439 -15.706139 20.875528 107 115 102
-100.50183 -15.718636 20.918995 104 115 104
-100.26132 -15.726499 20.903851 109 126 107
-100.06177 -15.718622 20.856972 102 127 100
-99.877884 -15.719407 20.864513 72 90 71
-99.6408 -15.673804 20.946533 93 105 85
-99.469299 -15.732552 20.910614 107 122 86
-99.265579 -15.753582 20.873638 75 101 70
-99.118202 -15.659135 20.858973 38 72 43
-98.945717 -15.684193 20.904301 24 69 30
-96.487877 -15.685261 20.85055 125 129 110
-96.23877 -15.717882 20.823469 119 128 121
-96.072906 -15.686758 20.934513 124 129 116
-95.93396 -15.691362 20.893925 126 128 121
-95.713982 -15.690639 20.829243 131 132 129
-95.566681 -15.698272 20.90539 160 151 158
-95.278595 -15.723476 20.910654 102 101 98
-95.161896 -15.676371 20.985456 102 102 102
-94.943741 -15.700752 20.86809 101 105 107
-94.716049 -15.727226 20.896797 129 131 127
-94.522194 -15.674623 20.906284 134 143 142
-94.223503 -15.614374 20.841766 134 143 138
-94.146545 -15.658607 20.841766 142 135 142
-92.261826 -15.647486 20.923569 87 98 91
-92.072914 -15.715989 20.922754 42 55 48
-91.946968 -15.724849 20.913994 27 55 45
-91.718002 -15.666651 20.91914 36 59 52
-91.552856 -15.765787 20.877113 41 65 54
-91.22583 -15.702481 20.963589 34 61 54
-91.085419 -15.720062 20.935076 79 99 96
-90.928146 -15.667412 20.830526 47 68 61
-90.733795 -15.622326 20.836756 136 142 133
-89.117828 -15.718507 20.840805 156 159 147
-88.478218 -15.685272 20.907358 161 159 151
-88.345627 -15.710788 20.911953 201 198 197
-88.103546 -15.693596 20.863981 136 139 133
-87.845009 -15.753204 20.861504 137 143 129
-87.723274 -15.715549 20.946465 108 113 99
-101.04318 -15.531488 20.859131 123 131 105
-100.89695 -15.530769 20.862698 139 150 127
-100.71287 -15.476079 20.910913 133 141 132
-100.45564 -15.557558 20.959057 115 124 111
-100.30585 -15.584551 20.949392 111 125 108
-100.0351 -15.466463 20.944202 36 71 44
-99.940506 -15.569828 20.870937 23 54 34
-99.692673 -15.481077 20.959425 63 76 59
-99.547783 -15.483304 20.869553 105 108 95
-99.226608 -15.532447 20.893223 49 76 51
-99.108788 -15.46508 20.883986 18 62 18
-96.621986 -15.479051 20.841961 119 129 116
-96.463852 -15.49765 20.85154 141 148 144
-96.342804 -15.517897 20.867586 123 141 119
-96.049698 -15.512039 20.95616 159 151 143
-95.82666 -15.445314 20.902306 120 119 118
-95.7192 -15.552238 20.924446 93 101 88
-95.558197 -15.575304 20.905876 147 146 144
-95.342422 -15.538017 20.942451 84 89 85
-95.126007 -15.441493 20.942024 164 162 169
-94.879784 -15.504961 20.900188 59 66 63
-94.658638 -15.501739 20.890278 81 88 78
-94.552841 -15.554776 20.863293 110 121 110
-94.326454 -15.546951 20.893 109 112 107
-94.18 -15.579612 20.964645 110 90 99
-93.515816 -15.400887 20.827604 80 72 81
-92.221077 -15.411419 20.87483 44 54 55
-92.053246 -15.506592 20.939049 44 62 51
-91.840485 -15.54744 20.934113 48 67 59
-91.693604 -15.49694 20.930599 41 62 61
-91.479134 -15.449812 20.957642 35 56 53
-91.270111 -15.441417 20.942936 30 59 55
-91.040321 -15.454288 20.944557 44 65 62
-90.910072 -15.508736 20.915104 58 76 66
-90.761574 -15.515719 20.843143 77 92 81
-89.607758 -15.41735 20.834816 101 98 105
-88.445381 -15.503304 20.85837 201 193 186
-88.345001 -15.44738 20.863026 186 172 177
-88.128441 -15.432389 20.82439 169 162 162
-87.587975 -15.458656 20.920761 142 132 125
-101.05266 -15.262015 20.997446 187 172 167
-100.70287 -15.372305 20.942032 135 141 127
-100.42754 -15.227999 20.901657 66 82 63
-100.26613 -15.238292 20.920639 64 92 67
-100.09181 -15.370522 20.853477 71 101 80
-99.825256 -15.24455 20.868053 56 82 67
-99.706848 -15.280283 20.899879 64 88 73
-99.509224 -15.250422 20.936918 31 62 29
-99.280937 -15.259111 20.906322 28 63 30
-99.150742 -15.349277 20.873409 72 109 68
-96.619621 -15.322334 20.860418 122 130 122
-96.465012 -15.301401 20.842033 118 135 118
-96.249405 -15.341824 20.869627 156 157 144
-96.082176 -15.251698 20.900717 130 128 117
-95.91758 -15.269026 20.945314 95 101 83
-95.741692 -15.338071 20.959185 113 102 99
-95.551003 -15.290958 20.86174 84 83 78
-95.281219 -15.268028 20.884197 78 83 81
-95.147888 -15.314426 20.897114 148 138 156
-94.88736 -15.290266 20.945663 164 145 157
-94.681458 -15.267468 20.908491 76 86 83
-94.548492 -15.259787 20.870554 147 148 152
-94.352005 -15.308062 20.857105 114 110 120
-92.09967 -15.314394 20.94569 27 54 40
-91.908966 -15.313988 20.858376 24 51 39
-91.645966 -15.339512 20.879026 55 64 64
-91.48156 -15.273061 20.882799 31 54 49
-91.251282 -15.271582 20.948399 48 71 67
-91.06514 -15.276157 20.900991 53 75 73
-90.895332 -15.325843 20.853945 78 88 84
-90.78698 -15.257069 20.892887 165 169 168
-90.575333 -15.238642 20.916821 51 71 55
-88.655807 -15.272646 20.851379 191 181 186
-88.597557 -15.299024 20.982784 207 203 199
-88.324188 -15.337408 20.938519 152 146 143
-87.927803 -15.304517 20.856138 184 176 176
-87.651405 -15.370151 20.881927 148 148 139
-101.09315 -15.116035 20.855949 141 137 134
-100.90277 -15.06373 20.877174 122 134 121
-100.42744 -15.037916 20.908207 79 96 79
-100.26386 -15.125984 20.901567 74 99 76
-100.06071 -15.136795 20.92569 45 73 54
-99.914047 -15.121853 20.946003 45 72 53
-99.665237 -15.052574 20.921495 42 76 46
-99.461716 -15.144535 20.874283 33 71 39
-99.294655 -15.17793 20.850773 56 95 62
-99.18988 -15.187403 20.871994 33 71 27
-96.475677 -15.072882 20.838909 112 126 112
-96.278137 -15.099939 20.845518 109 119 112
-96.130669 -15.129903 20.864706 132 136 126
-95.911148 -15.112409 20.871128 107 117 109
-95.730751 -15.077812 20.927956 78 84 79
-95.484406 -15.106567 20.908651 139 140 139
-95.259064 -15.12416 20.957096 108 101 113
-95.170303 -15.138062 20.890694 109 107 114
-94.908546 -15.146085 20.896143 177 169 178
-94.675331 -15.095916 20.935091 141 137 142
-94.514511 -15.130327 20.844231 128 129 126
-94.208931 -15.099879 20.849525 97 76 95
-93.694519 -15.097651 20.885494 99 103 110
-92.126724 -15.105618 20.916431 43 65 61
-91.893967 -15.081358 20.86483 49 71 65
-91.635345 -15.082581 20.920345 37 57 48
-91.439926 -15.13892 20.871304 41 64 59
-91.308807 -15.125475 20.866512 40 70 65
-91.046913 -15.082783 20.869137 42 66 58
-90.901802 -15.109952 20.881723 43 67 60
-90.730728 -15.116703 20.861681 71 84 79
-90.564133 -15.139934 20.838573 89 106 93
-89.160057 -15.160081 20.811148 89 108 89
-88.315201 -15.025625 20.861641 143 134 133
-88.108498 -15.047854 20.860418 215 204 195
-87.921677 -15.025087 20.807713 190 188 190
-101.22226 -14.897442 20.914536 121 129 99
-101.05733 -14.919559 20.866993 141 142 132
-100.86377 -14.935658 20.9245 144 145 131
-100.72118 -14.895242 20.983047 130 132 118
-100.4907 -14.893059 20.9119 99 116 98
-100.35248 -14.925961 20.887028 88 108 92
-100.01584 -14.863662 20.905893 30 69 47
-99.883018 -14.912686 20.911417 69 99 77
-99.719986 -14.943716 20.830866 58 88 60
-99.549469 -14.989271 20.82922 70 100 69
-96.428757 -14.915327 20.865099 119 117 119
-96.263885 -14.838009 20.911747 116 120 106
-96.10672 -14.919769 20.853985 135 143 149
-95.888123 -14.886528 20.883209 82 91 81
-95.699768 -14.889793 20.925495 162 159 157
-95.547905 -14.901057 20.950451 117 116 116
-95.35997 -14.865909 20.847897 100 103 102
-95.156586 -14.94639 20.955036 89 95 94
-94.95105 -14.891192 20.906101 86 90 95
-94.670425 -14.98032 20.961018 89 99 94
-94.510208 -14.927341 20.89369 135 126 134
-94.142456 -14.894366 20.941479 215 201 215
-93.961678 -14.80406 20.992674 132 133 127
-93.717957 -14.815722 20.828014 90 92 92
-93.521393 -14.859475 20.888092 121 118 123
-93.09259 -14.84946 20.932295 67 70 73
-92.649765 -14.996502 20.844082 59 78 59
-92.536819 -14.821132 20.879074 56 66 60
-92.277168 -14.8549 20.88179 89 100 99
-92.128563 -14.902823 20.875998 74 80 80
-91.861664 -14.888247 20.908421 45 58 59
-91.736992 -14.911964 20.973183 30 50 47
-91.438431 -14.862938 20.909544 43 66 65
-91.278862 -14.865704 20.937408 48 68 63
-91.156982 -14.894467 20.936068 45 71 64
-90.961067 -14.970613 20.921638 54 77 75
-90.72403 -14.872925 20.859743 51 75 73
-90.549026 -14.951254 20.81612 65 89 75
-88.432739 -14.910685 20.830532 191 183 178
-88.297798 -14.9322 20.830572 213 196 191
-88.128891 -14.913044 20.947258 189 185 176
-87.928024 -14.875863 20.881021 155 150 150
-87.776222 -14.831162 20.973085 107 106 114
-87.044861 -14.922623 20.932425 138 139 127
-86.995018 -14.850411 20.960157 153 149 141
-101.09083 -14.703864 20.898222 173 167 150
-100.86491 -14.715746 20.921459 157 152 128
-100.65346 -14.639685 20.830645 120 126 111
-100.51825 -14.70587 20.944649 134 147 118
-100.31794 -14.630651 20.891041 199 191 182
-100.06938 -14.750287 20.859388 69 93 79
-96.457733 -14.750893 20.813416 53 63 52
-96.323097 -14.650331 20.864651 195 202 197
-96.060715 -14.675089 20.967094 114 119 113
-95.900314 -14.663951 20.953844 144 145 143
-95.689812 -14.697488 20.86454 115 109 109
-95.494476 -14.696498 20.921692 116 112 116
-95.299515 -14.739162 20.867519 177 177 179
-95.11937 -14.74175 20.945026 143 138 150
-94.878372 -14.714573 20.968834 44 58 33
-94.743103 -14.617337 20.80459 49 55 48
-94.504356 -14.673319 20.869696 145 137 146
-94.301796 -14.748283 20.858955 99 106 98
-94.156219 -14.7945 20.949989 193 198 194
-93.892075 -14.735368 20.914412 108 109 109
-93.673737 -14.738737 20.902363 126 131 132
-93.504173 -14.672894 20.852953 78 87 88
-93.206993 -14.779037 20.88056 66 68 65
-93.044678 -14.697746 20.854069 64 64 66
-92.489082 -14.675843 20.901617 36 54 47
-92.335754 -14.769535 20.879539 65 72 65
-92.083084 -14.763924 20.898661 81 95 89
-91.83625 -14.688857 20.890482 59 75 71
-91.718445 -14.651818 20.921783 60 74 73
-91.494064 -14.728866 20.932079 36 61 58
-91.330368 -14.71195 20.889471 35 63 56
-91.16729 -14.716158 20.93034 36 63 55
-90.895836 -14.657019 20.871078 148 151 156
-90.735092 -14.72823 20.899136 59 68 62
-88.673248 -14.752443 20.852406 119 99 110
-88.485367 -14.647657 20.90836 210 201 207
-88.237747 -14.754284 20.928183 201 192 192
-88.052788 -14.680252 20.844803 229 221 229
-87.904701 -14.722951 20.917671 205 193 202
-87.674126 -14.695345 20.840122 213 207 212
-87.592667 -14.732697 20.963467 132 124 135
-100.67854 -14.584319 20.957615 153 149 138
-100.49123 -14.567834 20.865015 191 186 154
-100.3487 -14.594781 20.942005 137 139 110
-96.473755 -14.502073 20.816792 124 132 111
-96.244362 -14.52773 20.933195 138 145 137
-96.0242 -14.438027 20.872425 139 136 127
-95.899002 -14.558407 20.925411 135 145 130
-95.694717 -14.485703 20.856543 98 92 95
-95.519287 -14.523624 20.94006 84 83 87
-95.282639 -14.51502 20.950138 69 69 67
-95.120712 -14.533998 20.962938 184 167 184
-94.830971 -14.508347 20.915249 86 82 92
-94.733665 -14.431849 20.94668 136 136 143
-94.535767 -14.528297 20.902054 154 149 157
-94.369774 -14.516971 20.915997 108 105 116
-94.096344 -14.529903 20.879162 141 130 135
-93.810112 -14.509555 20.826004 86 84 86
-93.481987 -14.512179 20.892244 122 114 120
-93.314545 -14.529887 20.920774 112 113 118
-92.537262 -14.550929 20.904675 61 82 76
-92.314621 -14.548835 20.904785 70 81 78
-92.111534 -14.426618 20.824471 25 57 42
-91.837692 -14.525078 20.878716 73 83 82
-91.649033 -14.528885 20.859488 50 66 63
-91.48185 -14.526883 20.895647 39 65 60
-91.291847 -14.472466 20.872284 41 68 65
-91.161453 -14.550785 20.869843 51 77 75
-90.897736 -14.533147 20.937143 113 119 125
-90.753777 -14.498181 20.888807 72 80 85
-89.481979 -14.404167 20.915155 215 195 212
-89.358208 -14.454 20.90103 185 169 175
-89.136925 -14.413873 20.838921 231 220 226
-88.363403 -14.494948 20.828472 218 204 213
-87.870583 -14.576154 20.885042 177 161 174
-87.280304 -14.409299 20.948896 177 183 187
-96.570633 -14.305157 20.86301 30 60 31
-96.241882 -14.330402 20.890648 128 132 112
-96.044052 -14.283248 20.880028 132 132 119
-95.922241 -14.299653 20.908308 137 133 123
-95.662498 -14.247742 20.931786 108 114 114
-95.535522 -14.258528 20.903614 64 82 74
-95.354057 -14.268459 20.900536 125 117 130
-95.082138 -14.312042 20.936764 74 77 87
-94.914658 -14.329835 20.953562 176 171 183
-94.7425 -14.34271 20.869022 179 176 182
-94.580589 -14.30595 20.917757 107 99 102
-94.380836 -14.240208 20.928484 57 60 53
-93.904388 -14.268561 20.92033 91 95 103
-93.71888 -14.276605 20.871151 80 87 86
-93.437622 -14.230284 20.93998 88 83 87
-93.336761 -14.268748 20.884989 115 108 118
-92.902885 -14.311165 20.92753 103 107 110
-92.506142 -14.24381 20.867605 30 58 45
-92.289719 -14.312346 20.896521 43 75 65
-92.137558 -14.201823 20.922457 88 99 91
-91.899933 -14.250427 20.904825 53 76 63
-91.664482 -14.303936 20.85091 43 64 61
-91.481644 -14.335842 20.894499 47 70 65
-91.301697 -14.301678 20.878033 46 70 67
-91.120789 -14.351101 20.893774 54 77 78
-90.814507 -14.331132 20.884708 19 58 34
-90.780464 -14.372398 20.911537 228 231 238
-89.520409 -14.322188 20.887299 201 180 182
-89.337509 -14.360935 20.872494 166 158 156
-89.038223 -14.318231 20.854523 162 153 161
-88.85199 -14.272928 20.901371 192 177 180
-88.735977 -14.2672 20.93465 110 103 108
-88.518524 -14.236951 20.909313 189 173 183
-87.100433 -14.333891 20.804777 171 164 176
-98.049164 -14.128948 20.803108 152 148 145
-97.659241 -14.034726 20.833576 98 113 106
-96.267654 -14.141806 20.85644 90 97 91
-96.147614 -14.088437 20.85132 167 170 169
-95.942467 -14.153032 20.912449 141 149 133
-95.702141 -14.09992 20.864571 123 117 117
-95.555542 -14.0832 20.922724 135 124 123
-95.267471 -14.139623 20.87973 95 97 91
-95.102737 -14.068573 20.876759 102 101 110
-94.929214 -14.082701 20.895626 108 104 117
-94.744881 -14.184475 20.993172 70 77 83
-94.369965 -14.181338 20.982201 121 115 119
-94.124908 -14.100779 20.813255 80 71 88
-93.817245 -14.102732 20.812471 67 69 79
-93.433891 -14.170926 20.816725 109 94 106
-93.151962 -14.104183 20.849859 124 107 125
-92.650093 -14.089785 20.922369 53 65 63
-92.492783 -14.11949 20.943256 70 87 82
-92.302917 -14.119345 20.876316 71 87 80
-92.102669 -14.148883 20.880577 64 64 66
-91.870575 -14.118342 20.93461 47 75 57
-91.672577 -14.118469 20.951601 39 62 60
-91.509972 -14.145393 20.89097 35 59 55
-91.335327 -14.099185 20.915674 45 69 66
-91.190796 -14.178738 20.850946 10 63 35
-89.05291 -14.007898 20.837166 217 200 216
-88.809784 -14.142065 20.935585 181 174 180
-88.719833 -14.046879 20.872118 230 219 218
-88.534378 -14.086192 20.866241 183 176 180
-88.303558 -14.12213 20.94529 159 150 158
-88.17556 -14.021688 20.849087 216 203 221
-98.245712 -13.902843 20.821373 161 166 159
-98.167877 -13.830811 20.919189 122 127 113
-97.998642 -13.839915 20.812922 163 172 148
-97.661217 -13.938306 20.876896 138 142 136
-97.598602 -13.970783 20.861042 117 137 128
-96.446777 -13.924083 20.891769 112 118 111
-96.245117 -13.91227 20.924545 158 155 144
-96.052704 -13.889073 20.850889 137 142 129
-95.862961 -13.895226 20.859789 184 176 173
-95.731361 -13.93454 20.896898 142 138 142
-95.546524 -13.959887 20.917484 104 108 111
-95.35434 -13.855221 20.91518 160 156 166
-95.067337 -13.891876 20.852175 81 72 81
-94.960114 -13.948514 20.953495 114 100 119
-94.737091 -13.848093 20.997572 46 65 54
-94.552902 -13.88312 20.910715 140 142 145
-92.675079 -13.909592 20.846897 50 67 56
-92.538147 -13.873419 20.906773 80 85 79
-92.241173 -13.855333 20.925159 58 72 70
-92.070213 -13.847975 20.913952 33 57 46
-91.916824 -13.898115 20.834198 54 74 66
-91.732193 -13.881063 20.882221 29 57 41
-91.491348 -13.938531 20.921341 36 66 63
-91.335022 -13.963533 20.959793 40 73 66
-89.041161 -13.835445 20.953112 193 189 186
-88.822083 -13.939472 20.937069 222 212 218
-88.721481 -13.898346 20.934954 208 202 208
-88.113327 -13.920188 20.820499 144 142 143
-87.949013 -13.892018 20.848963 135 146 140
-98.256004 -13.680713 20.843254 135 141 132
-98.066681 -13.710606 20.86161 122 128 119
-97.837425 -13.767524 20.935209 229 240 224
-97.654709 -13.792741 20.912197 100 110 109
-96.609795 -13.631333 20.893747 157 158 151
-96.434265 -13.687221 20.84383 96 111 97
-96.291138 -13.638088 20.858498 105 104 95
-96.035194 -13.686044 20.941101 118 119 119
-95.894691 -13.706841 20.872023 172 168 166
-95.717003 -13.69518 20.905333 126 127 131
-95.500481 -13.670231 20.908356 126 126 130
-95.381439 -13.717767 20.895187 122 118 130
-95.172401 -13.652562 20.85605 105 107 111
-94.949493 -13.728177 20.896666 100 110 99
-94.642212 -13.71193 20.916588 95 108 104
-94.570137 -13.629438 20.894556 110 100 111
-94.291992 -13.681216 20.855484 186 190 197
-93.486465 -13.628223 20.906868 119 125 123
-92.842392 -13.668747 20.899746 89 99 97
-92.725037 -13.683222 20.911701 36 57 53
-92.449989 -13.680107 20.89595 67 78 77
-92.242416 -13.640057 20.885416 43 55 53
-92.106415 -13.690313 20.902357 59 71 73
-91.930458 -13.687679 20.888775 88 105 107
-91.698387 -13.690495 20.909729 33 60 52
-91.516388 -13.690017 20.917824 76 89 88
-91.3423 -13.724662 20.864346 68 83 87
-88.837105 -13.600007 20.999252 98 87 91
-98.320221 -13.504408 20.81826 144 140 142
-98.087959 -13.547572 20.870445 149 154 137
-96.829506 -13.487547 20.912804 100 109 106
-96.64505 -13.465281 20.878677 137 144 133
-96.445663 -13.46856 20.889393 136 148 143
-96.261848 -13.459846 20.883179 113 117 97
-96.081741 -13.478278 20.882631 165 164 161
-95.96994 -13.529131 20.957335 136 128 128
-95.646729 -13.472511 20.960884 128 128 133
-95.517258 -13.488642 20.862879 127 125 135
-95.266045 -13.499319 20.948406 76 79 79
-95.153183 -13.543299 20.923183 115 117 122
-94.914124 -13.486545 20.937452 131 133 137
-94.744339 -13.450847 20.955114 106 110 111
-94.516479 -13.460745 20.938984 178 169 182
-94.338837 -13.496277 20.846107 175 166 175
-94.196899 -13.544196 20.845612 65 82 74
-93.849342 -13.496075 20.859419 67 82 79
-93.515152 -13.462704 20.959221 111 125 124
-93.280655 -13.488247 20.882601 58 79 67
-93.165009 -13.431732 20.879728 57 73 68
-92.879639 -13.536445 20.882332 32 56 44
-92.73584 -13.465868 20.972721 46 62 57
-92.546661 -13.524389 20.942945 41 57 49
-92.286415 -13.51728 20.908922 46 61 58
-92.152206 -13.556538 20.929688 48 65 63
-91.928329 -13.48407 20.868622 41 63 59
-91.71196 -13.500545 20.925819 48 70 68
-91.543427 -13.557571 20.842201 65 78 70
-89.257797 -13.575128 20.822018 149 152 151
-88.959991 -13.578626 20.932087 150 137 144
-88.633865 -13.548265 20.804089 193 185 199
-98.67791 -13.283748 20.905107 50 71 38
-98.435463 -13.284236 20.86372 154 153 145
-98.250519 -13.290913 20.86232 99 112 90
-98.182434 -13.31996 20.891762 80 94 73
-96.812599 -13.302495 20.836636 123 128 125
-96.714699 -13.299011 20.817812 121 128 111
-96.465012 -13.3511 20.844696 146 152 146
-96.309578 -13.301035 20.8783 125 124 121
-96.093903 -13.266696 20.867153 113 129 113
-95.95208 -13.313015 20.923874 146 141 135
-95.630096 -13.268951 20.905334 79 87 89
-95.523048 -13.254516 20.894331 118 113 114
-95.340141 -13.309549 20.927134 109 109 118
-95.169449 -13.261637 20.945494 121 124 125
-94.938141 -13.312746 20.945309 197 185 194
-94.637329 -13.317791 20.947647 102 107 107
-93.608696 -13.258617 20.927376 111 127 116
-93.427986 -13.289045 20.919762 67 79 72
-93.309555 -13.314264 20.891872 118 132 128
-93.061035 -13.276957 20.906954 41 57 52
-92.841972 -13.358795 20.874916 45 69 56
-92.697769 -13.320904 20.916763 57 70 66
-92.480576 -13.374138 20.828476 53 74 63
-92.267792 -13.276853 20.920847 44 63 56
-92.029526 -13.244545 20.959503 54 67 71
-91.894081 -13.270397 20.970808 50 73 76
-91.698387 -13.298985 20.912226 57 70 71
-98.458969 -13.132435 20.902916 50 60 25
-98.210899 -13.138358 20.953236 163 170 158
-97.050064 -13.041079 20.847242 137 144 134
-96.884827 -13.016377 20.889391 173 176 169
-96.718872 -13.090694 20.81881 135 134 119
-96.487152 -13.096725 20.870979 130 142 133
-96.314087 -13.13469 20.867455 160 162 158
-96.141609 -13.096705 20.84778 59 79 57
-95.886337 -13.111187 20.919811 146 148 143
-95.699921 -13.097662 20.926582 110 108 109
-95.46003 -13.118048 20.906637 112 115 118
-95.315529 -13.113434 20.921919 87 89 83
-95.147888 -13.104074 20.880329 122 123 120
-94.994736 -13.177953 20.929287 151 129 118
-94.517639 -13.091961 20.976091 119 112 120
-93.654846 -13.105 20.900043 69 74 74
-93.459167 -13.124022 20.914799 81 94 86
-93.307709 -13.100883 20.934963 88 97 91
-93.101318 -13.075338 20.985474 75 89 82
-92.957489 -13.118702 20.930525 64 77 76
-92.668488 -13.175531 20.928471 73 71 74
-92.516899 -13.168548 20.94932 73 91 90
-92.292847 -13.118822 20.917202 55 71 68
-92.048431 -13.165467 20.963213 48 70 66
-91.896408 -13.039549 20.917002 49 69 66
-91.756752 -13.09856 20.829674 45 66 65
-97.034546 -12.904776 20.825401 182 176 170
-96.861618 -12.870501 20.859249 130 146 132
-96.667015 -12.889802 20.878977 146 145 137
-96.553825 -12.934319 20.919703 128 139 120
-96.307533 -12.921883 20.856956 74 101 89
-96.104126 -12.856692 20.835079 80 90 78
-95.931503 -12.931086 20.878496 145 144 139
-95.729034 -12.861455 20.912313 142 140 131
-95.456276 -12.86286 20.94014 135 144 146
-95.297577 -12.871087 20.887871 84 91 89
-95.142334 -12.870262 20.872932 101 96 101
-94.965744 -12.840495 20.921276 161 164 168
-94.755127 -12.807082 20.937761 206 201 208
-93.667816 -12.97802 20.910431 43 64 47
-93.487083 -12.970768 20.880539 66 72 67
-93.287354 -12.897285 20.91308 46 65 50
-93.057297 -12.923922 20.94548 100 114 110
-92.928741 -12.834172 20.924931 98 102 104
-92.435272 -12.91699 20.932838 51 66 61
-92.246735 -12.854437 20.96011 42 67 62
-92.086349 -12.863777 20.894897 59 76 74
-91.871498 -12.930395 20.931278 53 72 68
-91.756302 -12.933519 20.861692 55 71 67
-97.034882 -12.668673 20.845196 165 159 163
-96.861794 -12.662908 20.853586 184 184 162
-96.683998 -12.687374 20.911022 132 139 122
-96.56572 -12.727779 20.910866 127 137 111
-96.249084 -12.718297 20.877075 109 127 116
-96.039444 -12.709282 20.889008 113 115 110
-95.937729 -12.642021 20.867458 124 129 128
-95.7145 -12.747613 20.920977 108 120 109
-95.515686 -12.693336 20.902037 106 116 108
-95.327354 -12.664754 20.927124 121 114 117
-95.121544 -12.761416 20.969896 128 120 128
-94.941475 -12.702869 20.872425 129 130 131
-94.127098 -12.653058 20.963806 90 104 99
-93.88295 -12.640797 20.917316 74 89 72
-93.71344 -12.673171 20.94562 48 73 55
-93.500893 -12.653651 20.948149 56 77 66
-93.329819 -12.682753 20.896132 38 66 47
-93.040207 -12.713541 20.916479 35 52 48
-92.901573 -12.693427 20.869888 61 76 75
-92.718948 -12.637049 20.957445 81 91 94
-92.466324 -12.72694 20.964558 72 81 83
-92.221802 -12.681227 20.909515 68 83 80
-92.084862 -12.644286 20.924028 59 73 74
-91.940689 -12.68604 20.896011 63 73 75
-91.739746 -12.738707 20.900291 66 80 79
-91.527306 -12.700779 20.843895 82 95 94
-97.041359 -12.48501 20.868938 162 158 168
-96.899445 -12.496712 20.853878 124 128 105
-96.729736 -12.525307 20.855913 121 131 116
-96.499786 -12.459994 20.850313 141 138 134
-96.323753 -12.466547 20.866802 124 132 126
-96.119537 -12.548147 20.870239 109 114 113
-95.946236 -12.52268 20.918642 151 142 144
-95.652924 -12.574527 20.876331 97 102 96
-95.491768 -12.515502 20.91748 142 137 138
-95.315155 -12.481638 20.89011 114 107 117
-95.094727 -12.546865 20.867334 126 129 131
-94.900162 -12.475682 20.923737 148 140 151
-94.749763 -12.498289 20.851143 183 181 186
-94.542618 -12.516024 20.999321 85 90 96
-94.128769 -12.518395 20.966326 71 72 69
-93.904655 -12.491148 20.913023 65 70 71
-93.653915 -12.541496 20.897518 88 105 90
-93.541199 -12.532069 20.906023 50 77 65
-93.287743 -12.488851 20.858503 43 73 66
-93.068039 -12.505839 20.871109 48 63 58
-92.918343 -12.496727 20.857416 76 87 90
-92.733932 -12.48983 20.900721 167 162 175
-92.447021 -12.444351 20.918644 124 123 131
-92.289444 -12.443027 20.954689 73 80 81
-92.108902 -12.515976 20.955154 111 115 123
-91.881546 -12.558582 20.867878 73 83 84
-91.716263 -12.4745 20.968613 151 147 152
-91.475922 -12.526119 20.943203 48 68 68
-91.364624 -12.480506 20.878883 66 89 88
-97.234108 -12.364877 20.803905 133 135 111
-97.041077 -12.314352 20.835958 156 165 148
-96.853706 -12.315557 20.864134 132 131 115
-96.669678 -12.3465 20.880753 133 137 131
-96.50798 -12.313385 20.842384 118 119 110
-96.249779 -12.34528 20.858595 112 123 116
-96.083 -12.3428 20.833542 130 139 133
-95.891632 -12.307966 20.858744 115 135 124
-95.676514 -12.331326 20.89282 109 120 116
-95.479698 -12.304504 20.851484 117 115 113
-95.286903 -12.350865 20.94693 128 129 127
-95.082336 -12.277515 20.878792 124 126 123
-94.895866 -12.29105 20.930246 117 117 122
-94.760925 -12.312475 20.937866 162 154 163
-94.552917 -12.240856 20.872128 105 100 107
-94.244011 -12.38387 20.935303 71 82 74
-94.060791 -12.300308 20.983673 66 80 78
-93.843582 -12.248912 20.921188 69 80 81
-93.522118 -12.311145 20.893019 55 72 64
-93.290146 -12.310303 20.876883 151 158 161
-93.119385 -12.287875 20.836609 79 94 88
-92.967224 -12.241407 20.906425 88 93 99
-92.663834 -12.32057 20.872494 116 115 120
-92.464455 -12.312604 20.888889 146 138 149
-92.286751 -12.237591 20.909304 119 117 124
-92.113953 -12.338251 20.874794 111 112 119
-91.956741 -12.338499 20.862753 164 161 171
-91.748703 -12.311335 20.949139 120 117 130
-91.53627 -12.21751 20.884613 181 171 187
-91.311989 -12.332127 20.900465 49 68 65
-97.081329 -12.164187 20.859699 181 178 170
-96.91906 -12.108462 20.890789 136 140 125
-96.656937 -12.107389 20.831388 216 207 179
-96.546913 -12.153186 20.845371 155 159 138
-96.281738 -12.1516 20.823818 158 171 159
-96.154594 -12.153625 20.838474 121 126 117
-95.92659 -12.139942 20.840584 96 109 105
-95.640404 -12.10104 20.842459 139 146 145
-95.496254 -12.081457 20.89637 133 139 135
-95.280136 -12.149492 20.919842 81 98 84
-95.113602 -12.149515 20.849476 153 146 149
-94.892563 -12.121273 20.900139 148 148 153
-94.752457 -12.044872 20.886429 163 165 173
-94.537689 -12.116214 20.854452 172 165 174
-94.262421 -12.04224 20.930635 104 119 108
-94.073318 -12.075705 20.940155 73 83 84
-93.890366 -12.076093 20.936966 62 77 77
-93.693939 -12.084793 20.960512 117 124 131
-93.45533 -12.167782 20.856632 83 99 97
-93.333366 -12.078559 20.879211 105 120 124
-93.06881 -12.048678 20.820129 116 120 124
-92.928459 -12.188839 20.843269 84 79 79
-92.64241 -12.115536 20.860516 209 203 207
-92.44873 -12.152226 20.902773 114 114 117
-92.30368 -12.103303 20.889982 167 156 170
-92.152367 -12.129725 20.898188 91 93 103
-91.859444 -12.138214 20.874226 230 217 232
-91.679855 -12.182978 20.914719 175 170 178
-91.507133 -12.149002 20.834944 152 144 162
-91.350433 -12.149361 20.858906 89 95 97
-96.663345 -11.916691 20.86095 120 130 115
-96.475952 -11.945724 20.874012 147 148 127
-96.279366 -11.947999 20.866812 133 133 122
-96.178452 -11.922389 20.905872 166 164 149
-95.817825 -11.970776 20.829288 143 140 136
-95.674629 -11.983788 20.829868 174 174 178
-95.50251 -11.874199 20.858707 135 132 130
-95.349503 -11.900549 20.909456 137 152 147
-95.070206 -11.877627 20.864479 169 176 181
-94.838142 -11.815207 20.953934 182 181 187
-94.762276 -11.864937 20.840004 129 132 140
-94.52047 -11.848516 20.918188 187 168 183
-94.293854 -11.839308 20.896946 69 86 76
-94.141724 -11.968429 20.893408 59 80 74
-93.905197 -11.874554 20.870743 81 92 84
-93.668945 -11.974461 20.925072 118 116 123
-93.484306 -11.942637 20.929874 130 128 138
-93.34343 -11.889671 20.896484 192 179 193
-93.04512 -11.918172 20.832493 207 185 204
-92.958344 -11.893695 20.842766 69 73 79
-92.411606 -11.918637 20.885996 195 204 202
-92.310074 -11.942295 20.840065 150 133 149
-92.156754 -11.962928 20.881388 128 119 129
-91.83017 -11.954713 20.840391 154 142 146
-91.797783 -11.990657 20.853554 167 151 154
-95.833832 -11.773373 20.841314 152 150 138
-95.637917 -11.742717 20.879614 190 185 188
-95.548302 -11.746128 20.843014 180 172 177
-95.357544 -11.741685 20.927794 105 114 115
-95.083359 -11.751144 20.847034 113 125 115
-94.838074 -11.77876 20.871458 160 160 160
-94.680809 -11.727638 20.852444 84 89 91
-94.472336 -11.699252 20.885216 146 144 140
