ply
format ascii 1.0
comment PCL generated
element vertex 1148
property float x
property float y
property float z
property uchar red
property uchar green
property uchar blue
element face 0
element camera 0
property float view_px
property float view_py
property float view_pz
property float x_axisx
property float x_axisy
property float x_axisz
property float y_axisx
property float y_axisy
property float y_axisz
property float z_axisx
property float z_axisy
property float z_axisz
property float focal
property float scalex
property float scaley
property float centerx
property float centery
property int viewportx
property int viewporty
property float k1
property float k2
end_header
-64.519531 28.746485 -5.6685295 57 80 36
-64.316093 28.714642 -5.6666923 47 68 23
-64.104561 28.722488 -5.6975088 42 64 18
-63.929352 28.721487 -5.66116 39 66 21
-63.715942 28.694778 -5.6608715 17 48 4
-63.332325 28.671278 -5.6496916 43 60 31
-61.449245 28.758049 -5.6612725 108 125 82
-61.319374 28.676195 -5.662982 74 91 34
-61.198906 28.726326 -5.670619 81 94 41
-65.804245 28.906986 -5.6707997 148 147 143
-65.74762 28.915615 -5.6374674 81 79 73
-64.855591 28.851021 -5.6134834 132 135 127
-64.72007 28.873156 -5.6454916 99 111 94
-64.503914 28.920498 -5.6396112 56 71 37
-64.30442 28.920698 -5.6567335 49 69 30
-64.09597 28.911594 -5.675508 37 58 19
-63.929264 28.919083 -5.6836848 17 46 6
-63.72728 28.847355 -5.6625414 23 50 6
-63.368294 28.820198 -5.6044693 25 49 14
-60.75264 28.847343 -5.6726136 22 63 0
-60.504333 28.934135 -5.6796045 77 93 36
-65.78112 29.012802 -5.6175532 93 89 77
-64.655922 29.07609 -5.6423955 102 117 109
-64.480354 29.063934 -5.6217198 78 89 67
-64.299843 29.090912 -5.6426501 60 76 45
-64.088829 29.093693 -5.6570272 32 56 17
-63.903793 29.108799 -5.6726704 16 43 7
-63.745071 29.138275 -5.6538568 11 38 5
-63.435814 29.123203 -5.6147518 41 55 21
-61.289783 29.110764 -5.656363 52 67 18
-61.174519 29.096024 -5.6833267 36 57 14
-60.917233 29.091955 -5.6238284 62 88 32
-60.737293 29.163639 -5.7137089 38 62 6
-65.058922 29.268007 -5.6668077 90 121 139
-64.275749 29.257481 -5.6466994 68 82 57
-64.084251 29.276749 -5.6487861 44 63 33
-63.90625 29.30191 -5.6685467 24 50 17
-63.697445 29.304108 -5.6778889 10 36 6
-63.574619 29.291174 -5.6610565 12 37 5
-63.343445 29.217312 -5.6069574 18 37 7
-61.497719 29.369032 -5.72855 35 56 7
-61.325325 29.3417 -5.6353788 59 74 27
-61.07077 29.309605 -5.7151222 36 59 7
-60.847027 29.330658 -5.7033052 21 48 4
-60.655228 29.346521 -5.6512771 159 151 115
-60.581898 29.25779 -5.6574411 62 81 23
-60.387203 29.206219 -5.6056538 54 79 13
-64.859154 29.410347 -5.6153765 105 138 155
-64.699265 29.435514 -5.6429458 101 133 154
-64.482834 29.469124 -5.7093077 102 133 153
-64.077576 29.457085 -5.6193171 72 81 68
-63.890945 29.471315 -5.6525602 39 58 33
-63.700665 29.48308 -5.665904 20 41 18
-63.543083 29.523102 -5.6362524 23 41 14
-61.465118 29.505041 -5.6346517 45 68 17
-61.335781 29.570078 -5.6394725 53 70 19
-61.101887 29.506861 -5.6558676 39 65 18
-60.932941 29.491335 -5.6215758 30 56 5
-60.704155 29.494066 -5.6083007 49 65 20
-64.43528 29.720772 -5.6191549 137 167 186
-63.848068 29.658623 -5.6296644 46 56 44
-63.708519 29.70771 -5.6542478 48 59 47
-63.51226 29.706289 -5.6655097 52 63 44
-63.349789 29.768974 -5.6407065 72 92 65
-61.642166 29.699333 -5.6220388 34 52 12
-61.499126 29.716967 -5.6324892 65 84 34
-61.317394 29.675213 -5.6519113 46 66 17
-61.120052 29.709465 -5.6162839 36 53 8
-60.907009 29.712408 -5.6557603 41 57 16
-60.787464 29.7439 -5.6064138 39 65 15
-59.441151 29.791168 -5.613163 55 71 24
-59.345348 29.725111 -5.6354465 37 54 8
-63.842068 29.857786 -5.6125374 67 73 63
-63.746494 29.808098 -5.6207318 74 78 68
-63.477898 29.897657 -5.6513948 52 68 47
-63.33902 29.94767 -5.6389847 30 49 23
-61.419491 29.859867 -5.636723 49 64 19
-61.293564 29.886486 -5.6525202 29 48 7
-61.070164 29.933533 -5.6074162 32 56 10
-60.996391 29.931486 -5.682107 47 77 27
-60.69194 29.90991 -5.7106156 47 75 26
-60.499626 29.996201 -5.6629906 52 68 19
-59.290421 29.82299 -5.6421671 12 37 0
-63.462902 30.066355 -5.6440873 70 76 63
-63.303474 30.098675 -5.6403813 55 61 46
-63.193851 30.139521 -5.6118522 44 50 31
-62.538643 30.15028 -5.6121483 40 48 7
-62.145428 30.158119 -5.6725297 71 84 38
-61.798241 30.18807 -5.602664 82 82 36
-61.497364 30.099985 -5.6684747 49 58 18
-61.337589 30.023977 -5.6326022 23 44 4
-60.88261 30.129595 -5.6306357 43 61 16
-60.744015 30.128511 -5.6712461 41 58 19
-60.505543 30.07193 -5.6121016 73 86 40
-59.433647 30.088602 -5.6032238 68 80 40
-59.368259 30.145819 -5.630517 85 96 60
-58.989868 30.113237 -5.6251292 49 65 20
-63.299133 30.238514 -5.6307664 116 106 98
-61.49456 30.205339 -5.6819854 64 80 35
-61.080654 30.221384 -5.6331301 68 75 38
-60.883083 30.270597 -5.6275458 32 47 9
-60.712692 30.309723 -5.6620278 48 61 21
-60.523342 30.350351 -5.6724124 76 83 44
-59.519993 30.3235 -5.6109076 80 83 54
-59.317535 30.2101 -5.6120915 79 90 53
-63.441628 30.533623 -5.6360717 88 105 97
-63.235405 30.576056 -5.6069098 102 112 85
-63.175949 30.579025 -5.6793427 34 56 20
-62.934765 30.577036 -5.6340399 62 71 28
-62.170589 30.568447 -5.6705899 41 61 12
-61.92028 30.547516 -5.6411138 67 87 34
-61.322956 30.522867 -5.6861343 74 82 59
-61.14983 30.55806 -5.6215892 90 96 60
-60.84272 30.500381 -5.634109 67 70 38
-60.724392 30.545811 -5.6508336 61 66 28
-60.51231 30.48143 -5.6355152 59 69 22
-59.311005 30.494431 -5.6241674 96 102 70
-64.119118 30.715622 -5.6742091 80 115 135
-63.491306 30.738335 -5.6578479 78 92 82
-63.287262 30.681906 -5.6620498 28 51 15
-63.096237 30.673864 -5.6133051 39 60 21
-62.953644 30.778065 -5.7803283 13 40 5
-62.559334 30.689369 -5.7104406 26 46 0
-62.248516 30.653585 -5.6102614 52 71 26
-62.14447 30.694996 -5.7151065 45 65 12
-61.867863 30.711281 -5.6986609 48 69 12
-61.421906 30.724594 -5.6363397 57 60 34
-61.278755 30.724325 -5.652483 69 73 43
-61.121307 30.725128 -5.666944 80 79 47
-60.89761 30.686829 -5.6342883 83 85 52
-60.744106 30.606398 -5.6296902 71 73 40
-60.456024 30.662991 -5.6346378 63 70 25
-59.533138 30.729103 -5.6410556 113 120 86
-59.285236 30.681765 -5.6296854 106 111 84
-63.460472 30.883795 -5.6478896 80 84 69
-63.33313 30.889055 -5.648541 57 70 50
-63.084396 30.932985 -5.6703911 32 47 26
-62.887108 30.905523 -5.6779346 30 48 12
-62.685684 30.935238 -5.6880865 22 46 9
-62.474739 30.836287 -5.6707497 56 72 20
-62.3009 30.87763 -5.6825752 78 88 43
-62.134777 30.868868 -5.6752052 62 76 31
-61.467007 30.902893 -5.6179295 57 63 34
-61.269852 30.878746 -5.6674428 68 68 36
-61.163521 30.858755 -5.6768751 74 70 42
-59.298008 30.922302 -5.6035409 106 108 81
-63.699814 31.11454 -5.6287346 84 98 85
-63.507385 31.078535 -5.6240563 92 99 78
-63.266674 31.082037 -5.6238437 82 83 73
-63.096771 31.107571 -5.6678424 67 70 62
-62.937565 31.141212 -5.6708679 67 70 57
-62.715569 31.14468 -5.6494989 55 60 32
-62.481045 31.061577 -5.632205 85 96 55
-62.262215 31.102119 -5.6577592 87 97 50
-62.115807 31.114868 -5.6339731 67 78 35
-61.40704 31.03027 -5.618434 70 76 39
-61.277077 31.062695 -5.6339626 76 80 46
-61.131191 31.065115 -5.6386304 88 86 61
-60.13625 31.134512 -5.6367588 80 85 46
-59.843151 31.034639 -5.6494884 117 114 81
-59.165867 31.0453 -5.6189346 78 83 49
-58.770844 31.103165 -5.616169 75 79 45
-58.572086 31.10465 -5.617043 88 90 61
-64.253159 31.240963 -5.6225624 50 75 80
-64.104057 31.203497 -5.6078367 86 117 138
-63.684101 31.308941 -5.6400328 125 123 116
-63.530552 31.270184 -5.6549911 111 108 101
-63.282787 31.278517 -5.625237 90 93 94
-63.098679 31.300316 -5.6752658 95 97 102
-62.903919 31.293575 -5.6555047 103 99 95
-62.73093 31.294495 -5.6528831 91 90 78
-62.470703 31.327532 -5.656343 83 88 53
-62.289989 31.319252 -5.6444035 84 93 51
-62.126858 31.323702 -5.6519876 63 72 32
-61.664711 31.366289 -5.6074924 89 94 54
-60.447918 31.204962 -5.6442962 89 91 51
-60.306122 31.268234 -5.6527839 69 72 36
-60.152527 31.279057 -5.6412554 99 99 55
-59.189529 31.375372 -5.605535 97 103 72
-58.878647 31.230804 -5.6386271 71 73 39
-63.643162 31.460863 -5.6240621 122 114 113
-63.482616 31.519415 -5.6403766 91 87 86
-63.311958 31.436218 -5.6267371 83 82 85
-63.100708 31.477955 -5.6575265 115 112 120
-62.916599 31.49478 -5.6320357 126 122 132
-62.685776 31.488882 -5.6404991 122 117 114
-62.482983 31.503675 -5.672081 122 118 97
-62.325321 31.487881 -5.6561184 113 111 76
-62.129669 31.475023 -5.6309991 77 79 47
-61.203579 31.496738 -5.6179547 99 112 78
-60.506382 31.472887 -5.6329427 87 87 53
-60.339264 31.424858 -5.6487613 95 87 61
-60.106316 31.462816 -5.6424017 74 78 39
-59.873138 31.550573 -5.6449242 109 113 76
-59.691502 31.501898 -5.6605291 85 87 54
-59.067989 31.44986 -5.6656523 71 74 37
-58.956608 31.528322 -5.631012 69 73 38
-58.796551 31.574736 -5.6160865 87 90 60
-63.553028 31.618488 -5.6095843 129 122 122
-63.243946 31.719618 -5.62322 117 122 140
-63.101551 31.645256 -5.6319289 94 93 100
-62.83992 31.622742 -5.6345673 58 71 79
-62.686443 31.706629 -5.6325321 144 147 159
-62.498459 31.709045 -5.6621199 121 116 113
-62.307674 31.71036 -5.6534357 130 126 118
-62.137886 31.711971 -5.6572561 97 94 72
-60.02726 31.64031 -5.6461234 83 87 49
-59.919712 31.709768 -5.6229057 76 80 46
-59.463497 31.665205 -5.6353869 91 96 66
-59.269989 31.672256 -5.6562791 99 98 64
-59.145092 31.685055 -5.6741462 83 86 50
-63.30756 31.912521 -5.6279993 170 160 173
-63.138691 31.922579 -5.6413422 64 63 70
-62.675323 31.821823 -5.6433454 108 105 118
-62.47855 31.888449 -5.6480408 144 139 150
-62.305462 31.901762 -5.64851 163 159 173
-62.123207 31.916649 -5.6384368 126 124 127
-61.953869 31.936808 -5.664381 70 73 55
-60.101086 31.852919 -5.6041913 88 83 70
-59.817387 31.871294 -5.6578951 82 78 48
-59.421741 31.982635 -5.6081939 82 84 61
-59.294788 31.926926 -5.663991 74 73 49
-59.075527 31.904566 -5.6681366 89 91 63
-58.335033 31.930994 -5.6662564 67 69 47
-58.102306 31.932116 -5.6862836 71 71 44
-63.334206 32.021465 -5.6303558 132 127 146
-63.154343 32.032982 -5.7016869 207 196 210
-62.692551 32.098442 -5.6178808 104 104 119
-62.493443 32.071732 -5.6310678 149 146 164
-62.299278 32.085155 -5.6345539 168 161 182
-62.097023 32.097958 -5.6425552 114 110 116
-61.9361 32.02322 -5.6317315 61 63 45
-59.424221 32.014687 -5.6508121 84 92 64
-59.276276 32.115559 -5.6172256 95 94 64
-59.143108 32.054672 -5.6334019 83 85 56
-58.869583 32.01189 -5.6131215 70 73 43
-58.689533 32.109356 -5.6056972 80 82 48
-58.477623 32.095688 -5.6391206 77 81 48
-58.268936 32.102127 -5.6944427 75 80 52
-58.132942 32.144901 -5.6105924 66 74 44
-62.630898 32.252907 -5.6112227 135 128 141
-62.523563 32.289085 -5.6292973 136 129 143
-62.337475 32.272308 -5.6251216 141 131 146
-62.076557 32.299606 -5.6302247 144 132 145
-61.937286 32.340637 -5.6270061 97 94 93
-61.773933 32.27494 -5.6108403 61 61 38
-60.453175 32.356693 -5.6420512 58 65 45
-60.300236 32.34779 -5.6718497 84 86 61
-60.142971 32.341915 -5.6603889 69 70 46
-59.88792 32.386089 -5.6246061 115 106 79
-59.251213 32.289894 -5.650641 87 90 60
-59.088413 32.272202 -5.6335998 80 84 53
-58.887127 32.287434 -5.6255803 62 66 32
-58.707218 32.39299 -5.6302042 82 82 52
-58.247524 32.337753 -5.721159 86 87 67
-58.103996 32.290649 -5.6595602 71 75 49
-57.932114 32.336422 -5.6581306 67 71 44
-62.824146 32.466106 -5.6019258 145 137 150
-62.631142 32.445068 -5.6149673 152 139 150
-62.512817 32.416378 -5.6266418 147 135 148
-62.318539 32.521454 -5.6150823 101 97 107
-62.084393 32.510914 -5.644258 108 101 113
-61.913914 32.510777 -5.6490674 87 88 93
-61.736126 32.486282 -5.6256733 41 49 31
-60.855453 32.547859 -5.6544781 60 66 34
-60.628811 32.512356 -5.6269803 81 81 56
-60.478523 32.519314 -5.6595588 86 88 59
-60.292423 32.472057 -5.6521239 75 80 51
-60.09045 32.517277 -5.6479306 79 83 53
-59.963528 32.477779 -5.676424 80 77 48
-59.410866 32.448227 -5.6371784 107 106 76
-59.305035 32.433319 -5.6298079 94 95 70
-58.976887 32.406967 -5.610218 74 74 42
-58.708424 32.561497 -5.6470485 80 79 50
-58.512798 32.549664 -5.637712 86 85 60
-58.291821 32.494572 -5.6856174 97 96 72
-58.06649 32.465908 -5.6628389 68 71 43
-57.886703 32.507874 -5.6800966 71 74 47
-57.659771 32.564129 -5.6126556 76 79 57
-62.513874 32.751675 -5.6369042 193 190 212
-62.23056 32.651917 -5.6287646 106 106 122
-62.09795 32.698608 -5.6462355 99 96 106
-61.909286 32.69574 -5.638658 71 76 81
-61.746098 32.709743 -5.6424928 56 64 56
-61.574268 32.657822 -5.6279659 44 57 31
-61.216873 32.787914 -5.6858101 32 41 14
-61.021805 32.758095 -5.6513481 60 69 40
-60.876011 32.709217 -5.6221948 76 81 51
-60.649632 32.632107 -5.6392903 79 80 48
-60.494728 32.642487 -5.6500454 105 102 72
-60.305862 32.719692 -5.6607237 87 87 60
-60.129478 32.673248 -5.6448121 75 78 48
-59.976601 32.664608 -5.6414685 66 71 41
-59.745968 32.707916 -5.6131735 95 94 66
-59.412323 32.79327 -5.6580215 98 96 73
-59.300682 32.7467 -5.6572618 94 95 67
-59.040794 32.65015 -5.6149497 82 82 54
-58.843742 32.642128 -5.6036806 71 72 42
-58.645069 32.741852 -5.668479 66 60 33
-58.545055 32.728722 -5.6619639 93 90 64
-58.32185 32.729988 -5.6697178 93 93 71
-58.084106 32.669037 -5.6811104 89 93 69
-57.699551 32.70982 -5.6433926 83 84 57
-57.570084 32.620888 -5.6641779 106 108 87
-62.601204 32.876472 -5.6101089 37 35 49
-62.553661 32.831898 -5.6382966 112 109 126
-62.214046 32.910767 -5.6251903 152 146 158
-62.104019 32.912418 -5.6327162 101 101 115
-61.904949 32.92778 -5.6501484 90 93 103
-61.720707 32.908321 -5.6324563 54 61 51
-61.59716 32.965488 -5.6534653 59 63 40
-61.258755 32.865669 -5.6588812 65 72 45
-61.075752 32.887211 -5.6313753 84 91 64
-60.950825 32.896675 -5.6490788 96 99 70
-60.463863 32.903557 -5.6336441 97 93 68
-60.28194 32.888206 -5.6541533 82 82 56
-60.144035 32.893421 -5.6311722 78 80 56
-59.938026 32.896202 -5.6269302 74 78 50
-59.688515 32.90728 -5.6229134 86 88 60
-59.467854 32.877914 -5.629581 102 101 76
-59.33485 32.850079 -5.6284499 91 92 67
-58.694237 32.980133 -5.6807232 73 74 54
-58.450928 32.93848 -5.6633635 94 96 70
-58.346088 32.910728 -5.7164364 90 93 66
-58.036781 32.884705 -5.7465496 67 70 48
-57.942947 32.860889 -5.664887 67 73 51
-57.792683 32.840889 -5.6227117 91 92 69
-57.570694 32.986507 -5.6063566 98 99 82
-62.249447 33.078526 -5.6336513 137 127 146
-62.091171 33.084503 -5.6460438 138 135 152
-61.889645 33.064674 -5.6495314 94 96 105
-61.698139 33.04324 -5.6392465 90 87 80
-61.470257 33.097488 -5.6396499 128 124 102
-61.277199 33.112019 -5.6280751 111 111 83
-61.093414 33.100067 -5.6352253 119 117 88
-60.916298 33.101654 -5.6327062 77 81 50
-60.621014 33.19157 -5.6331239 107 85 106
-60.475883 33.110291 -5.6236534 113 112 87
-60.294964 33.101192 -5.647119 102 100 76
-60.145084 33.133781 -5.6598001 85 84 60
-59.84417 33.1866 -5.6442213 97 91 68
-59.717918 33.138943 -5.681325 96 91 69
-59.359383 33.183395 -5.6062794 57 64 34
-58.869385 33.146229 -5.6966233 90 87 76
-58.687508 33.095139 -5.6842794 72 75 54
-58.46809 33.082989 -5.6791086 97 99 76
-58.322754 33.089867 -5.6980219 90 88 67
-58.139069 33.127651 -5.677712 95 92 71
-57.938511 33.077515 -5.6406722 84 82 63
-57.728344 33.055157 -5.6062036 103 103 84
-57.454857 33.109123 -5.7031784 74 77 58
-62.251419 33.31805 -5.6460881 155 143 164
-62.160297 33.254948 -5.6433272 192 180 198
-61.416462 33.301506 -5.6276813 150 149 113
-61.319977 33.328411 -5.6163478 165 162 126
-61.114159 33.209312 -5.6196194 120 116 96
-60.888218 33.261581 -5.6264558 53 62 31
-60.637196 33.290039 -5.6093788 113 108 96
-60.462269 33.283607 -5.6288271 135 124 102
-60.263165 33.286922 -5.6363025 95 89 64
-60.118851 33.271206 -5.6564288 82 80 53
-59.907955 33.311543 -5.6354909 88 82 59
-59.704594 33.286587 -5.6500154 85 84 61
-59.497124 33.293713 -5.6169095 63 66 37
-59.287956 33.359859 -5.6459765 76 79 52
-59.102997 33.318878 -5.6837387 83 85 62
-58.915211 33.313354 -5.7030897 86 87 67
-58.708492 33.287003 -5.6872721 73 76 53
-58.514549 33.327072 -5.7078934 96 98 76
-58.311085 33.352711 -5.6935725 91 91 71
-58.102489 33.307671 -5.6290541 74 79 54
-57.908878 33.253994 -5.6337214 71 72 51
-57.710411 33.230877 -5.6223536 83 84 62
-57.509293 33.301498 -5.6288557 87 86 66
-61.363194 33.410034 -5.6120672 174 171 131
-61.148556 33.546459 -5.6181574 166 158 119
-60.854767 33.560894 -5.6392274 88 86 61
-60.722076 33.52293 -5.6291404 81 80 56
-60.478516 33.541595 -5.6650667 114 108 79
-60.32193 33.550247 -5.6472712 116 109 82
-60.093449 33.539906 -5.6783223 95 93 65
-59.907543 33.502148 -5.6489663 91 88 63
-59.753719 33.529842 -5.6414952 80 81 56
-59.468487 33.493378 -5.6201806 86 89 61
-59.29644 33.498745 -5.6892877 96 96 73
-59.136211 33.506165 -5.7054138 90 87 69
-58.925484 33.508999 -5.6899719 93 91 71
-58.72142 33.494728 -5.6804829 92 95 71
-58.496758 33.525764 -5.714057 86 89 67
-58.313019 33.505798 -5.669765 92 91 73
-61.029495 33.718739 -5.6243787 110 106 80
-60.888073 33.703884 -5.628757 96 96 69
-60.726391 33.671932 -5.6473784 85 85 58
-60.455395 33.639408 -5.6625862 107 101 75
-60.311977 33.644272 -5.6575751 104 98 72
-60.065144 33.680012 -5.6514444 105 101 75
-59.900326 33.712666 -5.6662564 90 89 65
-59.731533 33.700111 -5.6468244 82 83 57
-59.521526 33.710308 -5.6416421 93 94 73
-59.297657 33.702099 -5.6580257 112 104 88
-59.119205 33.679356 -5.663497 89 84 67
-58.906334 33.677803 -5.6540604 108 105 83
-58.739994 33.668358 -5.6272726 116 113 89
-58.501587 33.678177 -5.6433358 87 87 65
-58.260746 33.701477 -5.6487155 72 74 53
-58.183002 33.642273 -5.6851516 113 115 94
-57.912216 33.665562 -5.6285229 92 92 72
-57.479206 33.78302 -5.6229973 43 53 23
-61.480953 33.887764 -5.6280127 138 136 97
-61.090462 33.917686 -5.6450863 148 139 115
-60.883236 33.903732 -5.6337538 108 105 79
-60.718517 33.928391 -5.6545467 89 91 65
-60.52076 33.888859 -5.6329689 86 86 60
-60.26886 33.829639 -5.6049967 140 139 114
-60.064674 33.92123 -5.6637459 101 98 76
-59.898289 33.900536 -5.6857772 95 93 74
-59.713509 33.893673 -5.6571674 92 93 71
-59.500553 33.87759 -5.6410475 98 98 77
-59.322193 33.87077 -5.6438465 107 101 81
-59.116821 33.842777 -5.6522675 112 103 81
-58.939682 33.885635 -5.6265888 109 98 76
-58.687935 33.941589 -5.6434541 114 106 82
-58.488846 33.914036 -5.6785545 97 92 70
-58.264305 33.902428 -5.6950293 80 77 56
-58.12809 33.936657 -5.7060084 85 82 60
-57.968052 33.87368 -5.6490698 75 76 53
-57.738091 33.835495 -5.6356907 70 71 48
-57.3853 33.982574 -5.6094666 66 70 47
-61.273525 34.152626 -5.6475129 152 140 118
-61.071117 34.095356 -5.6222215 126 113 89
-60.87888 34.08054 -5.6302748 130 122 97
-60.715179 34.073433 -5.6345611 103 99 76
-60.497181 34.102253 -5.6313562 83 83 64
-60.307526 34.145985 -5.652247 95 94 72
-60.080425 34.101727 -5.6844411 110 107 84
-59.901031 34.087994 -5.6559029 109 105 83
-59.719059 34.097599 -5.6537409 100 96 74
-59.510929 34.064079 -5.6274786 107 104 80
-59.293346 34.065411 -5.627099 83 81 54
-58.856483 34.100807 -5.6447964 92 89 65
-58.678562 34.056614 -5.6545358 89 86 61
-58.467091 34.052353 -5.6349063 103 99 80
-58.266056 34.028214 -5.6435356 80 74 57
-57.686386 34.104511 -5.6546373 68 70 47
-57.53421 34.003117 -5.6341996 55 59 34
-57.347698 34.158718 -5.6175251 84 85 65
-61.055637 34.281406 -5.6276288 119 109 89
-60.856182 34.32737 -5.6436262 116 106 82
-60.679756 34.287674 -5.6378183 108 101 79
-60.469696 34.293964 -5.6477437 105 102 76
-60.322128 34.28788 -5.6659889 106 104 80
-60.099686 34.277348 -5.637805 106 102 79
-59.881149 34.311497 -5.645453 107 103 79
-59.715576 34.287441 -5.6492796 103 98 76
-59.550255 34.327534 -5.6029615 114 108 85
-58.100464 34.393169 -5.675652 94 90 75
-57.452084 34.209576 -5.6590376 80 77 59
-57.291451 34.335842 -5.6081233 104 102 82
-61.39851 34.412163 -5.6262145 142 128 101
-60.895687 34.512035 -5.640799 131 118 103
-60.703079 34.524155 -5.6338692 123 113 92
-60.500797 34.500526 -5.641686 118 111 87
-60.322186 34.498837 -5.6595817 107 102 80
-60.106434 34.506004 -5.6418986 106 105 79
-59.916306 34.524471 -5.6379776 90 89 65
-59.729046 34.549362 -5.644567 100 99 77
-59.046345 34.566246 -5.6274915 51 54 26
-58.042362 34.419785 -5.6386313 89 87 67
-57.495148 34.480812 -5.6371818 84 82 66
-57.256817 34.558632 -5.626936 76 76 63
-61.048721 34.643646 -5.6202631 129 117 101
-60.915737 34.655602 -5.6431012 133 117 109
-60.685474 34.699535 -5.6520181 120 109 93
-60.505928 34.667191 -5.6465011 117 110 90
-60.296329 34.694122 -5.6564474 116 108 85
-60.102421 34.709911 -5.642446 109 104 79
-59.91169 34.724491 -5.6640396 87 87 63
-59.714901 34.695362 -5.6478777 91 92 66
-59.500534 34.71907 -5.6396275 89 87 63
-59.282013 34.733288 -5.6450582 81 81 58
-59.060955 34.675747 -5.6515374 53 56 30
-58.970341 34.664265 -5.6314039 26 31 1
-57.277142 34.684643 -5.6545858 79 79 61
-60.860645 34.837097 -5.6386189 123 110 102
-60.695045 34.852509 -5.6273794 132 119 109
-60.488033 34.917389 -5.630116 143 129 115
-60.293968 34.893486 -5.6402836 129 118 102
-60.103062 34.876316 -5.6508484 107 101 80
-59.905632 34.898735 -5.6552196 96 93 70
-59.697445 34.899994 -5.6802068 93 93 67
-59.516022 34.903877 -5.6401677 87 85 61
-59.32243 34.841488 -5.6337409 101 97 74
-58.206169 34.807999 -5.6330647 122 124 103
-58.124424 34.825352 -5.6543379 91 94 72
-57.40416 34.884495 -5.617363 67 71 54
-57.260853 34.871952 -5.6743784 68 69 49
-57.159794 34.908009 -5.6486549 63 67 44
-60.719322 35.116325 -5.6088953 123 106 104
-60.486092 35.104946 -5.6116686 132 117 107
-60.246845 35.081718 -5.6390004 122 112 96
-60.07618 35.099064 -5.6643076 114 105 89
-59.903515 35.118114 -5.6512928 109 103 81
-59.694286 35.104404 -5.6516142 99 96 74
-59.482037 35.095131 -5.6533456 83 82 60
-59.326462 35.140221 -5.6516013 66 66 42
-60.916649 35.277966 -5.6453681 150 129 136
-60.633286 35.245483 -5.6108303 125 110 103
-60.474533 35.256443 -5.6262474 127 117 105
-60.307053 35.289688 -5.6318049 121 110 96
-60.084595 35.285469 -5.6464853 130 120 101
-59.901173 35.310947 -5.6622062 116 110 89
-59.742538 35.293427 -5.6672268 103 97 78
-59.525696 35.246864 -5.6403351 88 85 64
-59.308147 35.309418 -5.6409507 72 73 46
-59.160313 35.319447 -5.6408715 81 80 53
-58.985477 35.222328 -5.6145582 62 64 40
-57.102951 35.303703 -5.6243224 84 82 70
-60.329399 35.485779 -5.6343455 124 112 104
-60.163361 35.520248 -5.6194892 109 102 83
-59.910931 35.473045 -5.6488209 108 100 82
-59.730576 35.515793 -5.6352892 87 84 68
-59.503326 35.489624 -5.6401134 95 91 70
-59.286987 35.491489 -5.6471848 86 87 60
-59.11935 35.514439 -5.6431751 67 67 42
-58.972095 35.576363 -5.6544352 59 61 37
-60.485508 35.659309 -5.6059952 131 116 114
-60.295818 35.674255 -5.6281648 130 115 107
-60.040886 35.680981 -5.6162968 118 111 105
-59.844833 35.744709 -5.6557589 94 88 74
-59.709438 35.675625 -5.634716 97 93 75
-59.500381 35.703129 -5.6277432 103 101 79
-59.285801 35.728313 -5.6356115 83 84 59
-59.098721 35.660793 -5.6228342 69 70 46
-58.897739 35.698364 -5.6382685 73 74 53
-56.99292 35.769947 -5.6615663 84 76 74
-60.227295 35.846939 -5.6197667 110 101 88
-60.150131 35.924137 -5.6085601 103 97 82
-59.868233 35.866341 -5.6653996 95 87 75
-59.680279 35.954079 -5.6211715 113 105 91
-59.47599 35.901894 -5.6457047 100 93 78
-59.313068 35.891251 -5.6515431 90 87 70
-59.101658 35.863605 -5.6395631 84 84 64
-58.909866 35.889694 -5.6182461 78 80 58
-58.713745 35.951149 -5.6275544 65 66 47
-58.452396 35.979591 -5.6198373 50 51 30
-57.11359 35.961849 -5.6163702 83 78 74
-56.938461 35.895943 -5.7094636 111 107 102
-60.266453 36.081779 -5.6153221 138 129 119
-60.074413 36.072247 -5.6190476 135 126 114
-59.810417 36.061481 -5.6035419 123 111 104
-59.683647 36.10606 -5.6302748 127 115 101
-59.540844 36.087311 -5.6299653 113 102 89
-59.340282 36.112316 -5.6193104 113 104 92
-59.146919 36.168491 -5.6192822 99 95 74
-58.868011 36.115463 -5.6168628 81 81 63
-58.719906 36.09127 -5.6311097 74 75 58
-58.487312 36.06424 -5.6227169 58 61 41
-58.275696 36.069923 -5.6187916 70 68 53
-58.168457 36.145401 -5.6357408 87 80 66
-57.717285 36.176804 -5.6469111 81 78 71
-57.31461 36.0364 -5.6063538 69 64 54
-57.104496 36.160091 -5.7248077 69 67 57
-56.948666 36.147614 -5.7366896 82 77 71
-60.053165 36.313251 -5.6080761 128 121 102
-59.917641 36.339256 -5.6113477 132 119 118
-59.664001 36.305119 -5.6222701 121 107 99
-59.522137 36.299614 -5.6281056 115 104 94
-59.311897 36.325031 -5.6196899 107 100 86
-59.109112 36.303181 -5.6217461 113 107 91
-58.925659 36.336094 -5.6338539 102 98 83
-58.734745 36.327438 -5.6238956 93 90 74
-58.509914 36.328251 -5.6411958 97 92 78
-58.290565 36.29697 -5.6418695 104 97 83
-58.128845 36.324074 -5.6405706 101 93 83
-57.870678 36.278946 -5.635561 99 90 86
-57.62672 36.289532 -5.6424637 88 83 74
-57.505993 36.325485 -5.6191587 91 81 75
-57.217346 36.292915 -5.6746626 66 62 50
-57.007835 36.331581 -5.6891193 68 65 54
-56.886353 36.26442 -5.685545 71 65 57
-60.065681 36.414921 -5.6057744 131 123 110
-59.903816 36.512863 -5.6053076 122 110 100
-59.706223 36.498581 -5.6112323 133 119 112
-59.498093 36.488495 -5.6259575 125 112 108
-59.296135 36.481785 -5.6297698 129 116 112
-59.093742 36.491997 -5.6372099 115 106 96
-58.890816 36.518131 -5.6381421 105 100 86
-58.697903 36.509678 -5.6352129 112 106 95
-58.48634 36.513363 -5.6702189 107 102 88
-58.309952 36.520424 -5.6622477 114 107 95
-58.046814 36.511684 -5.6281414 121 113 105
-57.954445 36.482162 -5.6021838 135 120 117
-57.571831 36.435085 -5.647676 103 95 81
-57.384563 36.438877 -5.6568031 79 73 60
-57.174557 36.580349 -5.6742616 68 63 54
-56.885262 36.552879 -5.717824 56 53 42
-59.491413 36.680878 -5.6333251 132 118 118
-59.323524 36.715878 -5.6508427 121 107 104
-59.110058 36.676933 -5.6346474 115 105 97
-58.890896 36.678558 -5.6396623 109 103 89
-58.687969 36.678154 -5.6414032 111 103 93
-58.507256 36.686249 -5.6452475 107 100 89
-58.281796 36.677834 -5.6177888 107 100 91
-58.032406 36.698269 -5.6477351 109 97 88
-57.92709 36.776379 -5.6278253 111 99 95
-57.700539 36.758919 -5.6426439 118 103 99
-57.330845 36.640205 -5.6685934 72 65 56
-57.13023 36.780476 -5.699894 79 71 65
-56.923809 36.732933 -5.6698365 61 59 46
-56.754799 36.72649 -5.7568932 64 63 52
-59.438557 36.847134 -5.6639557 140 126 130
-59.094063 36.889809 -5.6377273 120 110 105
-58.877247 36.860497 -5.6424174 114 108 95
-58.7243 36.862999 -5.6381454 120 115 103
-58.47451 36.861458 -5.6322875 113 107 96
-58.344452 36.934822 -5.6241622 99 92 83
-58.097931 36.898293 -5.6405249 102 94 88
-57.906277 36.924519 -5.6327772 107 101 94
-57.617977 36.829647 -5.6041727 127 111 117
-57.481895 36.901413 -5.6627512 84 78 71
-57.284622 36.920433 -5.7071114 89 81 76
-57.112633 36.920921 -5.6581483 90 86 79
-56.873219 36.910667 -5.6760173 71 68 60
-56.750793 36.858917 -5.7257576 87 81 75
-59.470291 37.007362 -5.6440449 142 126 127
-59.078396 37.078838 -5.6528435 121 104 102
-58.915958 37.099335 -5.6315007 106 99 95
-58.575939 37.145386 -5.63482 124 113 108
-58.320271 37.06625 -5.6366873 107 99 91
-58.128891 37.086746 -5.6343975 107 99 92
-57.886047 37.108231 -5.6530442 98 92 89
-57.772141 37.060917 -5.6636686 97 91 84
-57.495682 37.194103 -5.6021795 116 99 96
-56.782516 37.139179 -5.6711936 81 73 70
-59.165157 37.378067 -5.6320696 121 109 108
-58.6548 37.249229 -5.6585388 142 124 127
-58.442863 37.29221 -5.6316452 119 107 105
-58.318481 37.315712 -5.6249828 125 112 114
-58.067558 37.347633 -5.6353889 116 105 102
-57.856098 37.280766 -5.6182117 111 100 98
-57.76918 37.290062 -5.6273441 138 122 122
-56.74646 37.225014 -5.629374 73 64 59
-59.087177 37.42812 -5.6444645 119 102 110
-58.830788 37.519676 -5.6497998 122 111 109
-58.751354 37.525967 -5.639987 112 103 97
-58.464005 37.478542 -5.614778 117 108 106
-58.318317 37.416916 -5.6467652 129 116 119
-58.108826 37.494514 -5.6287465 103 97 91
-57.735191 37.496315 -5.6353579 125 108 112
-58.760399 37.648945 -5.7112679 136 126 125
-58.418629 37.698746 -5.6032104 108 92 103
-58.280926 37.661667 -5.6568022 119 105 112
-58.122776 37.725826 -5.6236973 99 91 89
-57.962399 37.717178 -5.6264496 109 106 104
-58.414101 37.922325 -5.616179 128 127 117
-58.256344 37.912018 -5.6304493 111 101 100
-58.097683 37.959087 -5.6262527 106 93 94
-57.701782 37.863026 -5.6124334 69 67 58
-57.891991 38.146111 -5.6298342 91 87 80
-58.122528 38.221867 -5.6249924 134 119 126
-57.857059 38.279617 -5.6815705 93 87 89
-57.42075 38.306782 -5.6350503 103 91 95
-57.883141 38.433899 -5.6146641 106 100 95
-57.512321 38.487457 -5.6314454 93 81 80
-63.435963 24.291246 -5.5594058 75 84 39
-63.317833 24.360937 -5.4695778 50 66 8
-63.134243 24.321163 -5.5373554 63 85 12
-64.127815 24.54767 -5.5336232 81 98 37
-63.935635 24.510319 -5.5317225 69 87 28
-63.606438 24.50325 -5.4517403 107 96 73
-63.518394 24.523088 -5.4774971 78 75 41
-63.304138 24.498276 -5.4691596 72 84 25
-63.151958 24.492264 -5.4661241 61 75 13
-65.098366 24.782032 -5.5017281 66 83 19
-64.913193 24.687012 -5.5478826 75 92 27
-64.732689 24.72555 -5.5009556 79 98 35
-64.48951 24.6633 -5.4873757 81 95 30
-64.228371 24.687176 -5.4541421 88 100 36
-64.134415 24.701904 -5.4253278 80 98 37
-63.952744 24.73819 -5.5266657 86 100 35
-63.634556 24.656311 -5.4589386 88 85 50
-63.41811 24.672119 -5.4419737 80 93 32
-63.304962 24.710178 -5.5225286 93 112 41
-63.126923 24.723602 -5.440217 97 107 46
-66.093079 24.995111 -5.5210142 54 70 3
-65.850998 24.998547 -5.5085678 79 89 35
-65.703995 24.943277 -5.4883223 63 74 27
-65.526009 24.921 -5.5430508 70 82 23
-65.20488 24.828333 -5.5157228 70 82 16
-65.086464 24.909033 -5.4974971 62 79 16
-64.906952 24.919724 -5.4498096 72 89 25
-64.676537 24.875879 -5.5002379 63 79 16
-64.467636 24.828424 -5.4955993 63 80 14
-64.278687 24.997375 -5.5658965 85 106 39
-64.130836 24.924263 -5.4882736 107 118 59
-63.809116 24.990561 -5.4469748 77 86 31
-63.618206 24.895536 -5.5441923 99 103 53
-63.493912 24.931076 -5.4527817 94 102 45
-63.295551 24.928411 -5.503118 88 107 44
-66.636993 25.101597 -5.5499544 52 68 4
-66.448586 25.169239 -5.4354248 74 92 19
-66.35598 25.098705 -5.5366931 65 78 17
-66.06514 25.13357 -5.4873252 47 66 6
-65.917572 25.120277 -5.5392365 55 74 16
-65.688293 25.142204 -5.494493 59 74 17
-65.474289 25.091116 -5.5272007 63 75 20
-65.200356 25.156759 -5.4283576 74 89 29
-65.117111 25.125839 -5.4773903 51 68 10
-64.93499 25.115973 -5.4941649 59 74 15
-64.718857 25.110474 -5.5061646 62 77 24
-64.503082 25.081774 -5.4711089 59 79 17
-64.287422 25.089531 -5.4724355 75 89 28
-64.109802 25.127861 -5.4518371 81 87 38
-63.714333 25.102732 -5.4391065 82 86 35
-63.493416 25.117361 -5.4880533 94 106 45
-63.316689 25.081013 -5.4560609 81 99 33
-66.604492 25.259548 -5.5270166 59 75 13
-66.491241 25.305313 -5.4768147 44 62 1
-66.27697 25.245451 -5.4886494 51 67 10
-66.068306 25.3027 -5.5023241 59 77 19
-65.924522 25.322176 -5.517415 55 70 10
-65.704582 25.300438 -5.4757004 50 67 12
-65.537674 25.291191 -5.5538139 53 72 20
-65.352226 25.302286 -5.4980016 53 70 16
-65.087311 25.289381 -5.5124969 55 73 14
-64.916939 25.328041 -5.4898734 49 64 8
-64.729141 25.290094 -5.5097241 58 75 20
-64.502266 25.33342 -5.5365334 25 49 7
-64.286453 25.300747 -5.4326849 58 73 16
-63.605537 25.231861 -5.4102988 99 115 53
-63.469971 25.300728 -5.443903 87 99 35
-63.350475 25.21199 -5.4211259 85 99 29
-67.769348 25.470396 -5.4392338 96 113 45
-67.170845 25.529911 -5.4523625 55 77 13
-66.831352 25.534065 -5.5669279 70 84 22
-66.638199 25.582661 -5.5482464 76 91 27
-66.474815 25.511868 -5.4788408 68 84 23
-66.346931 25.498938 -5.4676847 65 79 22
-66.146889 25.402225 -5.4534359 44 60 5
-65.915016 25.534927 -5.4674954 67 83 28
-65.670891 25.485359 -5.4845147 46 63 13
-65.530235 25.497543 -5.510323 48 63 13
-65.276649 25.526886 -5.5139661 52 70 14
-65.113113 25.509302 -5.4764905 57 76 18
-64.91684 25.519375 -5.4992752 58 73 16
-64.704353 25.480549 -5.5057077 41 57 8
-64.571991 25.4669 -5.4769802 42 62 7
-64.243484 25.520531 -5.4827595 42 58 3
-63.650372 25.562138 -5.4250078 84 83 37
-63.482918 25.495424 -5.4865723 110 111 54
-63.360924 25.459557 -5.4799967 93 104 42
-67.884682 25.758362 -5.5044909 58 64 0
-67.005363 25.768543 -5.4404907 44 73 6
-66.764923 25.76634 -5.4047446 78 90 30
-66.520737 25.720575 -5.4581604 67 82 18
-66.331184 25.744835 -5.4879847 73 91 31
-66.133415 25.682846 -5.4611702 71 82 27
-65.933815 25.705381 -5.5328784 62 77 20
-65.765511 25.711214 -5.468524 60 71 17
-65.518974 25.672522 -5.474411 52 65 15
-65.307816 25.69087 -5.5043836 46 61 9
-65.086884 25.711542 -5.470315 48 71 13
-64.900543 25.705996 -5.5157924 60 71 18
-64.710426 25.699488 -5.5096722 49 64 13
-64.539993 25.685867 -5.4976749 31 54 5
-64.251472 25.679575 -5.4311242 43 59 11
-64.189377 25.611053 -5.4848766 36 58 4
-63.672211 25.722294 -5.4417677 97 104 45
-63.508575 25.654472 -5.4299178 86 89 31
-63.36734 25.690596 -5.4106822 85 97 27
-67.890556 25.868389 -5.404407 59 70 2
-66.901802 25.842312 -5.4869003 61 73 12
-66.713104 25.927006 -5.490695 77 92 29
-66.515793 25.915174 -5.4035292 71 86 25
-66.323166 25.883736 -5.44943 76 88 28
-66.007233 25.864828 -5.4747057 69 84 26
-65.90448 25.902777 -5.4470878 73 89 30
-65.753693 25.887962 -5.4221411 76 91 35
-65.523323 25.890945 -5.4756565 51 66 16
-65.330238 25.890717 -5.5044651 45 64 11
-65.085609 25.896101 -5.4709139 42 55 8
-64.887596 25.911182 -5.4655204 58 70 18
-64.692413 25.880901 -5.4796896 46 62 7
-64.513336 25.895344 -5.4317255 29 51 4
-64.29071 25.861141 -5.4381747 22 48 7
-69.332138 26.061769 -5.402339 8 45 0
-66.956474 26.102354 -5.4684763 57 73 11
-66.722908 26.110104 -5.4720058 51 65 3
-66.471603 26.112883 -5.4411755 79 93 26
-66.329063 26.060753 -5.5022864 64 74 22
-66.083778 26.000166 -5.4307337 59 75 17
-65.872147 26.020807 -5.4475379 85 96 47
-65.607628 26.000988 -5.4814916 62 77 22
-65.474739 26.152182 -5.4928555 62 79 24
-65.303452 26.145229 -5.5225401 59 74 25
-65.103836 26.057417 -5.4666677 53 65 19
-64.895454 26.09877 -5.4277453 47 58 9
-64.708122 26.055418 -5.4335279 47 64 9
-64.472527 26.084621 -5.433095 51 64 15
-64.384155 26.193506 -5.4062781 52 61 9
-67.649796 26.288425 -5.4301167 65 73 18
-67.250717 26.230312 -5.4010477 97 103 55
-66.921875 26.26483 -5.4319453 49 64 0
-66.74617 26.333515 -5.4964399 76 82 26
-65.752739 26.257269 -5.450995 95 97 34
-65.483009 26.302292 -5.467092 72 86 35
-65.298576 26.306664 -5.4870853 62 72 26
-65.104828 26.308805 -5.4590077 60 71 22
-64.968323 26.295158 -5.4293127 58 67 21
-64.744499 26.330944 -5.419445 67 73 22
-64.448662 26.202789 -5.4196596 35 49 0
-67.178986 26.532818 -5.4002042 48 65 3
-66.867928 26.46162 -5.4032483 103 113 60
-66.035614 26.479771 -5.4207087 71 77 17
-65.438911 26.460135 -5.4182558 89 104 45
-65.27108 26.460966 -5.4514966 60 71 26
-65.056572 26.51263 -5.4745731 60 71 17
-64.916718 26.524448 -5.4176512 63 71 19
-64.754814 26.501633 -5.4238515 52 62 2
-65.482704 26.642975 -5.4848566 85 100 49
-65.283096 26.701757 -5.4967241 93 100 54
-65.129684 26.752743 -5.4741554 84 89 43
-64.906525 26.662586 -5.4124327 91 98 44
-64.708725 26.704613 -5.4156756 75 77 29
-64.589157 26.707117 -5.4195895 56 75 24
-67.056923 26.910965 -5.5151219 72 82 32
-66.915611 26.964855 -5.438952 87 100 46
-65.512009 26.865995 -5.4246593 95 109 55
-65.251511 26.837191 -5.4544373 87 94 43
-65.117752 26.900421 -5.4746256 64 71 25
-68.063972 27.171068 -5.4597521 86 102 51
-67.026398 27.061815 -5.4036307 72 87 37
-66.867134 27.101318 -5.4913683 103 112 59
-66.664238 27.140272 -5.418241 84 88 38
-66.515213 27.189795 -5.4361763 92 97 41
-65.446182 27.175226 -5.4141316 56 67 11
-65.212685 27.028536 -5.4938626 95 110 53
-65.16082 27.039709 -5.4426746 81 86 36
-64.217911 27.133577 -5.4427929 43 57 5
-64.156441 27.055307 -5.4837203 34 44 0
-67.630028 27.263294 -5.4798193 44 52 28
-67.10321 27.251749 -5.4644599 92 107 58
-66.749916 27.266373 -5.4670105 94 104 45
-61.106289 27.221565 -5.4710565 62 88 23
-60.838959 27.294847 -5.4246545 56 71 6
-67.866562 27.526413 -5.4810629 59 80 31
-67.602585 27.562298 -5.4063182 66 79 34
-67.5895 27.583435 -5.5305123 99 109 87
-67.139969 27.570108 -5.4755158 141 146 149
-66.873566 27.46936 -5.4728036 99 103 80
-66.661285 27.453676 -5.4639893 79 86 31
-66.528488 27.500828 -5.5079775 66 77 23
-66.32653 27.453241 -5.4806442 83 95 38
-60.998581 27.586084 -5.4198589 54 73 15
-58.658855 27.532385 -5.4294062 45 63 1
-67.882599 27.602308 -5.4826984 60 71 37
-67.640594 27.701788 -5.4340949 72 74 52
-67.430679 27.618063 -5.4632373 83 94 54
-67.228722 27.66515 -5.4939013 128 129 134
-67.198753 27.787436 -5.4373264 126 131 111
-66.842865 27.746269 -5.424983 81 88 66
-66.669487 27.65937 -5.4565382 52 63 23
-66.465958 27.667845 -5.4974709 43 61 17
-66.243996 27.69462 -5.4456644 53 71 18
-66.097656 27.789173 -5.4054508 46 66 11
-64.335564 27.794598 -5.4225135 71 69 31
-61.277016 27.673517 -5.4438481 70 84 26
-59.455811 27.736073 -5.4743543 109 126 74
-67.707344 27.845671 -5.5682521 123 130 123
-67.407364 27.976706 -5.5348716 16 39 21
-67.27359 27.834229 -5.4328671 113 121 110
-67.088531 27.977894 -5.4651842 67 71 56
-66.952248 27.919321 -5.4770947 51 66 25
-66.665573 27.891865 -5.4210634 60 67 46
-66.456146 27.887381 -5.4201875 30 52 19
-66.320877 27.9179 -5.4269724 51 65 28
-66.104935 27.966938 -5.4394441 65 75 44
-65.15284 27.987663 -5.4239206 121 128 84
-61.119495 27.95793 -5.4404325 51 72 16
-60.943974 27.87326 -5.420989 59 76 12
-60.078091 27.984015 -5.4350872 57 73 27
-67.114731 28.157305 -5.4684324 87 98 88
-66.877563 28.106411 -5.4719219 59 67 49
-66.65992 28.116838 -5.4814377 42 59 30
-66.493202 28.133051 -5.4199295 75 83 62
-66.278542 28.139029 -5.4198384 81 88 73
-66.094559 28.102701 -5.4217391 95 101 88
-65.947327 28.196791 -5.4282546 44 60 15
-65.121223 28.11821 -5.4457436 74 89 37
-64.775635 28.199047 -5.5124669 118 116 75
-63.361519 28.169628 -5.5976968 28 56 0
-61.218597 28.169027 -5.54424 74 87 43
-67.3386 28.292967 -5.5287666 103 107 108
-67.078979 28.286707 -5.4632235 85 99 89
-66.864967 28.341206 -5.4811392 53 71 58
-66.719521 28.319422 -5.4305015 66 80 66
-66.482887 28.312805 -5.4625754 68 76 60
-66.334007 28.285486 -5.4324384 114 115 102
-66.145691 28.292284 -5.4578519 119 123 109
-65.833427 28.351154 -5.4258013 66 79 33
-65.690704 28.323505 -5.4451227 37 56 6
-65.287674 28.285681 -5.4424138 73 81 30
-65.08741 28.306763 -5.477304 63 72 21
-64.896385 28.340479 -5.4762101 62 84 28
-64.708206 28.356153 -5.4624486 67 77 22
-64.572945 28.327721 -5.4373031 64 74 24
-64.215057 28.295628 -5.5401249 27 43 4
-64.06546 28.335579 -5.4838629 52 71 25
-63.942234 28.348303 -5.4867353 71 84 41
-63.72596 28.391991 -5.521862 33 59 14
-63.467873 28.380018 -5.5185204 38 66 8
-63.302261 28.288628 -5.5098352 61 88 32
-61.412933 28.288757 -5.4874239 68 88 35
-61.315388 28.32379 -5.4879336 76 92 48
-61.11377 28.313034 -5.4721761 49 72 15
-60.228073 28.294874 -5.5431957 47 73 12
-60.108753 28.269106 -5.5357261 78 98 39
-59.732662 28.355623 -5.4879827 82 94 48
-59.435921 28.244579 -5.5592794 66 85 20
-67.295219 28.41571 -5.4092321 115 118 125
-66.853928 28.451214 -5.4116192 66 75 67
-66.681137 28.459452 -5.4286213 89 98 93
-66.511253 28.493414 -5.4199681 161 162 161
-66.29612 28.461496 -5.4202485 90 92 84
-66.126839 28.576279 -5.4577017 70 84 58
-65.91497 28.513433 -5.4300652 52 66 29
-65.686188 28.506685 -5.4518661 49 63 21
-65.481628 28.559126 -5.4634957 51 63 19
-65.309898 28.546515 -5.4521546 73 78 38
-65.033646 28.524973 -5.4421091 82 94 44
-64.87439 28.510984 -5.4723158 78 89 38
-64.736687 28.501513 -5.4857664 75 84 36
-64.496338 28.531544 -5.4692898 39 58 14
-64.302757 28.55035 -5.5039506 11 45 2
-64.08963 28.546856 -5.5071464 51 68 19
-63.91161 28.516661 -5.4947433 36 54 14
-63.680454 28.541796 -5.5392938 27 53 4
-63.525978 28.534292 -5.4694395 30 60 5
-63.355782 28.56752 -5.4987221 6 40 0
-63.126667 28.590038 -5.582788 43 57 6
-62.856697 28.471581 -5.421947 26 57 0
-62.089939 28.508734 -5.4624486 31 49 6
-61.993328 28.465527 -5.4566517 69 89 38
-61.43401 28.504702 -5.4515986 74 88 50
-61.381119 28.43549 -5.4748678 60 79 35
-61.076027 28.545849 -5.4509554 41 67 7
-60.235622 28.498676 -5.4254131 61 86 31
-60.120979 28.414238 -5.4177313 68 85 30
-59.801174 28.522512 -5.4163036 120 131 71
-59.661961 28.526718 -5.4151869 79 96 32
-59.529182 28.428215 -5.443706 62 85 23
-66.639015 28.652758 -5.4290919 160 164 163
-66.417007 28.727787 -5.423244 109 118 111
-66.368744 28.726252 -5.4315701 53 71 59
-66.066414 28.664589 -5.438653 52 69 45
-65.898308 28.733807 -5.4568563 61 70 57
-65.700638 28.702173 -5.461061 56 67 41
-65.50782 28.701172 -5.4386687 75 82 48
-65.382812 28.656101 -5.4328136 75 79 45
-65.064255 28.723579 -5.4583569 79 92 44
-64.89698 28.703844 -5.5005188 91 99 56
-64.698723 28.696163 -5.5203533 64 75 35
-64.477814 28.716896 -5.4977674 43 61 21
-64.29277 28.731201 -5.4833674 52 68 24
-64.10659 28.723999 -5.5071054 46 63 18
-63.906704 28.72064 -5.5126581 35 58 13
-63.697681 28.726706 -5.5030074 27 51 7
-63.502296 28.685286 -5.4599066 24 56 9
-63.348663 28.770788 -5.4824657 23 48 6
-63.179005 28.695992 -5.5137806 35 60 14
-62.990883 28.606291 -5.4084139 46 82 18
-62.375126 28.685001 -5.4012065 40 56 17
-62.026558 28.737265 -5.4677429 47 68 13
-61.481544 28.645706 -5.4863462 86 100 53
-61.30344 28.692629 -5.4785705 66 80 29
-61.042412 28.611158 -5.4079175 70 93 37
-60.284782 28.702969 -5.4805212 68 92 39
-59.620094 28.700409 -5.408587 84 102 48
-59.460308 28.789591 -5.444788 108 126 68
-66.47702 28.857796 -5.4404683 97 103 101
-66.269547 28.882528 -5.4221301 101 115 112
-66.087151 28.879072 -5.4547486 115 120 117
-65.895561 28.910662 -5.4698071 75 85 75
-65.719711 28.902441 -5.489378 81 84 73
-65.521637 28.937103 -5.4693713 109 107 89
-65.323586 28.857719 -5.4652343 75 82 45
-65.065521 28.884607 -5.4422817 110 113 77
-64.900398 28.894415 -5.4725275 137 135 113
-64.6996 28.912231 -5.5338058 96 100 79
-64.499016 28.892574 -5.5289974 55 71 33
-64.29985 28.907421 -5.5131359 56 73 30
-64.117264 28.896763 -5.4997025 44 62 20
-63.90134 28.909014 -5.4849229 28 51 11
-63.699921 28.916176 -5.4654312 31 50 10
-63.509758 28.921949 -5.4655299 28 50 15
-63.325466 28.909197 -5.4956455 37 59 21
-63.110199 28.870291 -5.4621611 22 50 3
-62.183449 28.87866 -5.4814701 40 52 13
-61.664623 28.994345 -5.5930662 59 75 36
-61.462002 28.958605 -5.4960055 65 83 39
-61.314671 28.927385 -5.4864721 75 92 37
-61.191048 28.967024 -5.4192581 53 77 19
-60.829208 28.975204 -5.4914732 30 63 10
-60.717239 28.957499 -5.5549569 28 58 2
-60.26593 28.942377 -5.4816437 59 84 25
-59.582157 28.935438 -5.4299817 134 146 108
-66.102501 29.081997 -5.4226742 122 126 124
-65.898247 29.07913 -5.4429479 138 135 133
-65.72924 29.09329 -5.4705362 131 126 118
-65.567932 29.060501 -5.4626617 159 148 139
-65.298225 29.014669 -5.4013033 82 98 63
-65.015289 29.072504 -5.4228668 139 143 134
-64.869141 29.10405 -5.4294939 125 128 120
-64.686821 29.090664 -5.4733305 89 93 79
-64.490097 29.105013 -5.52456 72 82 60
-64.314804 29.099613 -5.5281658 58 75 40
-64.117599 29.081142 -5.5480504 40 61 22
-63.8964 29.093508 -5.5142469 20 45 8
-63.688023 29.103725 -5.5119987 21 47 9
-63.49509 29.112797 -5.4646177 27 48 13
-63.297062 29.120626 -5.4699817 19 40 5
-61.623886 29.108994 -5.4797049 53 73 26
-61.467796 29.091713 -5.4559507 70 85 41
-61.291637 29.135145 -5.4909477 63 82 31
-61.120064 29.140268 -5.4935217 47 66 14
-60.832085 29.145741 -5.4653487 41 77 19
-60.724586 29.118549 -5.4570041 47 79 19
-60.321598 29.082695 -5.4838037 72 92 35
-59.609711 29.056839 -5.4057798 120 129 82
-66.228775 29.271626 -5.4465704 122 127 122
-66.170425 29.267859 -5.4356585 102 105 103
-65.906075 29.263229 -5.4365892 115 111 109
-65.104576 29.296507 -5.5227909 148 166 175
-64.874512 29.26969 -5.419889 85 105 105
-64.689301 29.262085 -5.4312954 79 89 80
-64.483635 29.305407 -5.4642186 83 90 78
-64.302948 29.304348 -5.5160408 68 81 60
-64.096733 29.314217 -5.5474615 44 67 33
-63.893703 29.307781 -5.5292587 17 47 8
-63.694569 29.296032 -5.5070848 12 42 7
-63.500633 29.302816 -5.5105119 15 41 7
-63.295612 29.261707 -5.502049 25 43 8
-63.1609 29.203079 -5.5262132 36 54 12
-62.850452 29.350853 -5.4186225 38 68 26
-62.787151 29.290382 -5.4052496 36 69 26
-61.637745 29.310959 -5.4622469 58 75 30
-61.513046 29.307142 -5.477098 50 68 21
-61.306908 29.313311 -5.4983201 54 71 20
-61.129265 29.300735 -5.4740458 52 69 20
-60.943916 29.313627 -5.476903 55 77 25
-60.6917 29.299614 -5.5274901 45 71 12
-60.542149 29.348398 -5.4901567 74 86 34
-60.351406 29.343399 -5.4744 85 103 55
-60.105125 29.301357 -5.4858608 80 93 41
-64.87854 29.462782 -5.5531349 103 136 153
-64.632858 29.541752 -5.508544 104 136 153
-64.485306 29.451674 -5.4298749 85 95 87
-64.287964 29.473558 -5.475307 66 76 64
-64.104256 29.507559 -5.5190682 60 73 57
-63.906063 29.518103 -5.5465984 36 60 30
-63.707092 29.489237 -5.5154786 10 39 7
-63.490791 29.488283 -5.492259 10 37 5
-63.32848 29.48562 -5.4589701 29 47 12
-63.173481 29.495899 -5.5199909 40 49 15
-62.776245 29.572208 -5.4237041 53 79 38
-61.662106 29.542221 -5.4648056 66 86 35
-61.482948 29.516659 -5.512249 52 73 22
-61.308071 29.505472 -5.4994197 67 81 33
-61.118839 29.502508 -5.4751306 63 76 32
-60.923943 29.520172 -5.4861321 42 62 11
-60.68626 29.535639 -5.4726725 60 80 26
-60.533379 29.504734 -5.4659796 75 92 37
-60.338997 29.520611 -5.5096979 52 76 18
-60.089748 29.466747 -5.4069214 84 92 43
-59.68745 29.476124 -5.4116244 87 95 46
-59.527706 29.556944 -5.4319153 96 104 53
-64.653297 29.737337 -5.445672 119 150 168
-64.493774 29.702736 -5.4915638 112 136 148
-64.250816 29.62908 -5.4413686 80 91 86
-64.086098 29.690069 -5.4570699 68 79 71
-63.895733 29.698914 -5.4906259 44 62 44
-63.712906 29.714785 -5.5011358 26 51 27
-63.501564 29.703794 -5.4927206 31 52 24
-63.288067 29.711723 -5.4640689 42 57 22
-63.120033 29.679823 -5.4602222 42 58 15
-62.67165 29.70566 -5.462924 74 80 42
-62.533131 29.694433 -5.4660678 70 84 45
-62.210602 29.771585 -5.4560909 32 61 17
-61.801647 29.696363 -5.5581532 60 75 42
-61.651432 29.696032 -5.4842935 59 77 28
-61.495655 29.712383 -5.5188465 61 82 31
-61.295784 29.693859 -5.5078073 51 68 21
-61.0816 29.69429 -5.5030117 43 62 17
-60.899807 29.689867 -5.4749131 44 62 14
-60.70615 29.681952 -5.4436498 65 81 32
-60.503551 29.735132 -5.4568071 54 76 26
-60.340538 29.727566 -5.4617572 46 65 15
-60.088249 29.756924 -5.4173679 92 99 51
-59.901344 29.779755 -5.4250431 80 92 54
-59.477867 29.716394 -5.4935746 75 85 39
-59.264984 29.71158 -5.5027757 67 82 34
-59.17025 29.76853 -5.588881 42 64 19
-64.059052 29.844461 -5.4286847 73 86 81
-63.894993 29.882204 -5.452857 61 73 64
-63.695213 29.895792 -5.4889536 49 66 51
-63.50172 29.898958 -5.5029702 47 66 44
-63.327274 29.914988 -5.4847612 39 57 26
-63.128246 29.872753 -5.4200635 40 58 20
-62.955719 29.939964 -5.4322567 52 60 19
-62.718739 29.983791 -5.4392262 85 93 52
-62.477901 29.90667 -5.4548702 75 88 48
-62.262024 29.94714 -5.4741697 33 59 12
-61.903732 29.91106 -5.4511442 51 69 39
-61.641724 29.898155 -5.4626198 63 77 35
-61.490223 29.893843 -5.4883528 62 80 33
-61.2868 29.895533 -5.4852967 37 59 14
-61.081253 29.915821 -5.4836273 41 63 17
-60.905987 29.900564 -5.4639621 47 65 21
-60.687065 29.90741 -5.4720793 52 71 28
-60.468338 29.901516 -5.4439125 62 81 34
-60.347832 29.936773 -5.4274645 67 81 34
-60.095257 29.92312 -5.452919 70 82 39
-59.991718 29.871399 -5.4950719 100 112 67
-59.638 29.94738 -5.4717989 87 94 59
-59.539845 29.894156 -5.5027637 66 80 36
-59.27951 29.868181 -5.5337715 44 63 17
-59.11338 29.8927 -5.4786143 62 78 33
-58.430031 29.898537 -5.45507 103 107 73
-58.284691 29.877632 -5.4005551 103 105 68
-63.852737 30.052479 -5.4219365 73 87 81
-63.676075 30.06588 -5.4423194 73 85 74
-63.506706 30.091457 -5.4954777 60 73 59
-63.308044 30.091959 -5.4847016 42 57 33
-63.135925 30.124878 -5.4518781 52 64 33
-62.957886 30.033377 -5.4109559 47 59 21
-62.68161 30.080523 -5.4346042 55 66 26
-62.484207 30.102921 -5.477942 45 59 17
-62.307373 30.120886 -5.4419293 50 71 25
-62.097923 30.140284 -5.4748673 49 66 21
-61.891876 30.130484 -5.4447675 71 77 46
-61.711605 30.106396 -5.469151 75 78 49
-61.509827 30.093922 -5.4960914 53 66 23
-61.308754 30.111311 -5.4556818 46 64 19
-61.103683 30.096643 -5.4746261 37 58 12
-60.909782 30.101086 -5.4959326 48 68 22
-60.716003 30.118584 -5.4834104 54 72 26
-60.516232 30.089178 -5.4898167 66 80 36
-60.322556 30.085178 -5.4275608 83 95 51
