ply
format ascii 1.0
comment PCL generated
element vertex 1173
property float x
property float y
property float z
property uchar red
property uchar green
property uchar blue
element face 0
element camera 0
property float view_px
property float view_py
property float view_pz
property float x_axisx
property float x_axisy
property float x_axisz
property float y_axisx
property float y_axisy
property float y_axisz
property float z_axisx
property float z_axisy
property float z_axisz
property float focal
property float scalex
property float scaley
property float centerx
property float centery
property int viewportx
property int viewporty
property float k1
property float k2
end_header
37.614056 24.863047 -9.1657486 64 70 44
30.897257 25.061632 -9.0352077 132 129 146
31.057076 25.043516 -9.025526 111 108 132
31.37529 25.069927 -9.0182323 98 97 122
31.517553 25.084406 -9.0379152 109 107 131
31.671501 25.064461 -9.0337791 147 142 165
31.91745 25.106102 -9.043766 128 126 154
32.124783 25.110237 -9.0708847 117 114 140
32.293163 25.108168 -9.0893688 134 132 158
32.497898 25.095251 -9.0721045 136 132 152
32.686623 25.059896 -9.07792 122 121 106
32.800907 25.020191 -9.0448494 118 122 89
33.171135 25.122032 -9.0125332 83 94 72
33.311066 25.095303 -9.054904 99 105 76
33.505856 25.113037 -9.0780354 107 108 76
33.694412 25.09292 -9.1167259 120 118 85
33.899513 25.076889 -9.1196756 116 114 88
34.107708 25.066481 -9.1004391 97 99 67
34.313976 25.108969 -9.1186075 84 90 70
34.508629 25.08378 -9.1333342 83 86 66
34.692047 25.097462 -9.0829582 90 97 71
34.898956 25.105417 -9.0935545 94 99 76
35.091129 25.102255 -9.1061201 87 93 75
35.311123 25.097137 -9.1020231 95 100 79
35.515644 25.094688 -9.1047964 92 94 68
35.681248 25.104446 -9.1080303 101 104 78
35.900349 25.104273 -9.1158838 99 102 75
36.077526 25.108109 -9.1131592 95 98 71
36.274914 25.125233 -9.1011906 89 94 71
36.479214 25.088346 -9.1012583 77 85 64
36.711475 25.108372 -9.1141071 71 80 57
36.889297 25.116041 -9.1128883 70 80 58
37.099751 25.034567 -9.1322908 67 75 53
37.426552 25.011518 -9.1126833 74 85 51
31.592066 25.311378 -9.0176678 104 105 136
31.694046 25.313753 -9.0508947 122 120 145
31.885183 25.316587 -9.0354729 116 114 135
32.146847 25.289434 -9.0365896 111 106 125
32.289593 25.266924 -9.0588131 114 110 119
32.475941 25.274744 -9.0621414 135 130 136
32.615696 25.226051 -9.1530056 143 139 118
33.175575 25.310888 -9.0601816 104 115 81
33.313953 25.309385 -9.0832415 95 99 69
33.495518 25.292356 -9.1119442 104 105 75
33.678909 25.297377 -9.1381483 112 110 88
33.892834 25.309746 -9.1295404 99 100 80
34.113174 25.301228 -9.1253042 99 101 77
34.299377 25.323864 -9.1226368 93 97 74
34.510361 25.26997 -9.1109753 84 90 69
34.710205 25.279305 -9.1255989 87 92 69
34.886883 25.27062 -9.1109762 90 95 71
35.067192 25.296621 -9.1124258 98 101 80
35.311718 25.305925 -9.1056757 102 106 80
35.514675 25.290014 -9.0924444 103 106 81
35.717232 25.293123 -9.1297359 107 111 83
35.899345 25.30583 -9.108923 102 104 78
36.109241 25.317965 -9.0865355 100 101 75
36.291019 25.277025 -9.1125059 89 98 70
36.493111 25.268198 -9.1231041 96 107 79
36.690933 25.264795 -9.0844431 107 122 88
36.852325 25.260166 -9.1454773 134 152 122
31.143435 25.406118 -9.033349 132 135 168
31.501394 25.447939 -9.0197401 80 80 113
31.940126 25.495285 -9.0275316 109 106 127
32.072243 25.500128 -9.0313931 138 134 154
32.336071 25.41581 -9.0539284 129 126 123
33.169479 25.508202 -9.0185642 112 119 90
33.328602 25.495438 -9.068018 101 107 78
33.496235 25.496056 -9.0963402 113 111 80
33.700386 25.512505 -9.1042271 119 116 91
33.906063 25.517982 -9.1246891 107 108 85
34.091564 25.49375 -9.1179609 106 105 85
34.295101 25.504433 -9.152462 105 105 83
34.532261 25.501215 -9.1286659 96 100 76
34.705292 25.498507 -9.1089039 92 101 75
34.872398 25.514635 -9.1430063 91 98 71
35.095112 25.521141 -9.0929518 94 98 76
35.324364 25.490971 -9.1153088 101 103 78
35.492367 25.510197 -9.0941677 106 105 79
35.700649 25.4951 -9.0972023 102 102 79
35.906151 25.504663 -9.1077938 94 94 71
36.096581 25.502825 -9.0990849 90 91 68
36.219337 25.494776 -9.1180639 94 95 71
36.781158 25.552334 -9.0436888 63 69 39
31.315243 25.652172 -9.0427914 65 64 75
31.817413 25.61125 -9.0374079 158 148 183
32.087158 25.657545 -9.0101128 168 162 172
33.079926 25.70896 -9.0153694 109 112 90
33.318642 25.710749 -9.0367241 100 98 81
33.518181 25.714708 -9.0676537 109 105 84
33.694126 25.711073 -9.0838175 110 107 87
33.899719 25.702623 -9.0868416 115 112 88
34.087627 25.691093 -9.125186 107 104 90
34.282032 25.703846 -9.1249084 100 100 85
34.49902 25.681166 -9.1385489 101 102 81
34.694958 25.687607 -9.1156931 98 102 77
34.902836 25.697638 -9.1223764 91 97 72
35.105759 25.731817 -9.0938053 87 98 71
35.302975 25.680134 -9.1292992 96 101 74
35.511833 25.698677 -9.094161 95 101 77
35.70919 25.711916 -9.0876684 90 95 70
35.868774 25.682337 -9.0810308 88 90 67
36.071072 25.689825 -9.1040812 80 86 60
36.279655 25.723358 -9.0420046 87 96 74
36.71455 25.710213 -9.1068039 95 105 69
31.45903 25.840649 -9.0085182 151 148 191
31.611694 25.849298 -9.0211906 150 154 165
33.119205 25.892706 -9.0241346 104 106 81
33.33073 25.903851 -9.0481243 108 107 84
33.511238 25.896408 -9.0406122 110 108 86
33.693649 25.901669 -9.0829229 110 110 85
33.903408 25.896847 -9.0838184 110 110 87
34.116257 25.907955 -9.1194267 104 102 87
34.275372 25.901773 -9.1375694 106 101 88
34.454838 25.905453 -9.0992403 107 106 86
34.69389 25.888912 -9.1298714 105 108 85
34.892483 25.905481 -9.1134892 91 98 76
35.081718 25.888439 -9.0779715 88 98 73
35.328613 25.895443 -9.1227484 91 97 72
35.507462 25.877861 -9.1168337 87 93 67
35.696106 25.876867 -9.1467962 91 93 67
35.881329 25.895029 -9.1130438 94 104 74
36.075409 25.886887 -9.0896568 94 108 75
32.972286 26.086864 -9.0358562 97 100 81
33.128166 26.112808 -9.0323868 115 113 92
33.300098 26.109526 -9.06359 109 108 86
33.51329 26.067944 -9.0539131 113 112 94
33.708275 26.088148 -9.0683355 111 111 92
33.905132 26.098833 -9.1010551 109 108 95
34.093369 26.108482 -9.1231813 113 110 97
34.293072 26.069916 -9.1163778 108 104 91
34.493977 26.10133 -9.1196909 108 106 92
34.709389 26.136385 -9.1367102 112 112 93
34.916542 26.103762 -9.1005478 95 101 79
35.098827 26.088247 -9.093936 93 101 76
35.313065 26.104208 -9.0692062 85 93 69
35.506069 26.090307 -9.1208982 87 93 68
35.699421 26.090387 -9.1091385 93 95 67
35.916447 26.085165 -9.1154842 105 111 80
36.051628 26.085154 -9.1156178 101 115 82
33.130878 26.252388 -9.0292501 118 114 97
33.280132 26.281382 -9.0534668 119 118 96
33.540417 26.306028 -9.0355244 110 107 100
33.705925 26.283794 -9.0842819 116 115 98
33.89959 26.275705 -9.0862198 122 116 102
34.078693 26.302982 -9.0969639 121 114 107
34.289955 26.304943 -9.1237974 107 107 97
34.512192 26.316116 -9.1258059 107 106 94
34.684265 26.294514 -9.1162119 110 108 90
34.868454 26.324915 -9.1330585 108 110 86
35.092361 26.310646 -9.0815163 95 101 79
35.315422 26.273193 -9.11588 93 100 75
35.470848 26.281561 -9.1083479 85 92 69
35.693333 26.287371 -9.1023865 83 89 62
35.8591 26.275904 -9.1055307 98 99 69
36.064888 26.321991 -9.1159801 114 120 80
32.928074 26.415562 -9.0160704 133 124 117
33.143715 26.44351 -9.023324 116 109 98
33.370747 26.463079 -9.031786 106 106 83
33.530567 26.489857 -9.0494175 121 116 108
33.687534 26.50012 -9.0538759 125 120 107
33.905025 26.518978 -9.0398712 120 116 105
34.110882 26.503017 -9.0904169 124 117 105
34.307064 26.525515 -9.1313839 112 109 96
34.486156 26.499598 -9.1163473 108 106 96
34.699146 26.501123 -9.1067514 108 105 92
34.885883 26.502838 -9.1323233 105 105 85
35.11034 26.522364 -9.1155128 93 98 76
35.310272 26.49412 -9.1286249 93 99 78
35.503391 26.49279 -9.1011429 95 100 75
35.667194 26.414143 -9.0523233 66 73 48
35.8083 26.403755 -9.1879835 87 91 58
33.535473 26.678635 -9.0204983 117 112 105
33.682949 26.739899 -9.0337152 126 119 113
33.88168 26.668108 -9.0417957 125 119 105
34.115112 26.697044 -9.0705576 124 118 107
34.293541 26.690569 -9.109026 118 114 103
34.510841 26.702126 -9.1197386 111 110 98
34.704632 26.734322 -9.097764 112 110 95
34.884388 26.687838 -9.1137819 107 106 88
35.062611 26.710772 -9.1182518 97 100 81
35.32299 26.683132 -9.107275 91 98 70
35.436985 26.655516 -9.1156502 91 97 68
35.689762 26.640171 -9.1984529 82 86 59
33.525036 26.860546 -9.0208874 125 121 121
33.665516 26.845716 -9.0331678 131 123 120
33.91729 26.818523 -9.0515413 113 111 108
34.085274 26.83181 -9.0603294 130 127 117
34.316589 26.900515 -9.0700026 119 114 107
34.523628 26.935797 -9.0947838 116 114 104
34.700043 26.889126 -9.1141605 114 112 99
34.868793 26.902002 -9.085865 111 111 94
35.119427 26.893269 -9.1213884 104 106 84
35.298927 26.909435 -9.1929321 115 116 96
35.459152 26.821133 -9.1795082 93 93 67
34.083374 27.032732 -9.023139 106 114 103
34.328049 27.076366 -9.0659103 107 105 95
34.504105 27.089855 -9.0553226 109 110 100
34.695473 27.093309 -9.0647745 108 110 95
34.901466 27.104111 -9.0928507 107 110 91
35.073811 27.067286 -9.1634464 111 112 93
35.300941 27.010748 -9.1540098 109 103 86
34.359177 27.268036 -9.0405865 129 121 114
34.527626 27.302862 -9.0519676 109 109 103
34.692528 27.321072 -9.0749779 109 110 100
34.884079 27.29269 -9.1509733 111 112 96
35.069462 27.270088 -9.1434908 116 115 93
34.55965 27.466909 -9.0312281 110 114 100
34.681095 27.48562 -9.1060486 107 109 97
34.88728 27.435143 -9.1196938 113 116 100
35.038353 27.448439 -9.0947905 118 119 98
34.641956 27.651772 -9.0946102 104 106 93
34.908318 27.62886 -9.1164131 118 117 92
30.873371 14.771729 -8.9723701 77 77 50
31.094198 14.710747 -8.9036102 72 71 47
31.23093 14.62482 -8.9906769 63 63 39
30.704758 14.950985 -8.970252 84 83 58
30.923944 14.909926 -8.9472322 82 82 58
31.083786 14.930522 -8.9383888 83 81 59
31.342163 14.856272 -8.9621124 77 75 49
31.477396 14.927632 -8.9641237 87 85 58
30.552355 15.108644 -8.9276209 86 86 62
30.779669 15.160862 -8.9735851 89 86 61
30.856815 15.088621 -8.9318638 89 88 63
31.081287 15.111712 -8.9176245 87 84 57
31.297895 15.1154 -8.9443026 86 82 55
31.675014 15.056026 -8.990119 94 94 63
30.434376 15.242336 -8.9459839 82 76 51
30.720282 15.33725 -8.8429661 91 89 63
30.900644 15.297886 -8.9585609 85 84 58
31.105787 15.306605 -8.9053745 90 88 61
31.259897 15.253305 -8.897603 90 88 60
31.476934 15.290451 -8.9032326 80 82 57
31.670099 15.361629 -8.894865 76 79 52
31.905426 15.281649 -8.9898367 58 62 34
30.131714 15.508265 -8.9404907 81 79 54
30.357944 15.546985 -8.87041 89 86 61
30.42564 15.463631 -8.8935204 75 74 50
30.746372 15.505434 -8.9111633 93 91 63
30.913225 15.525649 -8.9454269 84 82 56
31.064074 15.468356 -8.9351425 83 80 54
31.296665 15.475782 -8.9139652 87 87 61
31.498983 15.534562 -8.9010553 65 70 45
31.73703 15.498448 -8.9588776 76 78 52
31.837557 15.573534 -8.9806681 75 76 49
32.009563 15.528115 -8.9538975 83 87 56
29.989307 15.68831 -8.9053955 82 78 51
30.187935 15.74657 -8.8178473 81 80 52
30.310678 15.739836 -8.9035892 95 96 69
30.42951 15.697502 -8.9098148 94 90 65
30.688225 15.725378 -8.8957682 89 94 62
30.889227 15.686194 -8.8844109 97 97 66
31.074331 15.667763 -8.9636269 88 88 56
31.377369 15.691458 -8.9350891 87 91 64
31.504192 15.725754 -8.9019527 69 73 47
31.707026 15.718106 -8.914772 72 77 49
31.903652 15.701208 -8.9611664 75 78 49
32.112988 15.701723 -8.9612293 68 74 48
32.298409 15.70228 -8.9532604 97 97 71
29.852186 15.830449 -8.9009581 84 81 54
30.101274 15.923748 -8.8996058 88 87 58
30.267769 15.939381 -8.9245386 93 92 63
30.434307 15.883685 -8.9028425 103 98 73
30.779045 15.899232 -8.8821945 80 83 54
30.882059 15.890456 -8.9153118 80 85 53
31.071878 15.927886 -8.916995 85 86 54
31.29541 15.890873 -8.9248304 79 85 56
31.498175 15.85496 -8.9329767 82 86 59
31.690939 15.908312 -8.9264231 81 85 55
31.841879 15.83923 -8.9394131 80 87 57
32.107895 15.930311 -8.9853363 64 64 42
32.225609 15.910233 -8.9766598 73 76 50
29.716372 16.152914 -8.906703 90 92 60
29.915394 16.109169 -8.8909655 82 83 54
30.015574 16.096447 -8.9209557 80 85 55
30.333811 16.08079 -8.9058723 88 86 59
30.406212 16.182013 -8.9618492 83 85 55
30.770967 16.076719 -8.9094486 87 93 65
30.897993 16.126678 -8.9036341 87 90 59
31.014122 16.117794 -8.9511299 95 91 66
31.271948 16.076593 -8.8588238 77 83 56
31.50176 16.087599 -8.9570284 78 81 53
31.746233 16.076462 -8.9604473 86 89 59
31.804369 16.096098 -8.9709635 83 88 55
32.15313 16.149162 -8.9177847 74 77 50
32.290638 16.137892 -8.9122047 75 79 52
32.502243 16.135061 -8.8975811 73 76 50
29.302301 16.368839 -8.9387102 98 95 62
29.550081 16.306332 -8.8999958 88 91 58
29.734573 16.311613 -8.9115229 88 88 58
29.900776 16.309423 -8.931881 89 88 59
30.138126 16.297935 -8.934227 74 77 47
30.32058 16.318567 -8.9226036 81 82 54
30.530514 16.303965 -8.8717108 90 94 63
30.649267 16.289988 -8.8676596 88 94 62
30.891266 16.328142 -8.8875923 87 90 58
31.111298 16.301584 -8.9392929 78 80 52
31.327316 16.278736 -8.8844824 80 83 58
31.540691 16.318527 -8.9266396 83 85 65
31.713154 16.316195 -8.9371929 84 83 60
31.92561 16.297297 -8.9432545 74 77 47
32.14069 16.301577 -8.9283161 77 79 50
32.289547 16.293581 -8.8904991 86 89 60
32.757637 16.278675 -8.9203568 75 82 61
28.989038 16.470692 -8.8898525 103 101 80
29.144714 16.502918 -8.9571381 91 88 58
29.314003 16.503622 -8.9268456 87 85 56
29.484516 16.489964 -8.9585619 93 95 64
29.70385 16.477154 -8.9025812 84 84 57
29.90678 16.504354 -8.9083767 86 86 60
30.096493 16.491896 -8.9338055 88 88 65
30.292576 16.527643 -8.9097834 88 89 61
30.487873 16.510033 -8.9189062 86 94 62
30.644081 16.501854 -8.8932533 79 85 53
30.923775 16.50246 -8.8996992 87 88 59
31.096754 16.541767 -8.9011316 85 87 61
31.347414 16.522551 -8.8958387 84 81 62
31.54237 16.486996 -8.9037933 96 87 77
31.635389 16.497448 -8.8775244 87 82 70
31.861856 16.514217 -8.921752 82 87 56
32.090355 16.478334 -8.9680519 80 81 53
32.29277 16.512352 -8.9012489 85 86 57
32.526485 16.538651 -8.8412209 77 79 63
32.695755 16.518696 -8.9696102 68 73 51
32.93087 16.535965 -8.8268528 63 70 39
28.940174 16.698544 -8.9428263 75 77 54
29.096481 16.684658 -8.9004221 85 82 58
29.292353 16.741575 -8.8925285 92 92 69
29.534885 16.701704 -8.9166164 87 88 63
29.742645 16.692463 -8.8624535 88 87 62
29.893873 16.671381 -8.9154119 78 81 56
30.127792 16.753771 -8.886075 81 83 54
30.280855 16.707502 -8.8988676 86 89 58
30.497528 16.682674 -8.961894 80 84 53
30.710278 16.706234 -8.8962069 79 82 52
30.911699 16.726854 -8.8946466 87 88 61
31.059561 16.709715 -8.9313135 85 86 58
31.315504 16.692799 -8.9550152 90 86 60
31.478617 16.690874 -8.9112606 94 84 68
31.715855 16.674892 -8.9575081 89 85 63
31.90028 16.672848 -8.9484339 90 95 60
32.111629 16.70038 -8.9606733 88 91 58
32.28907 16.711327 -8.8957224 86 90 57
32.511395 16.715405 -8.9069147 72 79 51
32.672565 16.661636 -8.8619709 70 75 54
32.861786 16.691845 -8.8991594 58 65 36
28.425228 16.933323 -8.9564953 72 73 50
28.776247 16.94883 -8.9411497 75 81 44
28.848503 16.894728 -8.8968229 82 86 58
29.114056 16.854429 -8.9063549 81 80 60
29.325129 16.89607 -8.9051256 74 72 50
29.496725 16.91194 -8.8909235 81 82 58
29.683899 16.855988 -8.8641214 85 87 65
29.866993 16.811367 -8.9382401 78 79 54
30.132456 16.940594 -8.9214401 71 73 46
30.242245 16.872478 -8.9355898 90 92 63
30.46381 16.804749 -8.9132538 76 79 53
30.746557 16.907623 -8.91047 75 81 50
30.87233 16.924955 -8.9273119 80 83 56
31.080288 16.906412 -8.9224482 85 87 54
31.294785 16.93194 -8.9265261 86 84 57
31.485512 16.931408 -8.9473457 85 86 55
31.699348 16.867506 -8.9116726 76 81 47
31.91824 16.928829 -8.9496975 72 77 46
32.073608 16.917599 -8.8654652 91 92 62
32.315132 16.910515 -8.909153 82 85 57
32.549171 16.853592 -8.9182177 68 74 44
32.705563 16.955374 -8.877368 69 76 46
32.850582 16.861013 -8.8857622 59 68 37
28.352175 17.141304 -8.9094677 82 82 61
28.499409 17.134235 -8.9013119 93 90 64
28.754078 17.104105 -8.8796492 87 92 58
28.897808 17.114155 -8.8850555 74 77 54
29.110258 17.108459 -8.9104319 66 68 49
29.32608 17.125736 -8.9207506 65 67 45
29.454811 17.105 -8.8669662 73 75 50
29.75042 17.124029 -8.9190769 73 76 51
29.911856 17.158098 -8.9615202 54 60 42
30.119368 17.103249 -8.8988829 76 80 50
30.20153 17.081598 -8.9022655 88 88 63
30.532936 17.187872 -8.9239559 56 66 39
30.697638 17.085873 -8.9177933 77 80 53
30.930878 17.073681 -8.8484392 79 81 57
31.127825 17.118214 -8.9052162 91 88 64
31.288202 17.068764 -8.9057417 92 89 64
31.480715 17.142998 -8.926713 88 88 58
31.659939 17.067173 -8.9380026 72 77 42
31.933096 17.087856 -8.895647 83 83 56
32.155872 17.165136 -8.8031139 93 89 74
32.282314 17.10574 -8.9101934 91 83 71
32.505981 17.096014 -8.9186935 75 79 54
32.725227 17.093718 -8.8738861 74 76 52
32.950504 17.138897 -8.889061 75 78 57
33.176384 17.18681 -8.8171959 71 81 47
27.968597 17.390114 -8.9804764 93 89 70
28.029758 17.371258 -8.9784632 86 83 63
28.303785 17.285517 -8.8969021 89 88 66
28.513622 17.313986 -8.8958426 90 84 57
28.721586 17.3081 -8.9219732 84 85 53
28.924694 17.306839 -8.9193821 75 75 50
29.110914 17.31131 -8.9396925 64 64 46
29.328695 17.294344 -8.8990583 65 67 48
29.424025 17.294926 -8.8398495 70 73 48
29.649937 17.276791 -8.9570122 65 67 47
29.896269 17.304956 -8.8916483 62 67 46
30.108465 17.303902 -8.9222593 68 72 47
30.265024 17.306046 -8.9586496 81 81 60
30.736481 17.318886 -8.9281769 63 67 43
30.90411 17.271202 -8.9205484 85 84 62
31.119534 17.324835 -8.9226332 85 82 59
31.288248 17.254824 -8.8627348 93 86 65
31.540937 17.330175 -8.8900146 102 93 73
31.673153 17.33433 -8.923583 90 85 61
31.885963 17.287731 -8.887742 87 84 58
32.172478 17.324394 -8.8558788 82 75 67
32.275211 17.295942 -8.8749046 80 78 61
32.548092 17.323759 -8.8634939 76 78 55
32.641335 17.328928 -8.9512796 79 83 69
27.882629 17.534214 -8.9729958 93 90 69
28.124191 17.487383 -8.8365536 88 86 62
28.259912 17.48177 -8.9072847 101 98 75
28.488735 17.483438 -8.8831758 87 84 62
28.697611 17.49781 -8.898675 85 88 59
28.91382 17.508335 -8.9101477 87 87 61
29.075197 17.462107 -8.9179792 74 76 57
29.292694 17.480265 -8.8903828 77 77 60
29.516815 17.52136 -8.9363775 59 60 40
29.681562 17.514179 -8.9105091 73 73 49
29.891386 17.505678 -8.8953924 68 69 45
30.078558 17.480028 -8.9504442 67 68 43
30.310951 17.479588 -8.9368343 68 70 48
30.551851 17.532856 -8.961627 63 66 39
30.696089 17.525974 -8.9229364 51 56 28
30.91416 17.496586 -8.8945818 63 63 39
31.12006 17.484505 -8.8844728 77 73 56
31.302048 17.50609 -8.8589869 92 88 65
31.512779 17.506023 -8.91784 90 88 59
31.673862 17.484377 -8.9374456 86 88 55
31.869471 17.495039 -8.8951693 79 76 51
32.092766 17.516693 -8.8637094 75 73 56
32.343735 17.471994 -8.8355532 82 80 62
32.441139 17.514626 -8.8789024 84 86 60
27.567554 17.790657 -8.9932747 85 82 62
27.723927 17.736712 -8.9144468 93 89 69
27.900311 17.692217 -8.9046946 89 86 67
28.099174 17.658529 -8.9287176 89 87 66
28.290609 17.665565 -8.9182138 84 81 63
28.50783 17.702208 -8.926259 94 91 74
28.693375 17.691536 -8.8951721 91 93 63
28.899837 17.710564 -8.9229326 81 83 57
29.093369 17.695293 -8.951932 80 80 63
29.308956 17.664669 -8.9018393 75 76 59
29.500488 17.761452 -8.8610163 70 69 48
29.694611 17.678778 -8.8518353 66 67 42
29.908701 17.675711 -8.914526 71 72 46
30.061144 17.705545 -8.9162416 77 77 52
30.273111 17.701681 -8.9134045 71 75 51
30.525152 17.743279 -8.9276295 61 65 40
30.700756 17.716482 -8.8896351 65 66 37
30.880264 17.695662 -8.9004545 64 63 38
31.092646 17.616714 -8.8251934 86 77 71
31.338451 17.69681 -8.8780899 85 81 59
31.505371 17.710703 -8.9119511 83 84 53
31.698311 17.690847 -8.9132929 84 87 55
31.892805 17.663855 -8.8982468 76 76 52
32.14006 17.764059 -8.808485 55 63 34
32.346134 17.679428 -8.8497458 76 80 56
32.427193 17.665499 -8.8677197 71 77 56
27.538557 17.943979 -8.9247084 93 87 65
27.716116 17.901524 -8.9007902 88 82 64
27.887171 17.894356 -8.9011879 80 81 61
28.073685 17.919941 -8.8816004 77 76 57
28.311646 17.936907 -8.9133644 81 79 60
28.506718 17.891727 -8.8779497 91 90 72
28.695694 17.866104 -8.8746719 87 89 67
28.896551 17.899849 -8.9275579 77 79 57
29.085329 17.915787 -8.9281979 67 69 48
29.323891 17.904984 -8.9078989 75 75 58
29.482035 17.885057 -8.8896952 75 72 44
29.668232 17.928146 -8.8963413 75 79 46
29.914328 17.918573 -8.8527145 74 77 46
30.116812 17.908161 -8.9225626 76 80 53
30.333462 17.911879 -8.9089327 72 74 50
30.539083 17.912313 -8.8975935 69 71 41
30.676554 17.90044 -8.9063835 70 71 44
30.886917 17.876945 -8.9009686 71 72 46
31.29928 17.872602 -8.9055929 83 81 61
31.514536 17.887346 -8.900116 71 76 48
31.69306 17.892319 -8.8994312 62 70 39
31.862741 17.89105 -8.9061327 67 72 43
32.101173 17.85947 -8.8678207 60 67 39
32.314827 17.875401 -8.8316345 75 81 60
32.407848 17.932491 -8.8136129 59 66 42
27.285076 18.117613 -8.9773836 83 79 60
27.523951 18.093897 -8.9211607 94 89 68
27.694134 18.110102 -8.9307575 92 85 67
27.900423 18.10512 -8.8991594 80 80 62
28.130011 18.126219 -8.9103594 91 87 68
28.307037 18.09709 -8.9211493 86 84 66
28.522009 18.090311 -8.9203863 80 78 59
28.689062 18.063427 -8.9277668 81 81 61
28.917345 18.111752 -8.9131327 76 78 58
29.109207 18.103548 -8.9059553 85 84 60
29.310966 18.09313 -8.911274 90 88 64
29.478632 18.091022 -8.8991098 85 86 51
29.71069 18.182547 -8.9755983 56 66 31
29.904058 18.109316 -8.8967447 81 84 53
30.081219 18.096012 -8.9043865 73 78 51
30.329338 18.10001 -8.9228573 74 78 52
30.518513 18.10149 -8.8947239 67 70 41
30.693769 18.112938 -8.9126606 81 79 54
30.92893 18.091835 -8.9188318 76 74 51
31.183567 18.083858 -8.8607864 97 98 80
31.287592 18.084614 -8.8380489 78 78 59
31.495588 18.116829 -8.8728256 77 79 56
31.717762 18.086279 -8.8650208 67 72 48
31.907801 18.083269 -8.8845081 71 74 48
32.091343 18.092815 -8.8901978 67 69 46
32.309422 18.171812 -8.811532 61 66 47
34.334736 18.114849 -8.9667311 37 52 22
34.444981 18.183239 -8.9893284 54 70 34
34.745335 18.084478 -8.9882984 33 49 12
27.164118 18.285566 -8.9948082 97 95 73
27.319567 18.331722 -8.9333477 110 103 86
27.544477 18.30434 -8.8921137 101 93 74
27.674862 18.310854 -8.91329 102 95 74
27.90337 18.310148 -8.8955984 92 90 68
28.11471 18.285246 -8.8878279 91 87 67
28.333635 18.327148 -8.898922 94 90 67
28.491863 18.294933 -8.8982372 95 91 72
28.698555 18.329744 -8.8967714 92 84 66
28.897308 18.327679 -8.8926544 96 92 71
29.123693 18.299421 -8.9104395 104 100 69
29.295097 18.28686 -8.8894367 87 84 61
29.494219 18.309889 -8.8997421 89 86 53
29.673307 18.32547 -8.9008684 88 91 56
29.904524 18.304054 -8.8932028 78 82 51
30.161732 18.281244 -8.926424 80 78 55
30.267569 18.311649 -8.9571142 82 78 58
30.540804 18.30513 -8.9305477 80 80 58
30.689083 18.320591 -8.8885756 75 77 50
30.88888 18.294498 -8.9070759 75 78 52
31.104347 18.371031 -8.8817949 67 69 48
31.253174 18.343538 -8.8607903 71 74 52
31.501755 18.322176 -8.8892422 76 78 56
31.684341 18.246462 -8.9021006 66 64 50
31.942781 18.307844 -8.9072638 77 77 57
32.055878 18.277687 -8.8500519 77 77 58
32.379807 18.221033 -8.8140345 90 90 66
32.477917 18.353823 -8.813345 63 65 44
34.099819 18.326525 -8.8817387 49 63 30
34.311901 18.316092 -8.9129457 54 66 34
34.465328 18.287697 -8.93155 56 66 35
34.681561 18.261555 -8.8876381 50 61 24
27.16783 18.527645 -8.9159918 95 93 74
27.307207 18.485687 -8.9136133 101 98 79
27.50736 18.47473 -8.9168472 102 97 75
27.665815 18.511623 -8.8894081 111 103 84
27.917223 18.535973 -8.9004469 103 101 78
28.098177 18.501242 -8.9454145 101 100 78
28.296963 18.469601 -8.9138966 100 95 69
28.494076 18.519678 -8.9074221 95 89 69
28.664652 18.468777 -8.9452562 94 87 62
28.912445 18.481398 -8.9195967 108 102 71
29.089794 18.490896 -8.9187164 114 104 71
29.326696 18.505402 -8.877284 98 96 62
29.49687 18.509399 -8.9321709 113 103 60
29.671984 18.498381 -8.9099293 104 99 63
29.901325 18.490156 -8.9027367 80 81 53
30.120871 18.48904 -8.9122791 79 75 49
30.293999 18.492411 -8.9196367 80 81 57
30.509737 18.526693 -8.9114876 65 68 41
30.716427 18.488726 -8.9243717 64 70 40
30.917208 18.516933 -8.9018459 78 80 54
31.078901 18.500587 -8.9171381 60 65 39
31.38361 18.446712 -8.8770294 97 93 78
31.472797 18.488699 -8.8829603 82 78 65
31.734331 18.539557 -8.8579683 64 72 48
31.879438 18.465425 -8.8598738 80 79 62
32.002129 18.585878 -8.8188906 86 82 68
32.28096 18.483095 -8.8950329 54 58 36
33.4375 18.553925 -8.8458443 45 46 30
33.907639 18.550404 -8.8599825 53 62 36
34.096035 18.461685 -8.891983 54 67 35
34.267986 18.499718 -8.8790598 52 63 36
34.466869 18.481855 -8.8792715 59 69 34
34.66555 18.552265 -8.963335 74 84 41
34.994694 18.575583 -8.8650246 61 79 36
35.130722 18.547325 -8.9356747 46 63 19
26.708448 18.779829 -8.9908333 100 98 72
26.936493 18.779408 -8.8896179 102 95 81
27.083487 18.670713 -8.9137526 94 90 71
27.309805 18.725767 -8.8917513 92 92 72
27.472952 18.687563 -8.8919802 97 95 75
27.709673 18.70105 -8.8939486 91 90 71
27.932327 18.652184 -8.9000235 95 97 74
28.089813 18.69968 -8.8913565 90 89 66
28.300371 18.703552 -8.923316 95 91 69
28.502787 18.729176 -8.8910084 107 98 77
28.71895 18.692846 -8.8986511 98 91 61
28.897261 18.700842 -8.8990116 106 95 60
29.111988 18.709179 -8.9226866 120 106 72
29.322088 18.700819 -8.8613796 107 103 73
29.52383 18.686245 -8.8958406 103 96 61
29.679319 18.720343 -8.9180565 123 106 68
29.897356 18.674236 -8.9165554 100 90 58
30.10593 18.716089 -8.8715525 94 93 63
30.312653 18.689528 -8.9028349 74 78 48
30.463408 18.686697 -8.9086428 72 74 43
30.689732 18.706882 -8.8968182 80 86 51
30.933664 18.699299 -8.8949347 68 75 43
31.091444 18.706446 -8.8929682 79 82 52
31.263672 18.762096 -8.9272947 71 69 49
31.538353 18.696581 -8.819458 72 75 59
31.676559 18.661001 -8.8552036 75 82 56
31.956314 18.652657 -8.8167791 82 76 57
32.061882 18.733494 -8.8864202 76 79 55
33.247429 18.745981 -8.8330193 48 57 32
33.480198 18.76302 -8.8351622 46 53 29
33.697617 18.76322 -8.8987474 56 65 37
33.900047 18.715467 -8.8980656 66 76 39
34.128105 18.739948 -8.8637276 56 67 36
34.312065 18.670687 -8.8808374 59 70 40
34.481972 18.699041 -8.9060135 60 69 37
34.686932 18.687843 -8.8663797 68 74 48
35.094639 18.71792 -8.870863 60 78 34
35.304195 18.715597 -8.9403162 66 79 37
26.716633 18.943876 -8.9058018 102 96 80
26.907526 18.91791 -8.89814 93 88 74
27.085449 18.822113 -8.8946352 92 89 72
27.278955 18.922668 -8.9073591 86 87 67
27.486071 18.923738 -8.9028206 83 85 68
27.671417 18.877037 -8.9131126 82 84 68
27.891563 18.898537 -8.9276199 80 82 66
28.086061 18.891003 -8.9364758 87 86 70
28.308289 18.863539 -8.8888359 90 88 67
28.497129 18.886217 -8.8818264 106 101 75
28.713043 18.909319 -8.8970146 109 100 72
28.90312 18.935631 -8.8964891 120 103 69
29.089512 18.840195 -8.9105959 120 102 68
29.299149 18.932459 -8.8892488 113 103 70
29.525295 18.912132 -8.9252195 94 90 55
29.68877 18.904583 -8.8714952 111 98 62
29.874205 18.858757 -8.8775387 104 97 60
30.083523 18.916374 -8.907752 100 97 60
30.314318 18.905212 -8.8897552 84 91 54
30.507757 18.885206 -8.8932867 76 84 48
30.673786 18.889799 -8.9027214 79 86 48
30.89782 18.917582 -8.9143801 78 86 51
31.097326 18.905779 -8.8977108 78 79 49
31.276859 18.924376 -8.9175968 73 72 52
31.585548 18.880596 -8.8060532 78 77 62
32.055779 18.899523 -8.8764658 74 77 57
33.144012 18.876808 -8.8053274 40 50 22
33.309662 18.962198 -8.9588127 59 69 36
33.491505 18.887606 -8.8450928 54 61 40
33.726952 18.890972 -8.8629169 62 71 41
33.937439 18.91013 -8.8744812 63 74 40
34.124428 18.899118 -8.8945742 60 68 40
34.305565 18.930126 -8.9059906 63 73 41
34.454475 18.860743 -8.8729162 58 67 39
34.696022 18.967178 -8.8427572 67 78 51
35.068287 18.908005 -8.9620447 62 72 36
35.312511 18.809164 -8.8801041 89 102 59
26.517782 19.092398 -8.9368849 108 100 87
26.713795 19.087654 -8.9239445 102 97 83
26.915384 19.09906 -8.9494562 92 91 75
27.093016 19.063232 -8.9265194 90 90 75
27.332197 19.137255 -8.8897505 81 83 76
27.504799 19.057178 -8.9168148 86 86 74
27.647799 19.09252 -8.8990154 89 88 77
27.891163 19.12302 -8.9233627 87 88 74
28.142393 19.114531 -8.8967505 92 90 74
28.289015 19.10074 -8.9127293 105 98 79
28.489017 19.105669 -8.9026346 103 100 78
28.713484 19.062571 -8.8936758 111 101 74
28.890356 19.104086 -8.8894787 113 101 68
29.096947 19.130438 -8.8919239 119 104 66
29.310909 19.073185 -8.9215031 99 94 62
29.480745 19.112381 -8.9200745 108 100 67
29.693233 19.078739 -8.8933554 114 101 63
29.905964 19.100439 -8.8870335 101 96 59
30.096172 19.109884 -8.8920851 105 97 64
30.290154 19.089689 -8.9179249 88 95 58
30.5173 19.088205 -8.9098558 82 90 55
30.695099 19.092854 -8.9153662 87 92 55
30.884634 19.109182 -8.9169893 81 88 56
31.097607 19.1059 -8.9163465 81 85 57
31.298529 19.110472 -8.9356318 69 72 47
31.463882 19.105282 -8.925724 71 72 47
31.703623 19.114723 -8.8654852 63 68 43
32.072727 19.132162 -8.8760195 60 64 39
32.571503 19.151175 -8.9067698 57 60 36
32.677937 19.117817 -8.8569536 57 66 40
33.032494 19.140322 -8.8688602 55 65 38
33.271843 19.019806 -8.8157892 59 73 38
33.596684 19.136566 -8.8886099 72 80 44
33.726028 19.144892 -8.8527126 68 77 41
33.909386 19.112783 -8.8938942 60 70 38
34.115097 19.100863 -8.876832 65 73 43
34.295193 19.106691 -8.8664427 64 77 43
34.493259 19.087997 -8.8476973 67 80 51
34.729534 19.144457 -8.8456659 67 75 50
34.910477 19.110867 -8.8818712 70 79 45
35.111187 19.118025 -8.9076815 69 78 37
35.268524 19.121788 -8.9592094 72 80 37
26.195993 19.268192 -8.9777422 115 107 83
26.340117 19.315575 -8.9267826 115 112 87
26.468092 19.314825 -8.9315348 113 110 89
26.670223 19.283302 -8.9254389 99 93 81
26.861588 19.247524 -8.8793716 94 90 86
27.130051 19.286999 -8.910121 85 84 85
27.267931 19.308947 -8.9035883 94 92 102
27.530207 19.279791 -8.8855639 99 95 103
27.723654 19.267117 -8.9035254 87 86 86
27.922144 19.310013 -8.9440689 90 86 98
28.094681 19.295633 -8.9297485 93 87 77
28.299908 19.28833 -8.9034328 105 98 79
28.49991 19.321503 -8.8996534 90 89 71
28.70434 19.292387 -8.9171867 92 87 67
28.914085 19.285484 -8.895462 94 87 63
29.070154 19.31646 -8.9080687 87 85 60
29.303001 19.31292 -8.9032984 98 95 64
29.50959 19.287762 -8.9091663 118 106 65
29.719801 19.320963 -8.8893738 104 100 60
29.917366 19.312649 -8.897871 106 100 65
30.105619 19.291071 -8.8975706 95 92 59
30.311674 19.292849 -8.9159145 84 88 58
30.499302 19.31497 -8.8997097 85 90 61
30.690119 19.300634 -8.9186144 74 80 49
30.937254 19.285469 -8.9057531 70 74 51
31.099628 19.311878 -8.8980045 78 81 59
31.301155 19.321678 -8.9196949 71 77 49
31.52804 19.301699 -8.9214582 70 75 46
31.690598 19.298273 -8.8871908 66 74 45
31.906076 19.316555 -8.8918476 59 68 40
32.039085 19.284876 -8.8906879 55 59 34
32.263542 19.342525 -8.8118591 75 81 54
32.581871 19.336529 -8.8637972 40 45 23
32.702763 19.260134 -8.8757391 54 60 37
32.839779 19.240389 -8.8907776 55 61 36
33.507542 19.3601 -8.9430695 60 77 43
33.719421 19.303905 -8.886487 76 81 53
33.912273 19.305248 -8.8687716 65 75 44
34.112705 19.301048 -8.8863707 63 70 43
34.297733 19.291677 -8.8826065 62 75 40
34.508022 19.278086 -8.8556986 61 72 44
34.683552 19.314165 -8.9062157 60 70 39
34.916611 19.29249 -8.8899336 64 74 49
35.098782 19.31637 -8.9114065 63 73 40
35.290489 19.311455 -8.9227629 67 78 40
35.487263 19.31698 -8.9595461 74 80 43
35.648949 19.391478 -8.9596386 76 80 54
25.926468 19.537378 -8.9165459 116 108 85
26.102468 19.514673 -8.9304762 105 102 82
26.338398 19.515383 -8.8989792 106 109 80
26.468739 19.486462 -8.9235458 106 102 88
26.658775 19.531794 -8.9061441 90 85 93
26.910141 19.528627 -8.9232359 108 102 125
27.127241 19.512045 -8.9140635 113 109 136
27.277802 19.537516 -8.9071064 145 138 174
27.449381 19.492384 -8.9322557 131 123 160
27.729467 19.508415 -8.920166 84 79 103
27.930145 19.487181 -8.891675 100 94 110
28.077402 19.465862 -8.9098186 90 83 85
28.280872 19.533587 -8.8927765 76 74 69
28.469931 19.492697 -8.9160471 84 86 71
28.65744 19.473497 -8.8966684 79 78 65
28.909708 19.487635 -8.8724098 79 77 61
29.11084 19.468868 -8.910737 81 86 63
29.310551 19.491907 -8.8826847 99 98 66
29.498648 19.4986 -8.9118528 118 105 67
29.704229 19.483431 -8.9031219 94 93 58
29.87941 19.487612 -8.9198055 98 95 62
30.09087 19.514408 -8.8984547 86 87 59
30.305246 19.494289 -8.9103489 77 80 59
30.476688 19.525646 -8.9004011 73 79 55
30.678257 19.503916 -8.8937302 73 79 54
30.902382 19.5243 -8.9236803 77 81 60
31.086433 19.504782 -8.91961 79 81 62
31.284836 19.511583 -8.9191856 74 82 54
31.485094 19.501888 -8.9016981 71 76 47
31.729471 19.492939 -8.9185619 74 77 51
31.890879 19.501791 -8.8969383 64 72 42
32.100719 19.437727 -8.8956556 63 73 44
32.449963 19.556559 -8.8375826 59 63 38
32.6782 19.413033 -8.9208488 62 66 43
33.228073 19.436703 -8.814456 49 53 26
33.694611 19.501444 -8.8829651 68 73 46
33.887127 19.505129 -8.8842964 64 77 44
34.10244 19.506453 -8.8956881 61 71 44
34.307255 19.533321 -8.9181366 50 64 29
34.503216 19.490784 -8.8968554 59 72 39
34.728245 19.500841 -8.907711 59 72 40
34.888416 19.51053 -8.9049463 59 72 43
35.10302 19.504894 -8.9260769 63 72 45
35.291534 19.497574 -8.8964119 68 77 47
35.486031 19.517981 -8.9277201 74 80 45
35.665993 19.535446 -8.9492102 67 78 45
25.760292 19.784328 -8.8556023 104 98 81
25.930191 19.715334 -8.9075584 103 98 77
26.095091 19.691656 -8.9321222 103 101 78
26.281021 19.705866 -8.9321976 93 96 77
26.441235 19.678183 -8.9462528 88 88 82
26.742615 19.728168 -8.9291506 126 119 154
26.903646 19.745714 -8.9310265 105 100 133
27.098249 19.725889 -8.8925581 120 116 150
27.296682 19.710541 -8.8966494 102 96 126
27.474127 19.714195 -8.909153 132 126 161
27.669992 19.705036 -8.9291153 115 109 142
27.891233 19.673088 -8.9069624 107 102 131
28.092743 19.696819 -8.9144106 99 94 114
28.299715 19.721018 -8.9054575 83 79 93
28.491255 19.6936 -8.8897648 69 69 67
28.676697 19.663815 -8.9143438 97 95 99
28.918596 19.727383 -8.9021168 84 83 70
29.106089 19.716705 -8.9184351 88 88 68
29.293724 19.716478 -8.8894444 101 96 70
29.486134 19.708599 -8.917963 111 100 70
29.700226 19.709913 -8.8964157 84 88 59
29.917604 19.687323 -8.91395 85 87 55
30.095079 19.689421 -8.9220686 79 81 54
30.294884 19.704918 -8.9110718 69 74 54
30.507065 19.710176 -8.9010258 68 73 52
30.698484 19.70446 -8.9000311 68 73 49
30.893814 19.68956 -8.9039669 68 77 48
31.09664 19.715887 -8.8977585 73 79 57
31.296091 19.70466 -8.8977089 71 77 51
31.471506 19.711176 -8.9101944 76 80 49
31.683123 19.677717 -8.8838577 85 86 58
31.854076 19.681618 -8.898922 68 76 48
32.243828 19.766113 -8.9231634 86 96 62
32.547455 19.727558 -8.8792887 72 76 53
32.735443 19.720665 -8.8888311 67 69 48
32.828663 19.732546 -8.867383 63 67 44
33.350037 19.728256 -8.8544769 60 70 42
33.517288 19.697977 -8.8884773 66 70 51
33.688148 19.694077 -8.8935213 62 69 44
33.905312 19.722 -8.8797655 64 76 45
34.078918 19.707443 -8.8931217 62 72 47
34.284733 19.680895 -8.8964014 59 75 38
34.501797 19.740007 -8.8744116 59 78 38
34.715981 19.700293 -8.8974876 56 70 45
34.899311 19.705711 -8.9031382 62 73 47
35.097534 19.698746 -8.915061 66 74 53
35.309994 19.687241 -8.8988333 74 79 52
35.505142 19.708136 -8.8956547 69 77 44
35.694561 19.715229 -8.9200478 77 86 49
35.865986 19.704538 -8.9429426 94 98 61
25.563316 19.906784 -8.9254513 122 119 95
25.718803 19.859047 -8.8942747 120 113 89
25.897713 19.910135 -8.9072809 124 120 86
26.111538 19.90844 -8.9248037 103 103 76
26.284454 19.887066 -8.8927355 91 90 99
26.489361 19.924126 -8.9504843 112 105 134
26.725702 19.915436 -8.933075 138 130 165
26.922636 19.91753 -8.9349766 125 119 152
27.101837 19.904327 -8.9050617 114 110 143
27.326847 19.925173 -8.8813334 94 93 121
27.512091 19.911055 -8.9150829 107 102 134
27.697569 19.911501 -8.9128456 101 99 128
27.915535 19.901775 -8.9148149 92 90 118
28.112892 19.923679 -8.8950281 102 99 127
28.323994 19.91012 -8.8929758 86 84 106
28.505957 19.883757 -8.9093761 90 87 108
28.705305 19.902899 -8.9005919 124 120 143
28.89782 19.918901 -8.9101133 86 85 79
29.102032 19.928507 -8.9067669 87 88 69
29.276331 19.883921 -8.888175 87 88 67
29.506418 19.897907 -8.9105082 84 86 68
29.689522 19.896435 -8.8968239 77 79 62
29.910009 19.917057 -8.9125214 71 74 56
30.118673 19.876019 -8.9429054 73 77 59
30.324034 19.870195 -8.917201 66 71 54
30.515018 19.904821 -8.9383602 62 69 46
30.704662 19.886425 -8.9074059 63 69 49
30.906565 19.918894 -8.905921 69 78 49
31.083633 19.889086 -8.9141102 65 72 54
31.305508 19.90761 -8.9113855 69 74 49
31.500303 19.917778 -8.8889017 74 81 50
31.651859 19.901829 -8.895318 70 76 47
31.869825 19.914637 -8.879775 69 79 51
32.33654 19.84247 -8.8690681 69 74 52
32.483967 19.866436 -8.8551693 60 68 44
32.68042 19.877144 -8.8347082 66 68 46
32.941948 19.91094 -8.8646336 58 66 42
33.044022 19.930029 -8.8979349 54 63 38
33.301781 19.949371 -8.8308783 67 66 57
33.504799 19.896084 -8.8970919 64 64 53
33.66227 19.889954 -8.9215469 61 65 42
33.922596 19.915428 -8.8858662 66 77 50
34.080261 19.891064 -8.9049482 63 76 46
34.307629 19.885027 -8.8856544 67 83 46
34.482079 19.899527 -8.8852882 63 80 40
34.68478 19.899405 -8.8883142 67 78 49
34.939819 19.918341 -8.8948603 72 81 55
35.114124 19.899111 -8.8900528 76 84 59
35.310379 19.898815 -8.9057951 72 81 47
35.518654 19.880539 -8.9096155 72 83 55
35.717999 19.89538 -8.9201527 75 83 47
35.889893 19.888277 -8.9144411 85 87 56
36.073196 19.897675 -8.953537 82 88 58
36.231949 19.996637 -8.9760532 97 105 74
25.550539 20.01108 -8.8732576 115 115 89
25.952301 20.058479 -8.9166994 129 131 84
26.107632 20.089979 -8.9056845 106 110 80
26.282602 20.125847 -8.9273987 106 103 114
26.520731 20.107655 -8.9004326 98 93 117
26.660923 20.090984 -8.9180202 108 104 129
26.919252 20.085617 -8.9010286 124 119 153
27.106539 20.135078 -8.9135828 98 96 124
27.295042 20.103561 -8.9048204 93 95 122
27.514034 20.118494 -8.9091616 97 96 123
27.699009 20.111979 -8.9117575 108 106 134
27.893559 20.115265 -8.9052296 95 93 122
28.089951 20.111095 -8.894886 101 101 129
28.304268 20.10405 -8.909791 106 104 134
28.497158 20.112715 -8.8968668 103 102 131
28.688046 20.102978 -8.9002666 105 103 127
28.897842 20.095886 -8.9114332 75 78 79
29.123596 20.089323 -8.8612432 83 85 68
29.326 20.117184 -8.895503 80 83 68
29.513794 20.079428 -8.8879118 86 92 77
29.70895 20.10622 -8.9112606 79 85 66
29.904175 20.070816 -8.945796 74 80 60
30.057693 20.11602 -8.9435406 68 74 57
30.271023 20.098614 -8.9516468 59 69 49
30.513752 20.127869 -8.9300995 62 73 49
30.71307 20.061558 -8.969677 64 71 50
30.913124 20.095493 -8.9133997 65 73 54
31.098297 20.103691 -8.9141407 65 69 54
31.285225 20.098574 -8.9019108 70 72 54
31.496273 20.095524 -8.902833 77 80 53
31.701303 20.109205 -8.921545 71 76 53
31.819738 20.087038 -8.9884529 80 81 59
32.487297 20.110891 -8.8754005 61 66 47
32.723949 20.122572 -8.8941078 55 63 38
32.895657 20.115046 -8.8959179 51 56 37
33.095322 20.094742 -8.8919725 52 61 34
33.326424 20.117428 -8.8729372 59 64 47
33.478481 20.09605 -8.8713703 61 67 47
33.712608 20.105907 -8.8978615 60 72 39
33.886662 20.083044 -8.9031734 66 78 45
34.095333 20.085958 -8.8833723 70 81 48
34.301762 20.093391 -8.9181747 78 89 51
34.495304 20.140074 -8.9235144 80 91 56
34.719257 20.094231 -8.9123669 77 90 54
34.909279 20.135197 -8.88239 82 94 58
35.114059 20.090004 -8.8891554 78 88 59
35.303089 20.126528 -8.9118567 77 86 57
35.496429 20.103821 -8.9367666 73 83 53
35.704742 20.105043 -8.9589071 78 87 62
35.909931 20.115379 -8.9449053 77 85 55
36.085758 20.118172 -8.9193249 80 86 54
36.276321 20.108585 -8.9504223 74 83 51
25.385796 20.389439 -8.8889542 107 99 88
25.496189 20.342129 -8.8684597 106 101 78
25.680548 20.372728 -8.8237734 100 97 69
25.925964 20.302488 -8.8144579 95 99 61
26.13246 20.298174 -8.890214 90 92 74
26.28961 20.32494 -8.9015436 100 96 116
26.504318 20.293812 -8.9178972 103 98 122
26.692644 20.30171 -8.907361 91 88 112
26.898499 20.294605 -8.9219179 116 111 136
27.089151 20.287769 -8.9201021 125 121 149
27.287973 20.294624 -8.9210358 123 121 156
27.502563 20.295864 -8.9375019 111 106 131
27.70553 20.312675 -8.8864794 87 88 113
27.922092 20.304026 -8.9210262 104 103 130
28.105217 20.302927 -8.8966227 95 96 125
28.299501 20.329212 -8.8973503 121 119 153
28.505615 20.318653 -8.8711834 99 101 129
28.699097 20.293182 -8.8793221 97 97 121
28.899338 20.311747 -8.8801947 90 91 108
29.108908 20.316469 -8.9210596 73 75 84
29.292625 20.213352 -8.9427729 78 80 69
29.514894 20.339447 -8.8840942 74 82 65
29.687164 20.267418 -8.9211931 82 89 69
29.89485 20.290129 -8.9213362 95 100 94
30.07958 20.345522 -8.9625273 101 103 105
30.289007 20.263214 -8.97721 65 76 59
30.522194 20.328245 -8.9130135 56 66 46
30.681087 20.303787 -8.9450731 68 78 58
30.944441 20.269289 -8.9104738 68 73 56
31.133114 20.273626 -8.896409 64 69 49
31.312859 20.306414 -8.9059076 72 73 59
31.496853 20.305319 -8.919899 76 76 56
31.675419 20.299803 -8.9064817 70 76 52
32.013336 20.38802 -8.8839254 54 54 30
32.339512 20.298084 -8.8743372 53 63 40
32.495407 20.284956 -8.8828068 53 63 38
32.73296 20.290861 -8.905858 57 63 38
32.895626 20.300207 -8.9044676 52 58 35
33.06543 20.310646 -8.8670921 58 67 38
33.342579 20.253904 -8.8413 70 73 59
33.538528 20.265244 -8.8766298 74 81 58
33.715401 20.311922 -8.9001303 62 71 48
33.900082 20.293024 -8.8751373 67 72 43
34.126965 20.293409 -8.9217463 77 89 53
34.305431 20.316851 -8.8711967 72 86 48
34.48848 20.29863 -8.8862896 72 85 45
34.711769 20.333122 -8.8764086 84 95 60
34.87949 20.286909 -8.8963623 83 93 60
35.105728 20.292479 -8.8930454 86 97 65
35.29599 20.289978 -8.8990707 84 95 67
35.500496 20.294439 -8.9399643 70 80 57
35.696865 20.322657 -8.9456444 67 79 49
35.897167 20.304123 -8.924242 74 86 56
36.117176 20.282568 -8.884614 80 86 61
36.316975 20.310514 -8.9002132 85 93 71
36.465752 20.32917 -8.966239 78 92 61
25.363174 20.494576 -8.8863783 111 103 83
25.494011 20.505383 -8.8662148 114 105 87
25.675962 20.491142 -8.8525925 110 107 77
25.889486 20.470987 -8.8188934 103 103 74
26.115547 20.466618 -8.8755388 94 92 85
26.271118 20.506962 -8.9053545 113 108 126
26.507215 20.493481 -8.9225807 108 103 126
26.701828 20.490778 -8.9246445 106 101 123
26.88805 20.52499 -8.928174 105 99 113
27.10759 20.510532 -8.9270773 129 122 137
27.314463 20.487545 -8.9284658 150 143 163
27.489176 20.522169 -8.9241915 114 109 123
27.673983 20.474043 -8.9391031 70 72 94
27.902084 20.488928 -8.8932343 106 106 134
28.122063 20.495195 -8.8942633 100 101 128
28.278154 20.503574 -8.8959074 106 105 137
28.49712 20.502317 -8.8928566 104 108 139
28.703756 20.490236 -8.8905926 88 90 113
28.895649 20.525843 -8.8803663 94 95 120
29.092966 20.525862 -8.8909006 86 85 105
29.27932 20.481293 -8.9227905 94 93 105
29.51399 20.503754 -8.906086 96 97 90
29.699558 20.491314 -8.9083061 121 125 121
29.903976 20.493523 -8.9035673 140 143 159
30.075895 20.524368 -8.9283075 124 138 156
30.245642 20.541159 -8.9649382 112 127 141
30.480759 20.483063 -8.9401865 79 87 72
30.67827 20.547907 -8.96597 52 64 47
31.103363 20.508341 -8.9484415 56 67 46
31.286573 20.48757 -8.9387999 67 72 55
31.502468 20.49085 -8.9252787 69 69 58
31.696289 20.481619 -8.9196997 68 72 53
31.879574 20.518499 -8.9168501 64 70 44
32.084026 20.541859 -8.9165154 56 63 43
32.265636 20.499104 -8.9092197 56 65 39
32.429722 20.477953 -8.8593931 52 61 33
32.731049 20.451008 -8.8248949 66 67 53
32.913147 20.476305 -8.9156094 53 58 32
33.087246 20.502476 -8.8911886 54 64 32
33.261871 20.473919 -8.8754148 58 68 41
33.556355 20.513605 -8.9021749 69 75 56
33.674976 20.489229 -8.9113169 56 62 46
33.906223 20.498962 -8.8731871 69 79 46
34.122322 20.505474 -8.8825054 68 77 52
34.289768 20.49461 -8.8558598 73 85 48
34.488567 20.506149 -8.8722782 71 88 50
34.686638 20.478756 -8.846652 81 93 64
34.927799 20.488165 -8.8568373 82 96 62
35.114609 20.492332 -8.8919487 92 101 72
35.304737 20.495159 -8.9118366 92 103 69
35.488529 20.500423 -8.9013271 84 95 67
35.696747 20.499737 -8.9209757 74 84 58
35.884617 20.496525 -8.9147015 74 87 58
36.103642 20.491632 -8.8802156 80 85 69
36.289211 20.491297 -8.901576 84 86 78
36.4893 20.525475 -8.9267988 83 88 59
36.63385 20.513733 -8.920455 93 97 65
25.385632 20.706997 -8.8417931 116 107 80
25.526312 20.66247 -8.8280067 114 106 81
25.942171 20.748903 -8.8500385 102 97 93
26.099358 20.690248 -8.8675327 104 102 110
26.308592 20.709455 -8.9044313 114 110 123
26.49888 20.687134 -8.9172955 116 111 128
26.703285 20.704805 -8.9137049 108 101 113
26.897226 20.699211 -8.9217854 120 114 126
27.105743 20.707539 -8.9333515 135 127 139
27.293123 20.694874 -8.9391756 111 105 118
27.493044 20.687363 -8.9367952 89 88 104
27.694895 20.702122 -8.9276171 104 102 125
27.908535 20.710274 -8.8973303 109 109 137
28.094687 20.699472 -8.8873873 93 96 124
28.315451 20.666986 -8.8869982 122 124 157
28.487091 20.709496 -8.8876009 93 95 121
28.694763 20.70817 -8.8854132 86 87 110
28.897295 20.697956 -8.8896418 98 99 125
29.11223 20.67466 -8.9360075 83 85 106
29.2959 20.672709 -8.9066267 116 113 132
29.513113 20.680578 -8.9181347 117 116 128
29.705978 20.738518 -8.9232807 155 147 161
29.918177 20.719501 -8.9205256 148 157 184
30.100401 20.693138 -8.9062071 132 155 178
30.276827 20.69491 -8.9171486 113 130 146
30.481867 20.742619 -8.9618587 108 117 124
30.700729 20.759026 -8.9781218 101 114 114
31.36006 20.654671 -8.9050789 52 60 44
31.526735 20.683857 -8.9205332 56 64 47
31.703733 20.695484 -8.9357567 60 66 51
31.897749 20.72109 -8.9080114 63 69 48
32.070633 20.678476 -8.8881693 55 62 46
32.321358 20.71254 -8.9206324 63 76 45
32.437035 20.749041 -8.9257975 54 65 42
32.711449 20.689476 -8.882019 77 77 54
32.932129 20.683355 -8.855114 63 74 41
33.039688 20.666636 -8.8833475 55 68 31
33.36515 20.685593 -8.8170729 70 77 56
33.51347 20.694901 -8.8788748 63 69 55
33.704823 20.710308 -8.9014769 61 70 52
33.870918 20.711735 -8.9220667 63 71 51
34.05122 20.689291 -8.8513126 79 82 62
34.314957 20.688498 -8.850585 67 79 47
34.515434 20.712326 -8.8648586 72 88 58
34.684772 20.719028 -8.8748703 73 88 58
34.911121 20.717321 -8.8570471 80 90 57
35.115051 20.708988 -8.8945456 92 99 67
35.287064 20.686892 -8.9069128 94 102 72
35.480545 20.70088 -8.924099 92 101 68
35.702839 20.703197 -8.9283361 80 87 67
35.881207 20.713655 -8.8899927 77 87 63
36.0928 20.70159 -8.8986559 78 86 62
36.284103 20.705442 -8.919734 76 81 63
36.5065 20.687748 -8.9170551 84 87 58
36.636787 20.600904 -8.8182297 113 109 82
36.823639 20.784388 -8.8275433 74 91 55
25.536007 20.924082 -8.8024769 102 97 70
25.754761 20.964764 -8.8299646 108 96 90
25.899097 20.921505 -8.8849468 105 97 92
26.094458 20.902376 -8.9104862 113 107 119
26.300379 20.899723 -8.9114637 126 121 133
26.494427 20.893106 -8.916955 122 118 129
26.70598 20.913618 -8.9094954 115 110 121
26.894226 20.886087 -8.9243937 132 126 138
27.082167 20.899944 -8.900692 123 119 130
27.29118 20.91197 -8.9158497 126 122 134
27.51298 20.902496 -8.9292812 116 113 129
27.69733 20.880081 -8.9380198 131 124 138
27.881792 20.908205 -8.9374704 131 128 149
28.071512 20.916662 -8.9161444 104 104 127
28.313168 20.895664 -8.8868799 114 112 139
28.529062 20.88937 -8.8943977 79 81 101
28.695646 20.878984 -8.9011602 81 83 103
28.904053 20.907961 -8.8849611 108 109 135
29.082863 20.887486 -8.9038296 98 100 118
29.280241 20.90484 -8.9086571 113 116 124
29.5165 20.891451 -8.8732014 171 161 167
29.725224 20.88555 -8.8673201 145 147 174
29.902447 20.894974 -8.8998947 135 158 198
30.110033 20.896814 -8.8974075 128 158 193
30.311823 20.893864 -8.8874035 125 153 181
30.486294 20.891218 -8.9130726 116 136 155
30.660524 20.922585 -8.9460459 118 138 152
30.878489 20.934811 -8.9724188 81 84 92
31.013023 20.850695 -8.9807053 43 49 37
31.387484 20.895239 -8.9227495 52 65 41
31.501661 20.874786 -8.9818525 84 92 74
31.716816 20.910019 -8.9208918 61 68 51
31.918886 20.898529 -8.9040594 69 74 56
32.099323 20.92564 -8.894309 74 75 60
32.313992 20.911188 -8.9021835 67 77 56
32.479202 20.894712 -8.903966 51 63 42
32.656815 20.940407 -8.9051876 67 78 45
32.822418 20.954016 -8.9062328 69 81 48
33.178726 20.989525 -8.809886 69 85 48
33.316143 20.922062 -8.8734627 65 76 48
33.504414 20.906315 -8.8958263 62 71 53
33.713474 20.899122 -8.9167147 66 75 53
33.914619 20.891378 -8.9061384 65 73 57
34.096405 20.940207 -8.9035616 68 79 58
34.307434 20.927645 -8.8820524 73 87 56
34.51144 20.893881 -8.8919153 78 89 60
34.691727 20.899609 -8.9315844 74 86 58
34.893311 20.877302 -8.9137764 77 88 61
35.088146 20.879389 -8.8879223 84 94 70
