ply
format ascii 1.0
comment PCL generated
element vertex 1095
property float x
property float y
property float z
property uchar red
property uchar green
property uchar blue
element face 0
element camera 0
property float view_px
property float view_py
property float view_pz
property float x_axisx
property float x_axisy
property float x_axisz
property float y_axisx
property float y_axisy
property float y_axisz
property float z_axisx
property float z_axisy
property float z_axisz
property float focal
property float scalex
property float scaley
property float centerx
property float centery
property int viewportx
property int viewporty
property float k1
property float k2
end_header
-46.698647 -33.511147 9.2742939 110 115 101
-46.489357 -33.488472 9.2788506 98 104 91
-46.299934 -33.494438 9.2997904 110 113 101
-46.103695 -33.481697 9.3106098 108 109 99
-45.924961 -33.516026 9.3125296 116 115 107
-45.763535 -33.512562 9.2971334 117 117 108
-44.937241 -33.439514 9.2020817 117 109 104
-52.686909 -33.366909 9.2578611 114 135 116
-52.493412 -33.38504 9.324811 78 108 95
-52.260201 -33.321819 9.2977066 68 100 79
-52.113228 -33.330009 9.2900486 72 100 83
-51.865116 -33.375591 9.2877283 80 109 91
-51.684353 -33.296352 9.2944536 68 95 79
-51.491985 -33.287968 9.30443 79 103 87
-51.307777 -33.266479 9.2922144 81 100 84
-51.087757 -33.306156 9.2802973 84 102 85
-50.920193 -33.30125 9.2861834 86 102 84
-50.720936 -33.327404 9.30581 72 92 73
-50.444424 -33.237064 9.3642731 140 152 138
-50.363869 -33.265709 9.2301598 57 73 62
-49.995445 -33.221058 9.3227367 100 109 90
-49.378452 -33.23774 9.3032417 97 102 80
-48.690258 -33.27095 9.329998 142 136 130
-48.424335 -33.380741 9.2359295 158 145 139
-47.406731 -33.251308 9.2158852 68 91 66
-46.825298 -33.364685 9.2652264 110 116 103
-46.710876 -33.335754 9.2991009 106 112 99
-46.503021 -33.319279 9.2712593 116 118 106
-46.307037 -33.303391 9.3240728 118 115 108
-46.104931 -33.29594 9.3042727 126 122 114
-45.922779 -33.315369 9.2299862 122 117 112
-45.282368 -33.278809 9.2386885 114 113 99
-45.101589 -33.330158 9.2564325 139 139 125
-44.981064 -33.294125 9.2870569 153 154 151
-52.258068 -33.111145 9.2615204 51 85 68
-52.100452 -33.116199 9.2726297 56 87 66
-51.881084 -33.107265 9.3000603 74 100 84
-51.686272 -33.056053 9.2775364 74 98 84
-51.50806 -33.100178 9.3132677 81 103 89
-51.269863 -33.12463 9.281105 79 100 85
-51.096485 -33.130852 9.332984 86 104 89
-50.914471 -33.121517 9.3307934 87 106 91
-50.738281 -33.113701 9.3398657 104 117 100
-50.465145 -33.056133 9.3147316 105 118 99
-50.291096 -33.092113 9.2785025 86 105 90
-50.150623 -33.139099 9.2500486 91 107 93
-48.921051 -33.072639 9.3759851 141 138 145
-48.669754 -33.179558 9.2979603 115 118 106
-48.521111 -33.109924 9.2882042 147 140 138
-47.520878 -33.016407 9.3925762 30 59 28
-47.230911 -33.106228 9.2699318 111 125 108
-46.415199 -33.091614 9.2132578 87 95 79
-46.279385 -33.075443 9.2723312 85 93 79
-46.088753 -33.070293 9.2846146 90 100 88
-45.851746 -33.130478 9.3442993 91 93 80
-45.305622 -33.12381 9.2715321 136 124 124
-45.127396 -33.136189 9.2450304 79 81 75
-44.877697 -33.092426 9.2311707 99 96 89
-52.04657 -32.987003 9.3445473 54 82 59
-51.928406 -32.828594 9.2898798 77 102 87
-51.663708 -32.92263 9.2641573 84 104 86
-51.494644 -32.929146 9.3024855 84 107 90
-51.303101 -32.889782 9.3210325 78 101 84
-51.120075 -32.910812 9.3184872 79 101 82
-50.912357 -32.883862 9.3057518 89 101 86
-50.737186 -32.880383 9.3322973 89 102 87
-50.51992 -32.934574 9.260252 95 110 92
-50.0443 -32.892868 9.3172836 82 94 82
-49.954006 -32.872879 9.2736101 105 115 106
-47.461784 -32.952774 9.3392849 72 91 67
-47.272858 -32.948093 9.2664099 104 121 100
-46.42804 -32.910995 9.262373 86 100 79
-46.313828 -32.917255 9.2673817 87 98 79
-46.131367 -32.924717 9.2509394 114 117 103
-45.895977 -32.843651 9.2319489 77 91 74
-51.892544 -32.680542 9.2775192 94 115 100
-51.67799 -32.714649 9.2774267 68 96 78
-51.493923 -32.715 9.3183451 75 100 83
-51.288548 -32.688335 9.3237591 87 109 93
-51.126141 -32.686035 9.3465004 95 111 99
-50.908672 -32.760284 9.350131 112 120 108
-50.722511 -32.67263 9.2983093 114 125 109
-50.593979 -32.620354 9.2360926 80 87 69
-50.266918 -32.76405 9.2441845 104 114 92
-50.110184 -32.739132 9.2478008 83 98 87
-49.871868 -32.638294 9.3339787 122 142 133
-49.503845 -32.604977 9.2921438 125 125 117
-47.686802 -32.65052 9.3207817 50 74 48
-47.510975 -32.724049 9.2797928 48 74 54
-46.440147 -32.793533 9.3448582 79 91 69
-46.272518 -32.712181 9.297308 94 102 85
-46.115253 -32.72427 9.2605324 94 101 90
-45.88258 -32.738235 9.275631 90 91 80
-51.893341 -32.556801 9.3856277 90 117 97
-51.68951 -32.518154 9.3045168 109 122 106
-51.495922 -32.516102 9.2807169 71 96 78
-51.280621 -32.512062 9.2483616 97 112 98
-51.102859 -32.509655 9.2774 94 110 98
-50.882751 -32.505703 9.2874832 108 118 105
-50.704319 -32.501598 9.2870741 97 109 98
-50.493725 -32.432724 9.3552828 90 112 110
-50.2416 -32.461163 9.2550659 112 126 116
-49.854446 -32.503059 9.2832432 124 133 129
-49.65567 -32.512524 9.2898226 111 120 109
-49.486828 -32.507137 9.2114458 128 133 130
-48.313313 -32.510811 9.2277069 65 88 71
-47.702713 -32.543476 9.3436909 58 88 60
-47.534248 -32.476151 9.2690201 96 114 91
-46.245747 -32.560879 9.3319931 110 117 99
-46.140175 -32.571064 9.204422 101 102 97
-52.10511 -32.35635 9.3072882 83 101 85
-51.478374 -32.297791 9.2854872 69 101 83
-51.283413 -32.263081 9.2687588 84 104 89
-51.067753 -32.271427 9.2930164 83 103 90
-50.886456 -32.283226 9.3154945 86 106 93
-50.72261 -32.262375 9.2736006 86 105 93
-50.531464 -32.288692 9.2874441 83 103 95
-50.296391 -32.226456 9.2799845 97 117 106
-49.877213 -32.322872 9.2765961 110 117 108
-49.714973 -32.373547 9.2921209 138 148 140
-49.552639 -32.351898 9.277009 148 147 149
-49.332363 -32.207878 9.2515469 97 117 99
-48.405727 -32.257008 9.3606329 99 112 97
-48.319626 -32.298199 9.3118181 91 106 92
-48.145649 -32.2859 9.2897606 91 99 89
-47.848507 -32.26968 9.2373495 59 81 67
-47.658131 -32.301933 9.3017149 101 112 101
-47.545017 -32.286327 9.2868061 84 98 84
-47.278034 -32.322544 9.3285036 126 135 140
-52.100075 -32.007843 9.2490578 51 66 47
-51.676239 -32.146366 9.2582359 106 124 112
-51.434441 -32.135544 9.2857227 65 90 80
-51.283871 -32.102341 9.3015547 86 107 93
-51.107845 -32.092155 9.2895041 81 103 91
-50.905098 -32.094425 9.2806187 79 102 88
-50.705055 -32.11322 9.3022022 86 105 91
-50.506702 -32.096462 9.3076305 88 107 95
-50.322903 -32.082199 9.2740622 87 106 93
-50.099678 -32.077492 9.2914772 86 102 90
-49.924156 -32.035133 9.2588329 77 94 80
-49.68132 -32.079178 9.2507744 95 114 104
-49.496132 -32.074425 9.282239 97 113 99
-49.29628 -32.088993 9.2892971 107 118 105
-49.121723 -32.056316 9.2842379 115 121 109
-48.975426 -32.016167 9.2055922 96 106 98
-48.440784 -32.087528 9.2993126 81 95 89
-48.278542 -32.089359 9.3033133 118 127 121
-48.149872 -32.098991 9.2983036 109 118 113
-47.876408 -32.078568 9.2885075 85 98 93
-47.688492 -32.090366 9.3071985 107 114 107
-47.545158 -32.103642 9.2798166 127 132 123
-47.359421 -32.100872 9.3204403 138 143 136
-51.640121 -31.838655 9.245575 72 106 81
-51.467079 -31.880205 9.2579174 62 92 74
-51.301846 -31.941725 9.2897301 85 109 94
-51.055164 -31.929323 9.3180113 93 112 101
-50.914276 -31.887106 9.3031607 83 103 92
-50.710148 -31.890785 9.322938 83 102 89
-50.492683 -31.896387 9.2986174 90 111 97
-50.304146 -31.902418 9.2996902 92 112 98
-50.102505 -31.886726 9.3000088 93 111 99
-49.899818 -31.854622 9.284831 95 112 101
-49.66954 -31.883432 9.2593336 98 116 107
-49.488335 -31.889799 9.2837038 107 122 111
-49.300602 -31.871254 9.2928505 107 121 109
-49.115376 -31.892679 9.291398 98 110 100
-48.983093 -31.893974 9.2569294 124 140 124
-48.435989 -31.947628 9.3320599 67 87 73
-48.283127 -31.907711 9.291028 120 128 121
-48.1301 -31.901157 9.2728357 105 115 111
-47.870239 -31.936668 9.2651396 107 113 114
-47.69408 -31.91715 9.2898273 138 135 125
-47.551559 -31.934835 9.2799749 135 129 120
-51.408043 -31.726454 9.2582197 66 97 79
-51.285088 -31.686829 9.3116398 78 101 87
-51.068565 -31.702967 9.3081245 85 103 91
-50.904968 -31.710634 9.31499 86 106 91
-50.717503 -31.706005 9.3164968 81 103 86
-50.462391 -31.757044 9.294138 90 110 97
-50.299652 -31.69215 9.3119316 94 114 104
-50.113338 -31.703674 9.29389 78 97 85
-49.918877 -31.71121 9.3199291 113 126 116
-49.71299 -31.700539 9.2963667 110 122 112
-49.488861 -31.718094 9.297904 118 133 122
-49.307499 -31.706511 9.3181229 116 130 121
-49.119698 -31.701696 9.2940235 109 118 114
-48.915264 -31.708277 9.3005075 103 108 106
-48.695518 -31.676071 9.2252235 84 84 92
-48.435394 -31.698612 9.287775 114 118 114
-48.279148 -31.728912 9.2795753 137 141 137
-48.132984 -31.719193 9.2660179 104 108 112
-47.88488 -31.705662 9.2832584 89 100 94
-47.669041 -31.690914 9.2836971 124 123 114
-47.506172 -31.675297 9.286314 111 112 100
-47.324532 -31.672976 9.3135033 86 94 84
-47.181442 -31.644581 9.2689743 99 109 101
-46.340389 -31.74239 9.2762423 74 94 74
-51.407421 -31.473715 9.2715225 68 97 84
-51.243637 -31.514456 9.298665 64 91 75
-51.075836 -31.495258 9.3169966 92 110 99
-50.903599 -31.481207 9.3143387 93 111 98
-50.685921 -31.489017 9.3187933 78 99 84
-50.522343 -31.520426 9.320384 95 116 100
-50.314938 -31.508327 9.3282833 89 104 92
-50.089088 -31.489473 9.3248711 114 128 115
-49.904579 -31.472803 9.3166294 100 111 107
-49.696659 -31.529587 9.3326025 103 108 104
-49.504143 -31.524038 9.2902803 118 129 125
-49.283382 -31.539309 9.3330746 114 130 124
-49.115799 -31.519665 9.3050289 133 139 134
-48.903053 -31.512463 9.3163185 129 127 128
-48.699986 -31.490347 9.3086071 128 127 129
-48.476616 -31.508038 9.2479496 136 130 137
-48.268898 -31.484825 9.2800217 140 142 140
-48.078152 -31.449942 9.2798967 114 122 117
-47.883625 -31.483637 9.2801886 110 115 102
-47.704273 -31.501051 9.2844124 123 122 114
-47.517284 -31.50415 9.2814074 116 117 107
-47.349773 -31.558935 9.2662477 120 120 111
-47.188721 -31.527912 9.2345982 123 113 124
-46.255344 -31.525614 9.3151197 124 127 113
-51.282928 -31.304764 9.3300972 67 93 82
-51.067085 -31.331181 9.3324585 97 112 101
-50.933456 -31.302439 9.3071594 87 104 91
-50.68235 -31.299751 9.3254042 99 113 105
-50.519386 -31.251944 9.319068 112 125 117
-50.252758 -31.298767 9.3013611 116 134 122
-50.118931 -31.31753 9.3061876 106 116 109
-49.882011 -31.318657 9.3087177 136 138 136
-49.697678 -31.339857 9.2851715 106 110 106
-49.421707 -31.217731 9.2599277 129 128 134
-49.298782 -31.232231 9.3148909 139 146 151
-49.002327 -31.394323 9.2365856 174 173 181
-48.881496 -31.359203 9.2312346 148 151 154
-48.740032 -31.362564 9.2303905 124 123 124
-48.458549 -31.352592 9.2632256 84 91 98
-48.284939 -31.297319 9.2686415 129 135 129
-48.085621 -31.293657 9.3002338 124 125 121
-47.940723 -31.31802 9.296875 126 126 121
-47.682449 -31.320311 9.2866526 122 124 113
-47.516575 -31.32361 9.2728949 122 123 114
-47.365284 -31.318537 9.2249918 103 113 104
-46.69421 -31.316086 9.2939949 137 142 120
-46.47205 -31.356375 9.2567463 86 98 86
-46.301167 -31.352057 9.2593603 130 124 117
-46.178101 -31.24156 9.2705984 99 98 104
-45.067005 -31.271658 9.381485 89 82 76
-44.5233 -31.237385 9.3620653 155 140 141
-44.232555 -31.313585 9.3056526 128 120 118
-51.030922 -31.10541 9.3091269 113 127 116
-50.922516 -31.153343 9.3171549 117 131 121
-50.724255 -31.124586 9.3086748 108 113 109
-50.495892 -31.113914 9.3002548 111 121 114
-50.302208 -31.081156 9.3282022 109 114 113
-50.110485 -31.086996 9.3108549 116 126 120
-49.885914 -31.092428 9.289711 121 125 124
-49.71722 -31.082138 9.2892046 113 122 118
-49.412682 -31.167553 9.2568083 136 131 137
-49.295704 -31.159302 9.2541933 133 143 143
-48.888287 -31.027208 9.3367004 131 140 122
-48.249287 -31.118652 9.2683506 131 132 124
-48.119537 -31.118881 9.290616 131 130 123
-47.918118 -31.10779 9.2845898 121 121 120
-47.687359 -31.102848 9.2743063 122 123 117
-47.54002 -31.156975 9.2678823 137 135 127
-47.106873 -31.016006 9.2501831 78 95 76
-46.95166 -31.068163 9.2909489 46 64 48
-46.640572 -31.135347 9.2811966 80 86 86
-45.27322 -31.032682 9.2804661 153 149 137
-45.107216 -31.090307 9.3008661 141 133 138
-44.912949 -31.11412 9.3152866 162 144 150
-44.674446 -31.079924 9.3142004 165 149 145
-44.509197 -31.054573 9.3101377 149 130 129
-44.393585 -31.149122 9.3978281 132 126 128
-51.204464 -30.886168 9.2119274 91 112 93
-51.160686 -30.943718 9.3113384 141 152 144
-50.864704 -30.928217 9.3166676 149 150 137
-50.694271 -30.917311 9.2927895 116 120 111
-50.490559 -30.93165 9.2858553 117 121 122
-50.287792 -30.893909 9.2588539 123 128 123
-50.087261 -30.887066 9.3141813 115 124 116
-49.896126 -30.904924 9.2743397 111 120 120
-49.692379 -30.890381 9.2760973 103 115 110
-49.504601 -30.848022 9.2779217 118 120 115
-49.328564 -30.801939 9.2010221 144 155 143
-48.90641 -30.908297 9.2358322 148 148 139
-48.642441 -30.896996 9.2941418 105 115 108
-48.511478 -30.859535 9.2718 110 115 106
-48.28722 -30.904186 9.2775488 128 128 126
-48.125271 -30.897932 9.2893305 127 129 131
-47.871666 -30.908169 9.3036833 113 119 112
-47.709042 -30.893591 9.2907143 122 123 116
-47.564941 -30.878349 9.2687702 124 126 117
-47.088303 -30.843168 9.2781258 191 183 172
-46.918598 -30.953754 9.330699 87 96 84
-46.519493 -30.90189 9.2883711 118 126 123
-46.233471 -30.814999 9.2633257 189 173 183
-46.187462 -30.873964 9.2833843 176 156 171
-45.431484 -30.901161 9.2095509 213 204 187
-45.299492 -30.896025 9.2995691 153 146 140
-45.098114 -30.884863 9.3154736 152 140 145
-44.90799 -30.878405 9.2975082 145 133 135
-44.689083 -30.914082 9.2830296 151 139 142
-44.55294 -30.899883 9.2603397 159 140 146
-51.033348 -30.745543 9.2949028 116 139 119
-50.853714 -30.754168 9.3133326 97 92 92
-50.682449 -30.754801 9.3340502 120 123 109
-50.46965 -30.687735 9.309082 119 126 120
-50.266014 -30.686899 9.28335 119 130 120
-50.136433 -30.731091 9.2786112 124 136 124
-49.890038 -30.69327 9.2661524 113 123 117
-49.691784 -30.706326 9.270957 126 137 132
-49.521767 -30.727552 9.2843742 126 132 123
-49.295532 -30.712008 9.2074118 113 122 118
-49.066223 -30.690413 9.2391453 132 132 127
-48.973248 -30.716131 9.2977543 154 159 152
-48.616802 -30.68429 9.3052664 119 123 110
-48.520592 -30.686728 9.275878 133 131 117
-48.251869 -30.735596 9.2902718 129 134 126
-48.080708 -30.691669 9.2605829 110 118 110
-47.887836 -30.690535 9.3054514 112 115 110
-47.711132 -30.685587 9.2807856 127 126 119
-47.559055 -30.719845 9.2731314 142 139 131
-47.235569 -30.652235 9.2540379 109 113 114
-47.079903 -30.698568 9.3158979 103 111 103
-46.890354 -30.68037 9.2894278 99 108 102
-46.713493 -30.706966 9.3096905 137 136 134
-46.500637 -30.738058 9.29741 169 163 170
-46.331951 -30.683058 9.2518492 142 131 140
-45.436512 -30.702875 9.2984076 167 163 167
-45.339088 -30.693497 9.2915325 159 149 151
-45.103317 -30.696754 9.2995005 147 138 138
-44.907318 -30.76314 9.2720165 141 134 135
-44.767418 -30.726013 9.2746096 165 153 152
-44.317665 -30.705963 9.2834053 168 154 161
-51.022369 -30.538074 9.3799515 74 95 86
-50.425671 -30.537476 9.2875385 123 129 126
-50.309593 -30.496672 9.2993984 113 118 114
-50.089497 -30.482597 9.3214512 114 119 117
-49.887463 -30.470051 9.3082418 125 133 130
-49.737041 -30.447638 9.2871752 118 132 122
-49.449558 -30.519838 9.2492876 138 135 126
-49.314339 -30.488783 9.2456923 124 130 124
-49.05629 -30.421465 9.331624 118 121 121
-48.876625 -30.463892 9.3448048 129 129 125
-48.67387 -30.465223 9.3232651 133 134 125
-48.530636 -30.502876 9.2914858 134 133 120
-48.280949 -30.462288 9.3005915 106 113 109
-48.07605 -30.499268 9.3059034 116 121 112
-47.930161 -30.512251 9.3060417 125 125 113
-47.700966 -30.545122 9.2894182 120 120 113
-47.535812 -30.487387 9.284934 104 111 99
-47.257618 -30.512758 9.2754469 105 112 105
-47.094395 -30.482922 9.3218765 133 132 138
-46.907642 -30.477114 9.3005447 125 126 125
-46.71648 -30.493912 9.2849264 120 114 119
-46.462872 -30.478916 9.2987461 127 131 133
-46.29126 -30.520998 9.2598333 132 121 133
-45.460796 -30.533833 9.2490931 149 147 144
-45.312683 -30.492781 9.2673883 137 134 130
-45.12392 -30.506357 9.2461987 139 134 130
-44.836365 -30.480347 9.2942266 151 148 159
-44.765499 -30.509882 9.2934361 146 142 146
-44.301708 -30.459787 9.3334446 152 137 145
-44.147381 -30.431757 9.2896118 163 145 155
-57.600399 -30.20219 9.237278 143 153 128
-50.650944 -30.269693 9.3307543 109 114 109
-50.487083 -30.28801 9.3329678 120 126 118
-50.298103 -30.280977 9.2866716 114 123 116
-50.091206 -30.31543 9.3195076 124 131 128
-49.898148 -30.312025 9.3128481 122 132 127
-49.744099 -30.325813 9.3109903 107 123 114
-49.283592 -30.287325 9.2809954 127 130 131
-49.07901 -30.278431 9.2896271 127 134 126
-48.891064 -30.282196 9.2581472 121 125 120
-48.691734 -30.290642 9.2980337 128 131 122
-48.512989 -30.295971 9.2956753 126 129 116
-48.317947 -30.296709 9.2799263 116 123 113
-48.087845 -30.325762 9.286087 109 118 109
-47.918209 -30.294106 9.3059769 130 132 120
-47.681046 -30.306982 9.3080635 112 115 103
-47.487209 -30.327778 9.2813854 142 142 133
-47.267475 -30.279924 9.3079834 111 115 130
-47.143787 -30.313255 9.3097506 114 118 136
-46.898228 -30.330397 9.3195934 122 124 121
-46.72963 -30.269724 9.2937775 125 128 123
-46.502735 -30.319387 9.2658825 103 109 108
-46.261738 -30.259201 9.235261 112 116 130
-45.858513 -30.304556 9.3301048 99 93 107
-45.53857 -30.248129 9.2777634 139 139 133
-45.273922 -30.300297 9.2447548 137 137 131
-45.118839 -30.268103 9.2706442 135 136 134
-44.94392 -30.314327 9.2742357 135 132 148
-44.797825 -30.27943 9.3108444 141 129 122
-44.279915 -30.311321 9.2859192 175 154 160
-44.09816 -30.355724 9.247426 161 142 157
-50.755119 -30.076302 9.3253078 125 131 121
-50.481106 -30.093258 9.302351 123 129 122
-50.297459 -30.086363 9.292408 130 132 132
-50.101818 -30.075098 9.2944155 127 133 131
-49.879372 -30.10078 9.3076925 124 133 128
-49.725559 -30.098749 9.2916727 115 127 121
-49.562077 -30.02774 9.3351173 108 123 123
-49.272926 -30.101604 9.2907257 125 127 127
-49.10519 -30.076523 9.2967329 134 139 132
-48.893597 -30.084038 9.301899 126 130 122
-48.7159 -30.108667 9.2911577 120 127 117
-48.515747 -30.120104 9.2988691 123 128 113
-48.304287 -30.103781 9.3121128 122 128 113
-48.113014 -30.078381 9.2873631 102 115 100
-47.901546 -30.104 9.3053007 112 119 108
-47.689827 -30.068523 9.3322973 115 118 124
-47.506763 -30.088406 9.3200054 117 123 128
-47.299 -30.116159 9.2968454 120 124 130
-47.122139 -30.070595 9.3262005 109 114 110
-46.930561 -30.064827 9.3306074 114 119 111
-46.699673 -30.114491 9.3106232 117 120 111
-46.499313 -30.06691 9.3161955 117 123 114
-46.300045 -30.072189 9.2916784 124 128 118
-46.104485 -30.059704 9.3218107 125 129 125
-45.910736 -30.070389 9.2924738 141 142 142
-45.695778 -30.097216 9.2888927 136 134 137
-45.512268 -30.126328 9.2409 139 137 132
-45.293415 -30.129826 9.2440348 130 132 125
-45.139091 -30.146851 9.2434254 143 142 138
-44.869926 -30.09104 9.281641 151 143 148
-44.766773 -30.104401 9.281496 149 143 148
-44.426495 -30.105688 9.3440981 162 149 152
-44.316021 -30.098888 9.290741 158 142 142
-44.195312 -30.050543 9.2153034 177 157 168
-50.816872 -29.833675 9.3178158 55 72 62
-50.701534 -29.867865 9.2904425 109 118 116
-50.481674 -29.909185 9.2863235 114 118 116
-50.296829 -29.917473 9.2969322 124 130 122
-50.098656 -29.922741 9.3111496 131 136 135
-49.878128 -29.88315 9.2796392 124 130 128
-49.694344 -29.904388 9.2951937 118 130 128
-49.519474 -29.882174 9.3140879 116 129 122
-49.27047 -29.906055 9.2712736 137 142 137
-49.12389 -29.9105 9.2948456 127 134 124
-48.886116 -29.903751 9.2564039 121 127 117
-48.682652 -29.903973 9.2785597 118 125 114
-48.500717 -29.887932 9.317461 125 130 116
-48.292351 -29.928825 9.3203249 113 120 105
-48.102249 -29.903269 9.2809906 104 113 103
-47.93478 -29.882597 9.3283987 117 123 113
-47.676907 -29.970263 9.2996302 104 113 120
-47.462677 -29.916365 9.3286018 118 124 129
-47.297153 -29.912899 9.3065262 106 113 109
-47.099648 -29.917463 9.3076925 108 116 109
-46.917149 -29.93441 9.3327875 105 113 110
-46.698158 -29.932724 9.3044062 105 114 107
-46.475224 -29.915453 9.2936258 121 125 115
-46.350666 -29.913322 9.2976542 127 130 124
-46.077591 -29.916595 9.2970123 149 147 143
-45.931755 -29.912821 9.307723 151 149 146
-45.71661 -29.929193 9.3193913 138 132 136
-45.579529 -29.967569 9.268713 113 118 112
-45.300373 -29.876862 9.281743 131 129 134
-45.117794 -29.88455 9.2746038 127 124 136
-44.912346 -29.937458 9.2898359 139 138 136
-44.493389 -29.893169 9.3045044 151 141 145
-44.350292 -29.908712 9.2360983 162 151 155
-51.845478 -29.664314 9.2561893 172 172 148
-51.70433 -29.672905 9.2925472 155 156 144
-51.554939 -29.638155 9.3534269 139 138 125
-50.616501 -29.765244 9.3854542 90 96 86
-50.527046 -29.728579 9.3206148 88 102 90
-50.310356 -29.722878 9.3051033 151 152 149
-50.079323 -29.684309 9.3148909 144 143 144
-49.873745 -29.67749 9.3133106 130 138 132
-49.700855 -29.695917 9.2987795 113 129 124
-49.528297 -29.719221 9.2741804 113 130 120
-49.273434 -29.725906 9.2738628 133 136 128
-49.115845 -29.710506 9.2721863 134 144 127
-48.828026 -29.653896 9.2707558 109 115 102
-48.683887 -29.707085 9.2748423 126 132 118
-48.47221 -29.704973 9.2899542 125 130 120
-48.303768 -29.69121 9.3337727 122 128 118
-48.113289 -29.727581 9.2919226 107 118 109
-47.90593 -29.740911 9.3061333 113 120 115
-47.702522 -29.748165 9.3032064 133 130 118
-47.466934 -29.701979 9.34692 100 108 93
-47.308704 -29.697481 9.3409939 92 107 99
-47.104626 -29.708593 9.2988462 104 113 123
-46.841579 -29.739405 9.392683 126 132 120
-46.669952 -29.694067 9.3459997 110 113 100
-46.440258 -29.73558 9.3316755 128 132 130
-46.342194 -29.708334 9.3133898 134 136 129
-46.089531 -29.676271 9.3010569 149 146 137
-45.96209 -29.706747 9.3127918 147 142 142
-45.733624 -29.739761 9.2731018 152 143 155
-45.450863 -29.66474 9.3814201 142 138 163
-45.340477 -29.678289 9.2891693 163 161 173
-44.621273 -29.668251 9.34305 139 136 148
-44.494221 -29.664728 9.2969952 141 134 143
-44.30835 -29.689655 9.2467194 168 155 164
-44.088795 -29.650625 9.2604389 173 150 172
-55.720539 -29.434305 9.2218761 166 173 140
-52.501743 -29.464157 9.303896 183 178 157
-52.398346 -29.566916 9.3570786 148 147 123
-51.825676 -29.500111 9.2615137 211 199 195
-51.683506 -29.510542 9.2952251 165 159 149
-51.540169 -29.485758 9.3029108 137 135 127
-51.381218 -29.476751 9.3291874 86 105 93
-50.910904 -29.427063 9.3069468 87 110 88
-50.709206 -29.448227 9.3461094 84 109 94
-50.438789 -29.441339 9.2864304 123 139 134
-50.293106 -29.51667 9.3122368 118 128 122
-50.090996 -29.520859 9.2885342 128 133 132
-49.889782 -29.513485 9.3225899 139 144 140
-49.702076 -29.512625 9.3117666 120 135 130
-49.537666 -29.526148 9.2775621 99 110 99
-49.323936 -29.552328 9.2435999 124 122 115
-49.120285 -29.55826 9.2379475 134 145 129
-48.820766 -29.520012 9.2792377 116 122 115
-48.725117 -29.482531 9.3099184 118 127 118
-48.472862 -29.513617 9.3179474 122 130 116
-48.320717 -29.527479 9.2952538 111 121 108
-48.093113 -29.472748 9.3167973 119 127 129
-47.917667 -29.517239 9.3017511 125 129 126
-47.628483 -29.451534 9.3788452 121 122 112
-47.489574 -29.540976 9.3394938 113 122 106
-47.323063 -29.533138 9.3545055 100 113 104
-47.179474 -29.567289 9.35777 103 116 118
-46.83659 -29.540939 9.3153162 108 117 111
-46.697502 -29.50424 9.3345966 106 113 113
-46.50835 -29.538113 9.3001671 159 159 158
-46.326092 -29.561558 9.2544909 148 150 148
-46.089146 -29.538378 9.2415609 169 163 162
-45.979309 -29.588984 9.2971039 143 140 147
-45.470844 -29.515337 9.3007174 142 139 165
-45.31673 -29.528887 9.2278042 144 145 155
-44.489536 -29.56735 9.3210678 153 150 156
-44.314968 -29.552809 9.2610769 151 141 146
-44.101189 -29.550686 9.2656794 178 157 174
-43.901131 -29.52453 9.2616577 185 163 184
-55.868229 -29.278009 9.3107977 169 173 142
-55.729408 -29.292097 9.2576952 146 152 124
-55.578648 -29.364376 9.2980337 129 135 108
-53.159447 -29.230417 9.2489185 139 143 117
-52.468563 -29.272291 9.286767 186 186 172
-52.372181 -29.234777 9.3457003 142 153 123
-51.891182 -29.243107 9.2786312 183 182 164
-51.684578 -29.304966 9.2888203 144 154 137
-51.531612 -29.324949 9.2909565 142 150 132
-51.270813 -29.241165 9.2884579 108 138 128
-51.103161 -29.287989 9.2908363 100 126 104
-50.969799 -29.359398 9.3020868 99 119 102
-50.717396 -29.357382 9.2999563 95 109 119
-50.465576 -29.291153 9.284029 131 138 141
-50.27396 -29.299213 9.3089781 115 121 121
-50.099373 -29.288542 9.3038158 120 122 120
-49.912346 -29.301085 9.2997437 123 135 131
-49.7314 -29.331848 9.2423 129 142 137
-49.518166 -29.376177 9.229516 126 131 124
-48.810066 -29.368938 9.2525425 143 147 152
-48.684448 -29.324142 9.2993546 122 126 118
-48.515709 -29.317291 9.3054657 115 124 115
-48.306442 -29.277258 9.2907295 102 115 105
-48.104034 -29.303427 9.3216047 123 130 127
-47.901131 -29.275599 9.3253431 115 120 120
-47.760475 -29.226582 9.3473396 127 135 130
-47.417763 -29.374994 9.2154808 84 106 85
-47.22654 -29.373262 9.2939587 92 107 93
-47.157822 -29.29237 9.3259764 136 134 125
-46.667259 -29.317049 9.2899914 115 120 120
-46.557259 -29.299076 9.3082428 111 113 107
-46.378296 -29.275688 9.2316303 102 112 113
-45.442429 -29.302961 9.3119106 142 141 154
-45.328625 -29.284002 9.3140774 139 138 142
-55.871441 -29.143379 9.2528267 151 155 129
-55.785938 -29.148045 9.3229542 171 174 144
-55.588036 -29.015799 9.2962513 117 129 97
-53.104897 -29.082087 9.2655153 159 156 135
-52.664528 -29.117579 9.201479 163 183 158
-52.470211 -29.097359 9.2843313 137 150 136
-52.36129 -29.151329 9.2817717 128 145 117
-51.888489 -29.087679 9.2927647 188 178 171
-51.712082 -29.101692 9.2729006 151 154 145
-51.555935 -29.167747 9.2284069 152 169 158
-51.205952 -29.151119 9.2986622 97 125 103
-51.08617 -29.120855 9.2878036 91 114 92
-50.901329 -29.112619 9.3161755 89 112 95
-50.709198 -29.130423 9.2962303 199 212 200
-50.555618 -29.163609 9.2272854 72 91 105
-50.284081 -29.094378 9.3338442 141 145 140
-50.069069 -29.094418 9.2755213 132 142 139
-49.91357 -29.091721 9.3080206 124 135 131
-49.764362 -29.084511 9.2530251 115 123 113
-48.824574 -29.084864 9.2815008 99 101 114
-48.69788 -29.073032 9.2942152 120 128 130
-48.49295 -29.101822 9.2979393 109 121 116
-48.323029 -29.124866 9.3105927 122 128 137
-48.077381 -29.086212 9.3074169 108 119 135
-47.916008 -29.148293 9.3024921 107 118 120
-47.716404 -29.096605 9.3223991 113 120 115
-47.590023 -29.095932 9.2846508 120 128 114
-47.279301 -29.087912 9.3094282 130 128 142
-46.84845 -29.160069 9.2319574 116 117 103
-46.67144 -29.099806 9.3019609 94 107 115
-46.473991 -29.045959 9.3333492 103 113 124
-46.299519 -29.197515 9.3446426 133 139 127
-45.442207 -29.056 9.3360958 125 121 132
-45.30975 -29.071465 9.316164 137 134 149
-45.16917 -29.104761 9.3626146 134 134 132
-44.340302 -29.139351 9.3153877 155 142 159
-55.701294 -28.913889 9.2410612 143 151 114
-54.686268 -28.942009 9.2232475 199 197 171
-54.589233 -28.908152 9.2522573 159 157 135
-53.103733 -28.887144 9.2670565 143 150 127
-52.980896 -28.859253 9.3753414 141 159 129
-52.478497 -28.981161 9.2885561 131 141 122
-51.872936 -28.896935 9.3025846 152 151 143
-51.697105 -28.882893 9.3079414 144 150 136
-51.538864 -28.870737 9.3059664 137 141 129
-51.222591 -28.810518 9.2824755 117 136 116
-51.161636 -28.850327 9.2870626 74 102 77
-50.98196 -28.959648 9.2732792 75 97 84
-50.687782 -28.915897 9.2738323 85 105 94
-50.447704 -28.95838 9.3468075 160 151 148
-50.297112 -28.912125 9.2793369 108 116 110
-50.079372 -28.916754 9.2983141 140 149 142
-49.913845 -28.946356 9.279006 124 139 132
-49.647129 -28.869165 9.2922125 97 111 103
-49.550789 -28.873835 9.308506 88 108 92
-49.061146 -28.922947 9.3021593 112 130 135
-48.88625 -28.845669 9.2844896 106 121 131
-48.698654 -28.917135 9.3112364 121 129 131
-48.515514 -28.920401 9.2866421 112 123 126
-48.340183 -28.894609 9.313755 121 129 136
-48.097973 -28.912567 9.3223877 100 113 134
-47.875633 -28.913204 9.3449802 119 123 123
-47.724773 -28.876883 9.2969828 113 120 112
-47.514191 -28.910145 9.2908154 125 131 119
-47.317154 -28.822332 9.2755251 111 116 105
-47.007698 -28.893822 9.3147326 72 86 99
-46.775078 -28.984467 9.2496548 94 104 93
-46.514706 -28.824877 9.3737211 103 116 124
-46.391445 -28.860048 9.2798729 108 121 130
-45.4398 -28.877693 9.3133383 153 156 154
-45.302727 -28.929317 9.2991686 157 153 170
-45.154449 -28.959244 9.2693119 156 153 169
-44.732132 -28.944206 9.2760544 156 150 159
-44.497337 -28.825525 9.387476 167 157 182
-44.366833 -28.827688 9.3247032 165 154 174
-44.140667 -28.828026 9.3016663 178 154 183
-56.520515 -28.627127 9.2797928 158 165 137
-54.527496 -28.768612 9.2861366 190 182 171
-53.088169 -28.748051 9.3289118 130 148 132
-52.828976 -28.612453 9.221921 75 85 76
-51.868954 -28.732828 9.278595 161 166 158
-51.672829 -28.699734 9.2739525 146 150 136
-51.533283 -28.724791 9.2840109 129 143 127
-51.077465 -28.712523 9.3876133 113 138 118
-50.903145 -28.649342 9.2108021 139 131 111
-50.687496 -28.673323 9.3170748 136 126 118
-50.534679 -28.644798 9.3051243 150 144 140
-50.277103 -28.69397 9.2955217 132 144 137
-50.118198 -28.702318 9.289073 123 138 129
-49.919815 -28.671251 9.2988443 122 140 124
-49.677681 -28.687725 9.2790747 120 135 124
-49.519978 -28.658966 9.3040829 129 145 132
-49.373627 -28.641409 9.3629808 107 129 113
-49.057152 -28.689463 9.2707882 116 131 137
-48.912144 -28.707794 9.2932291 119 132 150
-48.697693 -28.752514 9.2960796 106 115 126
-48.544685 -28.719618 9.2835941 114 120 114
-48.292164 -28.687864 9.3233995 101 110 103
-48.091564 -28.712502 9.3226671 107 124 121
-47.888092 -28.680264 9.3234825 103 117 114
-47.723232 -28.684038 9.3216467 97 114 104
-47.534092 -28.723906 9.2930717 125 127 128
-47.34927 -28.604836 9.2772236 101 114 107
-47.080158 -28.679199 9.3217344 131 134 152
-46.870701 -28.757397 9.3964109 71 79 82
-46.747513 -28.691221 9.3959265 108 110 130
-46.477257 -28.616127 9.3028851 144 156 161
-46.335941 -28.622782 9.3108406 119 123 137
-46.072861 -28.653709 9.3551054 86 95 92
-45.849171 -28.686401 9.3243895 129 141 138
-45.436974 -28.721632 9.2972355 149 148 149
-45.372604 -28.687744 9.3108301 155 154 156
-44.332508 -28.681814 9.2662916 170 153 176
-43.971989 -28.72625 9.215004 170 148 177
-56.514832 -28.58046 9.2399645 129 140 109
-51.906727 -28.49295 9.2904539 124 133 123
-51.71669 -28.520298 9.3095922 117 132 111
-51.56395 -28.562485 9.2966375 131 147 133
-51.354923 -28.442575 9.2658539 140 146 125
-51.122585 -28.496933 9.2927866 135 140 131
-50.878609 -28.472248 9.2550402 137 142 132
-50.683861 -28.482283 9.3036423 134 134 127
-50.511047 -28.442741 9.3264599 156 153 147
-50.262756 -28.502483 9.2967892 138 149 141
-50.146904 -28.494987 9.3087978 130 138 128
-49.934177 -28.547323 9.2468395 127 141 127
-49.62233 -28.574547 9.2323627 90 110 97
-49.464191 -28.559958 9.2541866 117 133 121
-49.377758 -28.585196 9.2441244 125 151 135
-49.050728 -28.498814 9.2781153 115 124 133
-48.924446 -28.495327 9.2724371 116 125 141
-48.66256 -28.530857 9.2804575 116 116 124
-48.522823 -28.5198 9.2831593 121 124 122
-48.291031 -28.482563 9.2734547 103 117 110
-48.098873 -28.502687 9.3031244 104 119 114
-47.905106 -28.505222 9.2914066 103 118 112
-47.706398 -28.468266 9.2726374 100 121 107
-47.529774 -28.489252 9.3097363 105 119 112
-47.301594 -28.478226 9.3286495 134 135 136
-47.090538 -28.520067 9.3855257 115 123 129
-46.872536 -28.508968 9.2884483 109 118 139
-46.707142 -28.490282 9.2747488 107 115 134
-46.518944 -28.475548 9.2453136 125 132 152
-46.296333 -28.51722 9.264679 101 110 127
-46.09425 -28.491722 9.3052626 125 131 154
-45.891937 -28.476025 9.3140812 130 135 138
-45.700043 -28.479492 9.2715244 109 114 117
-45.291904 -28.496277 9.2947903 148 148 150
-44.969521 -28.41662 9.3698893 135 130 138
-44.290329 -28.503576 9.284812 171 156 181
-55.546879 -28.205141 9.2931814 175 186 146
-54.389732 -28.201885 9.2812538 207 204 173
-53.219093 -28.245728 9.3720932 160 157 136
-52.746723 -28.335358 9.2659054 90 101 89
-51.860195 -28.390083 9.2458086 162 175 166
-51.441368 -28.3034 9.2962761 152 149 141
-51.32185 -28.281322 9.2866821 136 136 128
-51.089043 -28.256557 9.2804413 118 119 112
-50.894295 -28.30336 9.2702971 129 127 117
-50.663502 -28.314575 9.2665281 128 136 123
-50.508705 -28.288818 9.3086166 133 140 131
-50.318592 -28.28698 9.2864895 128 132 127
-50.135975 -28.309046 9.3129549 142 137 127
-49.900169 -28.273951 9.2935238 114 112 106
-49.057178 -28.270618 9.2969608 130 145 141
-48.89835 -28.319805 9.3013601 121 128 130
-48.69841 -28.293163 9.3079472 120 118 131
-48.468586 -28.334457 9.3241634 128 129 124
-48.304501 -28.307087 9.3164473 124 130 116
-48.096218 -28.281477 9.2761469 113 123 109
-47.903881 -28.30184 9.2899847 108 121 112
-47.736057 -28.31489 9.2568712 103 118 107
-47.515972 -28.379829 9.2751799 81 98 90
-47.250832 -28.297846 9.2979193 135 139 137
-47.155987 -28.237619 9.2956333 142 141 147
-46.911488 -28.363216 9.2910786 100 113 116
-46.694256 -28.354744 9.248806 126 129 152
-46.351513 -28.206371 9.3614655 130 135 144
-46.049957 -28.319111 9.274435 111 119 138
-45.880394 -28.30488 9.2880354 130 133 150
-45.71405 -28.283632 9.2974415 130 131 144
-45.530212 -28.251337 9.2963352 125 128 142
-45.264477 -28.368185 9.2872458 152 149 148
-45.106102 -28.257044 9.292304 145 141 144
-44.905319 -28.287958 9.322053 151 150 151
-44.789509 -28.21282 9.3306036 160 154 164
-44.229172 -28.33032 9.2278261 196 180 207
-44.156017 -28.354607 9.2785797 163 148 163
-56.019527 -28.050098 9.2971497 129 141 107
-55.847012 -28.046057 9.3035021 144 155 123
-55.650284 -28.071899 9.3229675 132 137 107
-55.53846 -28.081203 9.2778645 143 153 122
-55.384155 -28.051023 9.3999825 26 46 21
-54.401932 -28.175282 9.2735739 185 181 154
-53.421875 -28.16206 9.2220287 215 211 173
-53.215054 -28.072657 9.3028021 164 164 144
-53.162655 -28.118126 9.2815666 173 171 152
-51.463963 -28.104509 9.302804 154 154 147
-51.289112 -28.05114 9.2949753 131 140 129
-51.097164 -28.062416 9.2720261 104 116 102
-50.844223 -28.112759 9.2510014 135 134 129
-50.668346 -28.077553 9.2392855 116 132 114
-50.49934 -28.092829 9.2889843 129 139 127
-50.330807 -28.102213 9.2773838 137 138 129
-50.088959 -28.084173 9.2886419 117 128 114
-49.931789 -28.084875 9.3097944 110 119 109
-49.734699 -28.089348 9.32516 93 108 96
-49.069012 -28.109512 9.2904902 68 82 78
-48.909065 -28.09819 9.2688484 110 116 118
-48.702232 -28.130514 9.302352 119 121 119
-48.492577 -28.091711 9.287591 121 122 121
-48.298717 -28.124554 9.2953625 118 121 109
-48.094521 -28.104916 9.3218842 112 124 113
-47.900166 -28.111586 9.3073301 120 128 119
-47.724358 -28.103418 9.2738762 109 122 118
-47.275364 -28.061193 9.3265781 99 104 113
-47.128735 -28.066912 9.2842941 155 158 159
-46.989075 -28.023617 9.308465 159 159 167
-46.472492 -28.199623 9.2400703 122 140 152
-46.312283 -28.140747 9.3025789 125 129 140
-46.091518 -28.086071 9.2814655 123 127 135
-45.881088 -28.09589 9.2877398 127 126 141
-45.680595 -28.109766 9.2813139 135 130 151
-45.507221 -28.085403 9.2665186 134 135 157
-45.314293 -28.025547 9.3105907 135 135 163
-45.09219 -28.140463 9.2580566 148 141 158
-44.808681 -28.093897 9.386569 178 175 184
-44.771729 -28.119022 9.3000851 187 172 188
-56.063942 -27.928925 9.2318182 133 140 118
-55.85939 -27.888725 9.2942867 151 159 133
-55.685093 -27.908926 9.2642498 140 149 123
-55.525711 -27.877937 9.2679291 162 167 141
-53.510193 -27.832266 9.3371153 174 171 149
-53.21286 -27.96962 9.2213383 192 184 171
-53.105652 -27.844746 9.2607851 119 136 114
-51.473839 -27.896334 9.288043 143 139 139
-51.299683 -27.927658 9.2761507 129 143 129
-51.094246 -27.917162 9.3090725 115 133 114
-50.913334 -27.874916 9.2976141 98 118 103
-50.710167 -27.912411 9.2692204 115 129 121
-50.509518 -27.891903 9.2954521 118 131 124
-50.275501 -27.895164 9.3257627 129 136 125
-50.11491 -27.88768 9.3061037 100 116 103
-49.888882 -27.938822 9.293108 121 128 118
-49.730042 -27.957268 9.2868919 102 116 104
-49.235626 -27.829445 9.2584124 57 78 63
-49.049679 -27.911194 9.31217 107 113 117
-48.913345 -27.91408 9.3225412 110 122 127
-48.73938 -27.935417 9.3141899 116 119 113
-48.493134 -27.888203 9.3045387 116 122 129
-48.367065 -27.928911 9.3359947 110 116 119
-48.057583 -27.91139 9.287364 93 111 102
-47.916401 -27.900681 9.3231602 97 112 103
-47.700504 -27.875751 9.3119106 116 125 127
-47.488846 -27.872246 9.3150806 122 129 131
-47.312771 -27.884884 9.3055258 118 127 129
-47.117126 -27.871939 9.3010626 130 134 131
-46.956974 -27.883024 9.3150415 152 152 152
-46.701397 -27.897913 9.3561316 145 156 160
-46.527431 -27.879482 9.3000927 122 129 145
-46.317913 -27.851913 9.2561302 142 147 148
-46.076969 -27.919014 9.2908659 109 120 121
-45.870575 -27.908812 9.2684593 114 123 133
-45.69244 -27.881899 9.3099823 126 134 136
-45.443966 -27.930185 9.2988853 137 138 168
-45.28965 -27.920809 9.2859745 143 142 172
-45.091976 -27.861553 9.3103895 136 137 153
-44.997169 -27.813978 9.2938614 151 165 166
-44.683331 -27.899134 9.2773323 179 165 183
-44.495308 -27.901268 9.2888012 166 160 174
-56.006371 -27.79353 9.2224789 96 109 87
-55.910625 -27.793602 9.2697153 187 186 165
-55.722179 -27.712727 9.2465658 131 142 111
-55.490658 -27.751806 9.2279024 180 183 164
-54.334145 -27.735708 9.273716 175 175 152
-53.617256 -27.733658 9.2363787 150 156 128
-53.518703 -27.697449 9.3027391 173 170 153
-53.279076 -27.700361 9.2458496 107 129 105
-53.129028 -27.696123 9.272748 107 127 107
-51.688133 -27.610424 9.2450466 134 137 122
-51.482819 -27.659451 9.3217125 149 156 147
-51.356419 -27.740526 9.3219013 141 155 142
-51.040813 -27.739872 9.3157339 117 137 116
-50.890907 -27.712696 9.3104639 102 127 106
-50.759312 -27.70785 9.3152237 100 123 105
-50.46487 -27.719236 9.2637701 116 130 124
-50.320389 -27.708429 9.321599 122 134 131
-50.082127 -27.698063 9.3053474 122 133 120
-49.933411 -27.680246 9.3188229 105 124 104
-49.780769 -27.643444 9.3852501 130 147 121
-49.22963 -27.703165 9.3587608 121 119 130
-49.102432 -27.710827 9.3436852 73 90 87
-48.891994 -27.682959 9.3209515 143 136 125
-48.736828 -27.705265 9.2944946 132 129 121
-48.514828 -27.736221 9.3093433 108 115 118
-48.349762 -27.729603 9.3225203 108 116 121
-48.124729 -27.68181 9.2752256 94 107 104
-47.889996 -27.702797 9.2901154 96 109 103
-47.67503 -27.714161 9.2992182 117 126 125
-47.505974 -27.732716 9.2855711 117 123 124
-47.294804 -27.718266 9.2878609 120 130 129
-47.126667 -27.717224 9.2953711 133 137 135
-46.919029 -27.738884 9.2926331 136 142 137
-46.682575 -27.712982 9.2852974 160 162 160
-46.446888 -27.625376 9.3092604 142 143 144
-46.273685 -27.702656 9.3170605 135 134 132
-46.083324 -27.700459 9.2905703 119 122 131
-45.902863 -27.72995 9.2893372 111 122 128
-45.659023 -27.733833 9.3009167 122 129 133
-45.488949 -27.694593 9.2906733 130 129 133
-45.277668 -27.713734 9.2952852 134 136 150
-45.081375 -27.687227 9.2807703 150 144 168
-44.909645 -27.735352 9.293745 148 144 162
-44.733131 -27.705191 9.2923136 154 145 177
-44.533882 -27.671368 9.2613764 171 160 183
-55.531235 -27.410603 9.3681965 174 180 155
-55.379692 -27.491131 9.3727093 133 143 116
-53.494938 -27.492523 9.2556753 136 148 125
-53.310818 -27.458252 9.2816648 88 116 89
-53.175465 -27.525614 9.2325077 136 150 126
-52.713745 -27.441624 9.2039433 108 127 107
-51.823997 -27.523046 9.2338123 136 135 136
-51.665043 -27.464106 9.3201065 124 131 124
-51.497887 -27.511818 9.2933521 130 137 128
-51.359142 -27.532358 9.3158808 127 131 118
-50.84129 -27.530672 9.2839594 90 112 96
-50.790039 -27.526356 9.3058147 77 100 86
-50.318207 -27.579187 9.2482548 114 128 126
-50.099159 -27.539282 9.244381 137 144 143
-49.910923 -27.545063 9.2460489 122 138 115
-49.756382 -27.579729 9.3751926 119 143 117
-49.05431 -27.552481 9.3791046 121 113 108
-48.969906 -27.511595 9.2983274 135 131 133
-48.683556 -27.502993 9.3381786 73 93 76
-48.508404 -27.498621 9.3631458 136 133 136
-48.273857 -27.456551 9.3334713 145 153 141
-48.060955 -27.523233 9.3298521 95 108 100
-47.912666 -27.472988 9.3168392 129 135 132
-47.721577 -27.514561 9.267807 112 120 118
-47.494156 -27.513569 9.2850542 123 125 131
-47.306606 -27.493702 9.2918129 132 134 144
-47.105263 -27.482458 9.3281746 136 136 143
-46.890339 -27.457182 9.3222418 121 129 127
-46.697308 -27.512781 9.2692327 159 156 155
-46.490387 -27.530378 9.2925386 135 135 138
-46.297993 -27.506046 9.3139362 142 143 141
-46.049728 -27.458782 9.2908745 151 149 163
-45.900066 -27.522736 9.336216 126 127 126
-45.63607 -27.490704 9.3515224 121 122 133
-45.470566 -27.509501 9.2714176 140 138 142
-44.919842 -27.536448 9.2817936 150 142 165
-44.691166 -27.568871 9.280426 142 133 160
-44.565258 -27.505047 9.2839947 151 140 170
-55.612404 -27.233452 9.2544069 137 147 123
-55.483517 -27.281994 9.3075218 143 158 131
-55.329853 -27.266668 9.2548504 127 140 122
-53.604252 -27.230934 9.2799168 69 99 73
-53.408813 -27.393379 9.2322159 130 141 111
-53.296837 -27.346655 9.2149868 87 113 88
-53.022293 -27.24404 9.212019 90 119 94
-52.936695 -27.271292 9.2834282 111 135 107
-52.085709 -27.221853 9.2479725 136 138 125
-51.868477 -27.28088 9.309823 135 140 130
-51.670006 -27.300076 9.2906981 121 130 131
-51.525291 -27.293667 9.3130474 122 134 118
-51.346573 -27.312944 9.3488598 129 135 128
-50.928928 -27.328939 9.3131733 95 117 97
-50.663704 -27.386953 9.3674564 80 92 108
-49.255566 -27.297136 9.3828964 91 100 117
-49.005898 -27.247416 9.2109871 124 118 128
-48.801899 -27.333546 9.3059502 94 97 97
-48.606483 -27.366827 9.3609304 120 132 128
-48.513855 -27.362503 9.3555794 138 138 142
-48.321732 -27.282093 9.3441925 120 115 122
-48.1059 -27.308115 9.2890511 99 115 102
-47.903797 -27.361328 9.2395468 124 131 124
-47.760571 -27.328285 9.2574081 117 124 122
-47.420876 -27.313227 9.2869263 145 146 159
-47.29277 -27.317469 9.3240929 128 133 136
-47.111443 -27.303963 9.2993689 135 137 139
-46.920593 -27.326525 9.3132324 126 128 126
-46.655003 -27.304823 9.2882357 163 161 169
-46.488464 -27.291758 9.2918243 142 141 140
-46.339638 -27.308096 9.3152838 137 140 144
-46.022205 -27.359514 9.3156271 139 136 150
-45.915482 -27.350687 9.2624817 143 142 148
-45.492588 -27.270163 9.2946119 153 148 160
-44.859138 -27.231514 9.3378744 157 143 166
-44.693554 -27.301046 9.3559141 180 161 191
-55.619816 -27.010761 9.2079792 110 125 109
-55.454769 -27.135546 9.2675829 128 144 119
-53.552055 -27.199358 9.2442122 67 91 77
-53.260086 -27.05241 9.2591305 66 94 69
-53.069054 -27.1131 9.2015839 144 165 150
-52.427284 -27.059616 9.2038422 171 172 158
-52.0457 -27.114399 9.243103 140 139 136
-51.866108 -27.091318 9.3147678 148 154 150
-51.679226 -27.108479 9.3309641 124 137 124
-51.510963 -27.157206 9.3424749 144 154 128
-51.279572 -27.162941 9.3599339 116 126 115
-51.131336 -27.078341 9.3261118 109 120 109
-50.957642 -27.160141 9.3869381 115 136 111
-49.595737 -27.128527 9.2808952 91 103 81
-49.068531 -27.122213 9.3138266 129 116 129
-48.957787 -27.09864 9.344326 132 121 138
-48.683468 -27.105198 9.2675991 147 138 141
-48.293304 -27.137794 9.2728539 127 128 140
-48.034382 -27.138653 9.2810602 96 109 97
-47.978035 -27.080439 9.3001003 107 116 107
-47.689072 -27.107609 9.2778645 131 130 132
-47.418285 -27.088636 9.2378626 106 108 126
-47.329063 -27.125895 9.2934275 137 136 149
-47.076103 -27.134754 9.2521505 148 147 147
-46.948349 -27.161345 9.2561293 157 155 152
-46.508888 -27.139536 9.282793 145 146 146
-46.296684 -27.086288 9.2949972 157 142 158
-45.623993 -27.174479 9.3939724 140 138 150
-45.472641 -27.115446 9.2804432 141 140 148
-44.853889 -27.172104 9.2632561 160 145 163
-44.718006 -27.13238 9.2944288 162 151 166
-55.454742 -26.850025 9.2901278 120 131 98
-55.323822 -26.91357 9.2529469 121 135 122
-53.456379 -26.906799 9.234561 109 136 111
-53.348602 -26.81892 9.3825111 95 121 94
-52.387192 -26.975855 9.2169905 175 167 154
-52.117523 -26.885675 9.2768536 107 128 111
-51.861835 -26.90509 9.3044357 156 157 160
-51.786858 -26.86923 9.3229952 123 131 126
-51.084579 -26.946205 9.3297777 92 116 93
-50.861835 -26.909388 9.3423138 101 108 111
-49.00613 -26.98731 9.2478657 138 121 133
-48.965427 -26.886028 9.3018637 108 122 119
-47.413094 -26.893494 9.2372065 149 145 159
-47.305557 -26.944473 9.2418442 145 145 156
-47.115631 -26.937983 9.2616377 154 148 159
-46.057632 -26.892035 9.2339172 166 149 168
-45.403938 -26.870993 9.3189268 176 158 184
-45.350937 -26.861103 9.3322582 151 141 158
-55.435112 -26.688395 9.2561264 123 138 106
-55.384182 -26.705917 9.2788162 124 138 112
-54.257072 -26.767012 9.2448883 186 182 171
-53.502613 -26.760246 9.2223024 111 127 114
-52.095116 -26.694447 9.2920036 151 153 148
-51.88728 -26.692411 9.3356352 132 138 137
-51.750034 -26.634151 9.3841276 160 151 160
-50.853405 -26.716253 9.342804 101 101 109
-47.307697 -26.74106 9.2825356 132 128 149
-45.266315 -26.75148 9.2275295 151 139 154
-55.431084 -26.586964 9.2299442 162 170 153
-55.386269 -26.599148 9.2360096 140 153 128
-55.131859 -26.526453 9.3372421 34 62 47
-52.331451 -26.491695 9.2019587 184 183 175
-52.065144 -26.537119 9.2981005 178 176 179
-51.910027 -26.510553 9.2811413 125 131 128
-51.774498 -26.514608 9.3282108 139 144 149
-47.289326 -26.504374 9.3084641 128 126 143
-54.271683 -26.218954 9.2721367 112 127 98
-54.160858 -26.274162 9.2113276 145 156 143
-53.583302 -26.23321 9.2023811 165 175 163
-52.303688 -26.383976 9.2465601 120 117 102
-52.054001 -26.242376 9.3067074 150 158 146
-51.894043 -26.319782 9.2892408 129 139 135
-51.763725 -26.302792 9.3563623 140 154 139
-51.48003 -26.259068 9.3049774 93 112 96
-51.321159 -26.254892 9.2899609 101 121 106
-51.184464 -26.20569 9.3174381 98 117 95
-54.27116 -26.091471 9.2180748 127 142 122
-54.181293 -26.050592 9.2217693 132 147 125
-53.489296 -26.039597 9.3050261 136 148 129
-52.075989 -26.141718 9.3199024 123 133 123
-51.909786 -26.097534 9.3324499 151 147 159
-51.7244 -26.166245 9.3395643 113 127 113
-51.479496 -26.148727 9.299902 87 103 78
-51.326809 -26.162319 9.2956848 101 121 98
-51.165428 -26.175598 9.2949791 101 118 105
-54.131397 -25.942936 9.2497377 132 146 126
-53.65979 -25.829351 9.2334442 149 161 139
-53.478603 -25.888918 9.3065557 153 162 140
-53.391411 -25.915359 9.3620968 158 166 140
-52.000233 -25.881124 9.2270489 39 47 58
-51.871609 -25.964746 9.3304243 132 137 141
-51.792034 -25.820829 9.3188095 140 150 160
-51.308743 -25.929131 9.282877 95 112 98
-51.130848 -25.83094 9.3327265 124 129 133
-50.728031 -25.908335 9.2854118 122 121 131
-55.134193 -25.670055 9.3066654 109 129 102
-54.948601 -25.658241 9.294364 101 124 95
-53.563679 -25.778629 9.2285042 164 178 155
-51.915092 -25.721708 9.2185669 176 165 159
-51.509502 -25.771328 9.2319336 133 134 138
-51.297752 -25.615093 9.3283758 122 130 114
-51.091171 -25.716085 9.2423229 143 136 143
-55.003281 -25.422855 9.2234135 109 117 93
-54.945507 -25.544373 9.2762451 127 141 115
-53.467377 -25.420706 9.3717442 158 171 145
-52.124058 -25.560305 9.2809315 151 158 154
-51.903687 -25.505026 9.2493677 128 124 128
-51.786068 -25.457588 9.2660046 126 130 135
-51.506893 -25.432793 9.396122 168 183 204
-51.382038 -25.570831 9.2447987 177 183 181
-54.403252 -25.282734 9.2429581 65 91 78
-53.439224 -25.295809 9.3019657 151 161 138
-53.381664 -25.231573 9.2742863 158 171 145
-51.620224 -25.355228 9.3777237 48 64 51
-51.487606 -25.335897 9.2998161 107 122 115
-51.374237 -25.256012 9.2989655 161 163 177
-54.46949 -25.166517 9.2284126 76 96 85
-53.496571 -25.158846 9.2262812 171 182 161
-51.874512 -25.141743 9.3764095 96 106 108
-51.696499 -25.11475 9.3463879 133 138 133
-51.586876 -25.12252 9.2858982 107 117 118
-53.583626 -24.969173 9.2278271 162 175 157
-52.008316 -41.649075 9.5270405 65 84 64
-50.824593 -41.634285 9.5053177 122 135 107
-51.215652 -41.579018 9.5029507 102 124 98
-48.818771 -41.43623 9.4761906 90 112 99
-48.67627 -41.497391 9.5846844 91 112 95
-48.494835 -41.403969 9.519906 115 134 118
-48.162773 -41.445942 9.5345345 83 107 93
-53.046848 -41.294357 9.421423 64 90 84
-48.829647 -41.306423 9.4829216 75 98 80
-48.71418 -41.379097 9.5396233 96 119 103
-48.414791 -41.272522 9.5351353 90 112 100
-52.91349 -41.136322 9.4293385 65 87 77
