ply
format ascii 1.0
comment PCL generated
element vertex 1135
property float x
property float y
property float z
property uchar red
property uchar green
property uchar blue
element face 0
element camera 0
property float view_px
property float view_py
property float view_pz
property float x_axisx
property float x_axisy
property float x_axisz
property float y_axisx
property float y_axisy
property float y_axisz
property float z_axisx
property float z_axisy
property float z_axisz
property float focal
property float scalex
property float scaley
property float centerx
property float centery
property int viewportx
property int viewporty
property float k1
property float k2
end_header
16.331715 -30.950827 13.483086 156 150 144
16.50285 -30.956848 13.475372 132 129 125
16.62701 -30.953255 13.503045 120 124 116
3.0123146 -30.777309 13.520514 118 119 114
3.7222178 -30.677498 13.474017 136 130 134
3.8554323 -30.717033 13.541963 136 129 133
4.3310885 -30.723412 13.475718 107 107 111
4.4977279 -30.70813 13.504558 87 93 95
4.6930871 -30.703682 13.521867 68 79 76
4.8905153 -30.719843 13.516498 82 89 89
5.0812049 -30.677706 13.505569 84 88 90
5.3105187 -30.696686 13.520305 91 98 100
5.523798 -30.681929 13.526072 121 122 125
5.7148857 -30.704451 13.513853 131 124 130
5.8284054 -30.689962 13.514801 135 119 125
6.3609433 -30.729347 13.423973 143 142 150
6.5199223 -30.73473 13.404125 122 112 124
7.0892463 -30.688099 13.534604 124 122 124
7.2916584 -30.762522 13.489787 138 134 133
8.1259432 -30.72471 13.540318 50 47 56
8.5293055 -30.668165 13.498601 83 81 87
9.4907637 -30.618206 13.494438 83 75 85
9.7000837 -30.675943 13.539042 70 74 81
9.9215193 -30.726362 13.497725 84 81 91
10.09833 -30.735273 13.51201 81 81 86
10.261055 -30.724773 13.472283 91 88 93
10.418564 -30.778437 13.496501 97 95 106
10.958108 -30.681866 13.493206 86 91 92
11.027156 -30.72403 13.534259 81 86 87
11.729984 -30.658829 13.493519 112 112 110
11.910255 -30.61006 13.411589 112 108 111
13.308912 -30.726797 13.508234 159 157 158
13.485225 -30.720324 13.492747 115 112 111
13.919096 -30.637157 13.489338 171 159 159
14.080762 -30.657434 13.517011 127 119 122
14.270887 -30.66279 13.557981 115 112 105
14.541179 -30.672527 13.495371 170 162 159
14.829461 -30.760107 13.586348 65 61 58
15.051779 -30.782772 13.456657 115 113 114
15.258254 -30.754358 13.445838 105 109 102
3.5598364 -30.474691 13.465372 133 118 122
3.6725512 -30.503056 13.506597 138 126 131
3.8630207 -30.51392 13.51561 128 119 122
4.1699424 -30.515591 13.543497 112 107 113
4.3289971 -30.51391 13.489337 113 109 113
4.5180564 -30.482212 13.498445 85 92 93
4.7226834 -30.499729 13.489391 73 83 83
4.9111576 -30.495922 13.516338 96 99 103
5.1123929 -30.502228 13.50676 104 104 106
5.3032465 -30.528828 13.508091 106 108 108
5.4990268 -30.495447 13.4987 129 121 128
5.6712718 -30.547882 13.545891 132 125 133
5.8551636 -30.548578 13.500927 79 73 78
6.8594561 -30.424412 13.513468 74 70 71
7.0906997 -30.535809 13.496678 118 116 120
7.8662195 -30.571247 13.577048 87 78 88
8.2404728 -30.407572 13.491972 99 82 101
8.4775019 -30.55793 13.536323 73 71 80
8.8738327 -30.508675 13.493306 53 51 59
9.4121723 -30.420746 13.460157 111 108 115
9.7231865 -30.551737 13.542553 90 97 100
9.8683147 -30.460911 13.465897 72 65 76
10.042102 -30.512299 13.476791 96 84 96
10.539547 -30.542345 13.495441 106 97 107
10.728626 -30.477522 13.525614 85 85 88
10.909313 -30.490664 13.521724 87 89 92
11.081033 -30.467562 13.504114 91 96 96
11.257361 -30.456396 13.53338 92 96 98
11.74254 -30.49337 13.431834 146 143 138
14.195489 -30.487881 13.408461 107 100 90
3.5251095 -30.361403 13.479121 148 135 143
3.680881 -30.283182 13.515768 119 109 113
3.9316542 -30.258242 13.535254 133 122 127
4.1472254 -30.267637 13.494317 120 114 121
4.3066292 -30.293636 13.503213 116 113 119
4.5290036 -30.32103 13.526799 97 100 102
4.7120371 -30.299265 13.514915 75 85 83
4.9052172 -30.317621 13.496736 114 108 113
5.0671659 -30.310366 13.54129 147 137 144
5.3024907 -30.347235 13.541789 117 113 118
5.4864931 -30.313715 13.523073 141 127 138
5.7672448 -30.278681 13.486119 96 99 103
5.9114585 -30.308096 13.51285 76 77 80
6.076108 -30.261536 13.478306 94 93 96
6.2499757 -30.248371 13.459772 95 85 94
6.4041815 -30.23245 13.558038 156 144 146
6.9777517 -30.351543 13.435184 138 119 129
7.0461755 -30.290787 13.492854 149 132 141
7.7005544 -30.335619 13.549479 82 80 89
8.5421524 -30.257154 13.500998 89 84 91
8.7307272 -30.342226 13.534102 88 89 93
8.9050131 -30.343214 13.514492 78 82 87
9.1743584 -30.293922 13.5318 84 79 83
10.378403 -30.259811 13.512122 96 94 105
10.547114 -30.312778 13.536971 95 87 99
10.726142 -30.308439 13.548243 84 85 89
10.898522 -30.308102 13.50876 94 93 95
11.096263 -30.303972 13.495902 102 102 102
11.291488 -30.291288 13.505633 92 95 97
11.422086 -30.243494 13.479617 68 74 68
11.945476 -30.310009 13.420594 139 134 128
14.071659 -30.226492 13.450739 143 141 129
3.5326035 -30.148056 13.447129 113 111 106
3.7077432 -30.118423 13.545769 137 129 130
3.9212921 -30.116602 13.508543 100 92 95
4.1342788 -30.095238 13.507308 113 113 112
4.2932658 -30.106203 13.50581 105 105 108
4.5197206 -30.110004 13.506462 94 94 97
4.7126117 -30.094755 13.50935 93 101 101
4.9010696 -30.107126 13.509805 116 115 119
5.0737624 -30.085737 13.531171 127 116 124
5.3454957 -30.034889 13.536592 160 148 160
5.4987068 -30.171553 13.509269 139 123 134
5.7583008 -30.155033 13.541728 156 142 161
5.990077 -30.138159 13.456165 84 81 85
6.0769839 -30.120287 13.508722 92 85 93
6.3092003 -30.074095 13.557542 140 137 144
7.6122041 -30.106606 13.504795 88 85 96
7.9014153 -30.126484 13.584826 191 165 192
8.3478117 -30.113317 13.489833 92 90 99
8.4641685 -30.133976 13.455669 70 73 80
8.6156187 -30.142353 13.407053 89 88 93
10.314518 -30.000544 13.549149 78 68 77
10.519622 -30.125402 13.525473 83 80 85
10.734426 -30.127045 13.499619 69 70 75
10.914909 -30.119394 13.535356 95 94 96
11.061255 -30.126225 13.531377 116 112 112
11.350264 -30.11684 13.505734 93 94 94
11.478914 -30.096132 13.523108 95 96 92
4.1376228 -29.932478 13.471112 109 106 105
4.3018055 -29.906404 13.510737 121 117 118
4.4950686 -29.89847 13.510796 95 102 101
4.6803598 -29.91094 13.4944 85 96 94
4.9175529 -29.932127 13.479569 101 98 103
5.0734725 -29.918018 13.489146 134 121 130
5.297574 -29.944893 13.542236 151 139 146
5.7353806 -29.944628 13.480667 71 78 77
5.8793378 -29.905685 13.539661 81 81 87
6.0850172 -29.899094 13.515405 111 101 109
6.3380036 -29.959787 13.436145 99 92 100
6.5328059 -29.967688 13.471226 170 156 171
7.3830962 -29.89518 13.403296 98 88 96
7.4731598 -29.82576 13.479283 103 102 105
7.6376705 -29.927559 13.489595 117 111 113
10.248512 -29.95826 13.57272 80 73 80
10.692618 -29.880238 13.576775 128 127 122
10.849463 -29.94779 13.491565 103 104 105
11.339755 -29.899685 13.543076 94 93 89
11.474634 -29.907637 13.489285 88 94 89
4.3553219 -29.772827 13.456853 113 110 104
4.477365 -29.73963 13.507242 140 140 137
4.836719 -29.747845 13.404734 102 95 99
5.104692 -29.708824 13.485872 147 137 144
5.2568808 -29.722492 13.549963 153 143 151
5.762331 -29.747099 13.557367 71 60 74
5.9178958 -29.666119 13.591394 116 103 114
6.0717654 -29.681854 13.486611 115 109 117
6.2388167 -29.767353 13.442417 111 101 112
7.021544 -29.668993 13.587864 105 91 104
7.4892759 -29.697783 13.525048 109 105 113
7.6358833 -29.695404 13.471641 154 148 150
8.3696651 -29.763382 13.47859 82 82 90
8.575202 -29.75577 13.482672 80 79 84
9.7627621 -29.635504 13.55305 95 97 97
9.8918619 -29.636841 13.525036 87 86 89
10.070658 -29.658428 13.542181 145 134 135
11.169768 -29.743608 13.589907 102 97 101
11.316549 -29.709789 13.511703 96 95 97
11.471828 -29.702118 13.47825 89 92 89
11.6002 -29.652248 13.544392 90 97 89
4.6842175 -29.436848 13.408222 142 132 133
4.918469 -29.501301 13.510755 127 112 120
5.076539 -29.520817 13.505897 155 142 150
5.667707 -29.531702 13.537155 107 103 110
5.8983722 -29.48101 13.489429 124 115 125
6.1412244 -29.53544 13.598693 102 89 103
6.2366133 -29.408731 13.58466 169 148 161
6.8832936 -29.540813 13.531626 90 84 94
7.5380483 -29.56189 13.487865 75 64 71
9.0827179 -29.466991 13.435982 97 93 100
9.2029209 -29.430941 13.410542 53 58 62
9.7378654 -29.461863 13.481373 97 96 99
9.9188604 -29.465172 13.499063 86 88 88
10.081063 -29.535925 13.535904 106 100 101
11.374803 -29.546824 13.52095 104 101 105
11.421912 -29.511122 13.50582 85 85 85
13.988499 -29.569082 13.410963 85 81 78
14.086861 -29.436972 13.476176 107 104 99
4.776546 -29.372162 13.425154 118 111 110
4.8922329 -29.300869 13.464294 126 120 121
5.1015887 -29.3069 13.525578 168 151 161
5.3734303 -29.267086 13.401492 122 116 130
5.4555664 -29.278023 13.561317 132 123 138
5.9113097 -29.342577 13.470451 117 109 118
6.1371131 -29.323313 13.494974 104 91 102
7.5495667 -29.353107 13.46845 86 81 88
7.6525888 -29.268744 13.49309 99 101 104
7.8417549 -29.316612 13.417412 168 162 166
8.7403479 -29.218332 13.585703 41 49 52
8.9606724 -29.310551 13.472725 74 78 82
9.0700674 -29.291235 13.484969 66 65 71
9.3462467 -29.233746 13.424564 94 92 95
9.5218353 -29.253592 13.516121 90 86 92
9.7619104 -29.291395 13.515575 104 101 104
9.8884888 -29.301926 13.532968 106 104 105
10.050604 -29.257627 13.536103 106 104 105
10.568495 -29.219864 13.465634 90 85 90
10.713088 -29.262455 13.49603 118 112 111
10.918265 -29.24638 13.508396 127 119 119
11.34944 -29.263487 13.511412 112 108 105
11.452235 -29.28721 13.472578 84 86 84
11.749498 -29.227289 13.537618 142 131 129
14.126535 -29.372618 13.468794 127 123 119
4.9678063 -29.100159 13.514991 121 114 116
5.1187868 -29.080736 13.533678 170 159 165
5.2602367 -29.042902 13.569963 145 135 143
5.5314493 -29.049969 13.554 109 108 114
5.613153 -29.055954 13.530674 124 123 127
5.9448214 -29.019527 13.495891 112 110 114
6.138999 -29.057701 13.537191 114 110 123
6.2823462 -29.031584 13.529724 89 87 92
6.4176245 -29.071409 13.563057 112 101 107
6.864531 -29.007875 13.561661 78 73 80
8.285923 -29.043087 13.570427 96 89 93
8.7171469 -29.077824 13.420964 83 81 91
8.9315205 -29.081268 13.476458 88 87 92
9.1082296 -29.085091 13.51578 94 89 95
9.3042154 -29.150909 13.503809 102 94 99
9.5056171 -29.162159 13.489801 108 104 105
9.703618 -29.101433 13.500628 102 98 102
9.8861227 -29.113615 13.485908 99 94 98
10.117114 -29.126244 13.49467 123 113 113
10.217218 -29.120914 13.511162 123 119 113
10.510636 -29.074875 13.515002 94 93 94
10.7338 -29.093166 13.50784 103 101 98
10.904237 -29.078753 13.501478 131 121 120
11.118995 -29.081375 13.492684 138 124 126
11.294512 -29.116129 13.481304 129 119 121
11.44248 -29.119953 13.462778 113 113 114
4.9964952 -28.862888 13.424047 154 143 147
5.1220517 -28.932144 13.483197 139 132 135
5.309989 -28.901754 13.49075 122 117 122
5.4900699 -28.90954 13.533838 122 116 121
5.7234025 -28.860891 13.55675 155 147 153
5.9004436 -28.863316 13.49669 102 98 103
6.0887671 -28.908691 13.475484 90 89 95
6.2885408 -28.913721 13.530673 143 130 138
6.4540343 -28.931894 13.497955 127 115 125
6.7897835 -28.921154 13.487879 66 67 71
6.8943572 -28.903486 13.504799 87 86 92
7.0468521 -28.866903 13.508822 113 108 115
7.8766594 -28.910509 13.521016 109 100 107
8.0784073 -28.864279 13.514395 81 82 86
8.3135672 -28.838776 13.57238 82 85 91
8.5497694 -28.880507 13.507385 88 88 94
8.7016354 -28.931221 13.495193 112 107 114
8.939393 -28.902782 13.46067 109 105 111
9.0997391 -28.897102 13.532445 122 112 116
9.2655468 -28.899258 13.527952 125 114 115
9.5218029 -28.881754 13.539721 103 100 105
9.6473455 -28.918653 13.48806 78 79 82
9.9742813 -28.90535 13.555536 133 118 121
10.164662 -28.926558 13.448757 137 127 124
10.251938 -28.870142 13.499986 145 129 124
10.516426 -28.890095 13.4971 105 102 101
10.710293 -28.897558 13.465353 122 114 111
10.902345 -28.896746 13.492566 126 115 117
11.080133 -28.923555 13.461552 110 107 107
11.256932 -28.957422 13.440755 139 126 129
11.400566 -28.956936 13.417593 83 77 79
5.1422968 -28.724823 13.457773 126 121 121
5.2964215 -28.715796 13.494624 124 121 121
5.4947701 -28.719664 13.469785 137 128 134
5.6986494 -28.681398 13.484461 112 108 114
5.9003053 -28.709309 13.48536 105 104 109
6.0608969 -28.72015 13.507742 90 89 95
6.3095422 -28.711962 13.48203 120 112 122
6.4842796 -28.698561 13.452822 154 138 150
6.9143729 -28.704193 13.51541 81 81 84
7.0754452 -28.694815 13.467696 107 103 109
7.2512083 -28.648611 13.506403 108 99 103
7.5648308 -28.626549 13.579878 90 85 92
7.7267203 -28.66201 13.526316 88 87 91
7.9034019 -28.713593 13.493398 104 101 105
8.1004982 -28.684242 13.50819 98 96 101
8.3182526 -28.689659 13.482071 86 85 92
8.4597673 -28.735086 13.465378 88 92 98
8.9118013 -28.714565 13.479597 127 118 123
9.0703526 -28.667015 13.476455 106 102 109
9.2806339 -28.719055 13.514637 81 80 84
9.4545593 -28.741585 13.476049 92 92 95
9.739172 -28.606342 13.461351 74 70 71
9.9145107 -28.77581 13.518616 79 67 74
10.141165 -28.753408 13.488215 124 110 109
10.297904 -28.735497 13.490342 117 107 107
10.462361 -28.742479 13.48194 101 98 97
10.658148 -28.72052 13.44282 121 117 117
10.874283 -28.736214 13.445815 124 112 115
11.029864 -28.738319 13.401611 83 80 78
4.9825072 -28.413422 13.401949 146 129 137
5.1727605 -28.472687 13.453769 110 99 103
5.3118472 -28.491327 13.494018 113 106 109
5.5246024 -28.50416 13.473769 107 104 106
5.6802716 -28.551308 13.467381 96 97 100
5.8018856 -28.589613 13.424845 108 105 111
6.1548738 -28.490274 13.502205 206 192 209
6.5378675 -28.530304 13.479468 148 138 146
6.6575646 -28.428455 13.472751 129 116 126
6.9719491 -28.531952 13.453545 104 100 102
7.1052232 -28.518042 13.490042 102 97 102
7.2723961 -28.534464 13.487871 115 102 106
7.755167 -28.525343 13.537661 96 92 96
7.8854609 -28.512377 13.486959 103 97 101
8.1059465 -28.494705 13.516869 97 93 97
8.2385569 -28.518766 13.498544 94 93 99
8.8381186 -28.564289 13.428984 95 87 102
9.1272106 -28.588276 13.408401 103 101 106
9.7728662 -28.458313 13.466556 124 113 114
9.8696594 -28.569174 13.54053 102 99 100
10.056295 -28.522434 13.492791 105 101 105
10.345939 -28.49902 13.456251 122 116 115
10.521012 -28.49502 13.503873 131 123 121
10.66734 -28.482199 13.486691 105 101 100
5.1141009 -28.297043 13.448422 127 116 119
5.2994475 -28.314922 13.471871 107 103 108
5.4931674 -28.310396 13.475708 91 88 90
6.1332879 -28.221682 13.458606 82 80 85
6.309772 -28.335501 13.45408 97 92 99
6.5065255 -28.341135 13.510742 123 113 118
6.7210288 -28.320555 13.46462 164 146 157
7.679884 -28.288195 13.56104 119 108 112
7.9805536 -28.234085 13.448386 98 95 100
8.072691 -28.331013 13.486871 111 105 111
9.7181225 -28.343735 13.480247 105 94 100
9.8963604 -28.281315 13.427355 128 119 123
10.097868 -28.24235 13.490672 107 104 101
10.332888 -28.312359 13.478989 135 126 121
10.494736 -28.317833 13.511392 141 125 125
10.694258 -28.316185 13.497145 88 82 83
10.811832 -28.353533 13.485131 78 80 76
6.5201645 -28.057211 13.418584 124 109 120
6.6327863 -28.136581 13.473392 123 113 122
6.8929234 -28.082994 13.531534 164 145 156
7.0434866 -28.023937 13.54171 145 129 140
7.5419393 -28.089161 13.519358 115 107 112
7.6962032 -28.068365 13.546396 158 139 145
7.9477663 -28.08935 13.514155 129 113 120
8.0506754 -28.109394 13.493246 86 81 89
9.9029779 -28.098627 13.502586 155 135 136
10.122541 -28.08588 13.539321 104 99 98
10.249055 -28.142754 13.461628 95 92 93
10.559005 -28.191402 13.413179 142 123 117
10.631641 -28.147787 13.485832 67 69 64
12.065971 -28.030973 13.525763 102 103 99
6.7096705 -27.960468 13.431895 123 116 120
6.9243422 -27.938396 13.515973 142 127 138
7.121232 -27.918522 13.547331 170 142 155
7.4975638 -27.911963 13.509724 101 92 103
7.7112069 -27.913485 13.502932 108 99 104
7.9253545 -27.930864 13.506166 110 102 110
8.0097246 -27.914835 13.437527 79 77 91
9.8507767 -27.989662 13.488647 162 157 153
10.116906 -27.946959 13.545885 89 86 87
10.243694 -27.98625 13.481573 70 72 69
12.001416 -27.805595 13.402475 100 99 94
6.7399921 -27.758102 13.512931 143 123 135
7.1239967 -27.74369 13.542875 93 88 94
7.2878928 -27.772337 13.48539 115 106 114
7.569428 -27.766891 13.425823 94 92 97
12.023131 -27.702946 13.457844 136 132 129
6.9452877 -26.449093 13.51798 158 147 161
7.0290747 -26.416597 13.455944 129 117 131
6.9413481 -26.293985 13.451096 153 135 152
7.0021973 -26.361309 13.473333 127 124 131
7.2497878 -26.232866 13.499383 157 148 155
6.2548189 -26.039377 13.531429 152 136 148
6.9030771 -26.188009 13.433922 127 110 130
7.0993996 -26.146418 13.415478 150 137 156
7.2598782 -26.131565 13.477069 122 110 121
6.1205902 -25.962009 13.448534 167 145 160
6.2349443 -25.913973 13.48522 139 127 147
6.4280734 -25.943529 13.445503 153 143 155
6.6448503 -25.946951 13.429745 160 148 164
6.8743801 -25.945705 13.467493 127 118 134
9.8092442 -40.71138 13.674268 131 118 127
13.836155 -40.413349 13.6466 69 87 71
14.066442 -40.471573 13.659714 74 92 77
13.746253 -40.262047 13.700488 120 119 115
13.913244 -40.301456 13.705147 98 104 99
14.071434 -40.329174 13.62993 76 91 82
13.543891 -40.041946 13.647441 132 123 124
13.724429 -40.116768 13.714805 154 145 144
13.903805 -40.114391 13.706641 125 131 125
14.019267 -40.170712 13.644239 81 91 83
4.8738604 -39.892242 13.643997 115 114 112
5.3068347 -39.926926 13.633666 128 134 119
13.500172 -39.974121 13.714651 135 122 114
13.93717 -39.872158 13.652472 143 140 137
5.0860028 -39.79105 13.767172 135 136 122
5.5338831 -39.737431 13.638052 89 101 89
5.6920385 -39.665985 13.711277 114 121 108
13.749634 -39.657532 13.688082 117 109 110
13.850485 -39.694931 13.717044 146 136 135
14.060361 -39.697002 13.680759 104 109 101
4.7237115 -39.561554 13.672581 98 84 81
4.8765392 -39.451767 13.75441 144 132 125
5.1339774 -39.450909 13.682528 152 140 140
5.2920918 -39.513542 13.668135 126 129 123
5.505064 -39.511406 13.657517 129 129 121
5.7023468 -39.457069 13.709697 110 114 108
5.9519958 -39.537682 13.640003 103 115 114
13.512509 -39.456539 13.720923 151 147 151
13.688757 -39.500778 13.736902 166 153 158
13.899074 -39.486992 13.703256 158 147 148
14.053029 -39.550636 13.696567 106 109 105
4.7895479 -39.38308 13.699197 131 131 123
4.9420438 -39.251362 13.607727 111 122 114
5.0791888 -39.337654 13.694948 154 149 145
5.3359323 -39.347351 13.7161 125 125 118
5.5306358 -39.292152 13.68342 98 103 97
5.7192216 -39.259449 13.703138 108 116 112
6.275259 -39.222107 13.601027 109 114 112
6.4395614 -39.255009 13.666166 118 123 117
13.367311 -39.313385 13.657512 151 144 150
13.512889 -39.286491 13.721581 172 159 164
13.693754 -39.286129 13.705935 153 144 145
13.865417 -39.295338 13.71301 169 161 160
14.043289 -39.388325 13.611803 153 147 147
5.098217 -39.155952 13.712992 130 132 124
5.3250661 -39.112877 13.686734 116 120 116
5.4932137 -39.055771 13.716504 110 114 110
5.6730027 -39.083076 13.703766 101 110 106
5.839232 -39.076351 13.655642 89 99 96
6.0425248 -39.10532 13.639729 89 95 92
6.3000293 -39.092121 13.674983 120 125 123
6.4627848 -39.058182 13.666537 116 119 120
7.9053111 -39.062832 13.637138 83 92 86
13.509781 -39.13073 13.680899 141 134 138
13.663098 -39.179729 13.719504 141 134 134
4.7186561 -38.88369 13.701077 121 116 111
4.9098625 -38.904064 13.698731 119 120 112
5.3288136 -38.918884 13.7005 100 109 100
5.575942 -38.950737 13.67913 104 109 105
5.7020469 -38.915417 13.704323 100 107 103
5.9389653 -38.940342 13.686843 78 88 87
6.0880833 -38.913757 13.758162 96 101 98
6.2810602 -38.916683 13.69469 109 114 111
6.5179658 -38.886818 13.658546 106 111 109
6.7098861 -38.895473 13.710766 114 118 111
6.8212967 -38.899529 13.688268 120 130 119
7.1267476 -38.858398 13.617208 135 134 140
7.2411366 -38.864891 13.658071 85 92 91
7.5904756 -38.828495 13.684947 62 71 68
7.6958113 -38.901333 13.669973 124 127 125
7.9032788 -38.880287 13.676007 136 131 128
8.0823832 -38.899937 13.677556 110 116 108
4.7258849 -38.673244 13.701258 131 118 111
5.5252719 -38.689659 13.689037 99 108 99
5.704845 -38.680077 13.673979 104 112 103
5.8716974 -38.644352 13.687868 115 122 117
6.1208363 -38.671169 13.748495 123 130 128
6.2940578 -38.686356 13.73659 104 108 110
6.5458264 -38.733807 13.654431 110 112 111
6.7042422 -38.710003 13.690692 115 119 116
6.834146 -38.754734 13.686772 102 111 107
7.15626 -38.661724 13.638023 114 117 118
7.2882905 -38.714607 13.703115 130 132 132
7.4904366 -38.68251 13.679121 123 124 120
7.6939549 -38.701904 13.680528 122 124 118
7.8865147 -38.687412 13.674883 139 136 134
8.0901146 -38.663475 13.73123 111 117 111
8.335248 -38.733891 13.685745 99 109 100
8.4249115 -38.711578 13.747993 105 118 109
4.7181306 -38.500923 13.62134 96 96 86
4.8830986 -38.476467 13.718529 103 108 96
5.5422606 -38.533531 13.701136 106 115 105
5.6971822 -38.499836 13.724388 101 106 100
5.8857899 -38.486973 13.712623 100 105 102
6.1089878 -38.498146 13.697005 103 108 108
6.2936444 -38.502647 13.711619 104 109 107
6.4982352 -38.465382 13.711217 113 116 116
6.7223058 -38.520695 13.659816 105 109 112
6.9133406 -38.497654 13.68341 94 104 104
7.0951042 -38.46088 13.692717 109 113 113
7.3077135 -38.511887 13.683734 130 129 127
7.5098014 -38.491653 13.730571 142 135 133
7.6713037 -38.499554 13.734596 116 122 117
7.8848472 -38.534225 13.719315 138 136 136
8.0830345 -38.533546 13.717738 118 122 120
8.2520838 -38.582294 13.685566 101 108 106
4.7066083 -38.321533 13.688746 85 74 80
4.8867912 -38.268787 13.693201 109 112 105
5.0258904 -38.267509 13.754503 96 98 91
5.5116062 -38.269928 13.714205 81 93 90
5.6852412 -38.28389 13.706987 92 96 98
5.8787766 -38.328232 13.741707 97 102 101
6.1131234 -38.292194 13.700171 85 93 93
6.3421707 -38.306183 13.746097 97 109 108
6.4978395 -38.311218 13.660632 98 106 105
6.6790791 -38.337925 13.69147 113 112 114
6.8546181 -38.285114 13.718133 115 111 112
7.0743966 -38.299335 13.713024 114 112 112
7.3085341 -38.281567 13.709208 115 115 115
7.5222821 -38.270691 13.718228 127 126 128
7.6483798 -38.303932 13.689501 104 111 113
7.841053 -38.301842 13.650015 79 92 85
8.0894012 -38.373341 13.734703 110 119 118
4.417778 -38.062443 13.796165 130 138 123
4.7714648 -38.154156 13.639721 109 107 95
4.8780527 -38.127831 13.743011 112 112 102
5.0880456 -38.133217 13.694505 135 139 125
5.5568204 -38.182636 13.752644 100 101 106
5.9470224 -38.085617 13.715017 100 106 113
6.111311 -38.082108 13.689737 95 99 105
6.3218179 -38.071701 13.683012 105 112 116
6.460135 -38.076336 13.688703 95 103 105
6.7245712 -38.088039 13.712679 117 115 116
6.8309755 -38.070076 13.783994 130 120 124
7.1338959 -38.107883 13.763684 101 103 102
7.3030295 -38.064251 13.717457 99 101 103
7.4777842 -38.126572 13.685317 113 116 117
7.6573887 -38.060936 13.744981 66 76 76
4.7123418 -37.972748 13.728477 127 131 124
4.8833299 -37.859341 13.727799 117 120 119
5.118443 -37.844936 13.71366 102 108 105
5.2892241 -37.883793 13.692698 89 97 95
5.5055833 -37.888905 13.703766 98 102 103
5.9395132 -37.875908 13.718362 92 95 98
6.0971489 -37.873173 13.712851 97 99 104
6.3167872 -37.907925 13.707871 103 106 111
6.4963193 -37.911556 13.688464 112 112 119
6.7132125 -37.850899 13.716107 119 119 123
6.8429723 -37.886997 13.730215 135 130 128
7.1380663 -37.880363 13.657184 109 107 114
7.2906127 -37.912479 13.718923 101 104 107
7.513227 -37.920616 13.685081 115 114 116
7.6573544 -37.886806 13.693164 120 118 124
7.9807296 -37.884296 13.705134 98 106 103
4.5706811 -37.721516 13.693929 171 165 156
4.6955094 -37.662975 13.71087 140 137 129
4.897285 -37.72197 13.710382 105 109 105
5.0916452 -37.712425 13.685883 112 115 114
5.3155594 -37.699474 13.728012 98 104 102
5.519341 -37.7202 13.694664 90 99 97
5.6768613 -37.695309 13.715446 98 105 106
5.9040351 -37.727867 13.700348 101 109 112
6.0805326 -37.756248 13.680835 102 105 110
6.3079581 -37.716141 13.750216 86 95 93
6.5327091 -37.6703 13.726916 124 123 126
6.6955538 -37.681812 13.708209 132 130 128
7.1371288 -37.659878 13.692271 125 120 116
7.3468971 -37.713387 13.700191 98 97 106
7.4952908 -37.677013 13.702639 115 111 112
7.6927695 -37.68158 13.703694 135 128 132
7.8710704 -37.701336 13.72931 103 112 109
8.2125273 -37.63166 13.708174 77 88 84
4.9609656 -37.450993 13.652204 80 80 80
5.1115689 -37.497894 13.70165 125 123 122
5.3060207 -37.485443 13.712181 112 115 114
5.4947639 -37.507931 13.713605 97 103 104
5.7015142 -37.530476 13.70335 92 101 103
5.8329339 -37.506863 13.709302 91 102 103
6.0759635 -37.483086 13.674676 81 91 93
6.3030071 -37.467178 13.711455 95 102 104
6.4878502 -37.495991 13.733545 80 89 90
6.6959028 -37.538425 13.690743 120 118 118
6.8428531 -37.523689 13.707341 129 123 124
7.1362138 -37.494038 13.723688 134 123 132
7.2780237 -37.502674 13.701111 113 107 109
7.5014567 -37.504757 13.701996 116 112 114
7.6790161 -37.522438 13.680902 102 104 107
7.8741875 -37.486412 13.713712 87 100 97
8.0973139 -37.598503 13.647995 84 95 92
8.4953547 -37.466103 13.675849 120 118 119
4.9782772 -37.292233 13.654283 40 47 39
5.1546278 -37.325428 13.732236 108 113 107
5.3003354 -37.289314 13.692504 126 129 127
5.5032144 -37.309353 13.701553 96 101 100
5.6718216 -37.325226 13.73149 98 106 106
5.9194198 -37.300064 13.675224 106 113 112
6.173892 -37.282665 13.680582 109 116 113
6.341352 -37.265415 13.702771 123 116 120
6.5037246 -37.277977 13.698058 123 117 120
6.6458211 -37.300632 13.716708 115 111 117
6.8769722 -37.310127 13.714602 177 162 170
7.1337118 -37.259155 13.722326 111 109 114
7.3009753 -37.264183 13.700038 114 113 117
7.5095854 -37.303619 13.683937 115 113 117
7.690752 -37.32513 13.679935 109 107 114
7.8857412 -37.282272 13.705465 91 99 103
8.0373058 -37.207539 13.695786 68 77 86
8.4549627 -37.364151 13.637386 118 121 118
4.9644732 -37.085644 13.678393 80 84 83
5.1264219 -37.089367 13.697812 86 89 88
5.5221133 -37.195606 13.745105 84 92 83
6.331039 -37.099445 13.664386 123 118 119
6.5136065 -37.095913 13.677387 120 113 117
6.7177463 -37.109642 13.698571 108 107 110
6.9019346 -37.123272 13.688957 113 114 116
7.0926375 -37.127064 13.688552 96 100 102
7.3018646 -37.142006 13.698454 91 98 99
7.4885998 -37.13879 13.676166 86 95 94
7.6803436 -37.098053 13.681801 112 113 115
7.9146538 -37.094627 13.716768 107 113 115
8.0136814 -37.123341 13.606052 65 80 77
5.0901694 -36.96854 13.665127 59 68 68
5.2693777 -36.936569 13.660587 110 113 111
6.1719813 -36.978004 13.73465 131 137 123
6.3621483 -36.906788 13.619234 90 96 96
6.5115371 -36.905914 13.685905 112 113 114
6.6896129 -36.904068 13.692437 106 107 108
6.9249449 -36.93417 13.679265 77 89 85
7.1053491 -36.886463 13.604448 72 87 81
7.770009 -36.952259 13.666187 112 116 121
7.9325733 -36.951088 13.652298 86 97 100
8.005825 -36.969185 13.69479 86 85 93
8.4889288 -36.856888 13.620836 87 98 95
6.0495343 -36.792789 13.758024 79 92 83
6.3252964 -36.68782 13.677273 126 130 131
6.5003295 -36.677891 13.721099 107 110 109
6.7187572 -36.714378 13.698704 96 103 101
6.9124036 -36.72308 13.704516 75 89 84
7.0971608 -36.698673 13.684166 72 87 84
7.2449584 -36.649666 13.655058 76 88 88
8.275054 -36.691677 13.629842 106 111 111
8.4914646 -36.696953 13.645256 127 135 133
8.7085323 -36.640419 13.67557 80 86 83
8.9139814 -36.62196 13.662048 121 127 117
6.3195615 -36.526585 13.70523 119 123 120
6.4858871 -36.526367 13.694193 113 118 115
6.6999331 -36.498764 13.685834 101 108 108
6.8643856 -36.506207 13.611555 74 86 85
7.1085997 -36.516678 13.619761 70 84 82
7.2478743 -36.534286 13.717056 68 81 79
8.334981 -36.491543 13.61908 127 123 113
8.5302525 -36.496464 13.654093 126 125 122
8.6890297 -36.489758 13.683569 117 116 114
8.9015617 -36.457905 13.707927 107 109 106
9.0385761 -36.464378 13.660068 103 109 105
6.3060665 -36.310722 13.667887 115 124 123
6.5258975 -36.313293 13.682375 101 107 103
6.7161493 -36.325539 13.706146 96 102 100
6.8846273 -36.311111 13.685545 87 93 92
7.0512648 -36.335075 13.717649 82 91 90
7.5798731 -36.315689 13.621479 75 85 82
7.6959133 -36.277168 13.640594 93 104 100
7.8363657 -36.240616 13.658262 86 95 92
8.1562328 -36.236244 13.61295 65 77 73
8.3132381 -36.251968 13.653436 102 104 101
8.5136824 -36.286915 13.670873 122 124 118
8.6968231 -36.293415 13.71504 126 123 120
8.8992405 -36.297443 13.693122 118 116 114
9.0824842 -36.294544 13.666011 94 102 99
9.2226019 -36.234455 13.632969 100 111 103
7.1076193 -36.111019 13.637867 102 112 111
7.2990685 -36.057186 13.668559 93 101 97
7.5019264 -36.064213 13.628802 92 100 97
7.712008 -36.075665 13.663139 102 109 110
7.8826466 -36.103279 13.687223 97 107 104
8.079875 -36.101353 13.694966 78 86 84
8.3277254 -36.104206 13.696604 126 118 118
8.5024242 -36.127274 13.709759 136 129 127
8.7185163 -36.100822 13.703636 103 106 104
8.909853 -36.095459 13.685239 99 105 100
9.0890465 -36.106117 13.703839 96 101 98
9.25881 -36.064114 13.691593 78 90 82
9.4592247 -36.038624 13.616929 70 82 75
12.943957 -36.05843 13.623113 136 136 131
6.3344021 -35.85358 13.691442 70 80 74
6.5312562 -35.889866 13.649571 98 97 97
6.7232561 -35.892246 13.676094 104 106 102
6.9002447 -35.890381 13.679249 94 100 98
7.102736 -35.880871 13.681979 98 103 101
7.3026619 -35.896122 13.699537 102 109 102
7.5088134 -35.924526 13.69241 94 103 100
7.6937761 -35.895664 13.701591 98 108 107
7.8720813 -35.896946 13.700608 86 93 90
8.1199274 -35.89093 13.698287 127 120 114
8.2779675 -35.946884 13.714978 160 144 145
8.5284872 -35.916626 13.711833 119 113 112
8.6953468 -35.905907 13.700536 107 105 106
8.8978291 -35.911247 13.715791 98 99 100
9.0857143 -35.900715 13.709301 133 127 128
9.3160925 -35.911587 13.713597 107 107 104
9.4867573 -35.885033 13.704659 105 109 106
9.6591148 -35.864063 13.692334 101 105 99
9.8575535 -35.825809 13.666924 57 55 60
12.885086 -35.926853 13.658916 144 147 137
16.2311 -35.820889 13.652356 58 75 57
6.5281763 -35.683006 13.674985 126 126 128
6.6953712 -35.709229 13.679944 159 142 143
6.8807788 -35.717777 13.702623 121 114 114
7.069231 -35.710014 13.714075 110 113 111
7.2941051 -35.69875 13.701133 97 104 98
7.4999294 -35.705864 13.703703 86 98 92
7.7131424 -35.70422 13.697548 76 83 82
7.8760576 -35.721321 13.720922 78 85 83
8.1300068 -35.701393 13.696585 142 134 131
8.3008184 -35.631912 13.722873 114 112 104
8.5385418 -35.679306 13.745035 119 113 111
8.6389399 -35.766541 13.726801 142 127 128
8.9565516 -35.707947 13.731549 116 116 116
9.1114712 -35.673359 13.714888 112 110 108
9.3018484 -35.667305 13.719965 111 111 109
9.5177879 -35.704479 13.71379 132 122 123
9.6877689 -35.672089 13.702022 102 106 103
9.9091225 -35.638176 13.649097 106 106 102
10.081181 -35.645802 13.676491 104 107 99
13.751231 -35.76017 13.620988 131 130 122
15.997001 -35.601055 13.757607 120 129 120
16.114361 -35.643616 13.703643 106 114 105
16.261057 -35.671516 13.659416 78 93 77
6.519114 -35.490936 13.678761 122 124 119
6.7060103 -35.498608 13.704968 142 131 130
6.9128599 -35.50951 13.708297 125 117 117
7.1016383 -35.510433 13.70372 95 100 98
7.280128 -35.495197 13.688951 91 100 97
7.4911623 -35.527931 13.678613 100 105 107
7.6783314 -35.532177 13.715708 96 98 101
7.9310532 -35.472126 13.711431 118 118 113
8.1091089 -35.514744 13.686809 119 114 113
8.2658272 -35.501274 13.732483 112 107 106
8.4770079 -35.542126 13.716385 116 110 112
8.6075039 -35.591442 13.720768 107 98 99
8.9811163 -35.566025 13.685305 77 82 82
9.1074533 -35.505543 13.711919 76 83 81
9.2931795 -35.514771 13.692721 87 94 91
9.50741 -35.504398 13.695642 102 104 102
9.6927519 -35.503727 13.69846 97 102 98
9.8947105 -35.512325 13.693348 99 104 99
10.079905 -35.497063 13.703133 107 110 103
10.210728 -35.474899 13.737631 104 115 106
13.107834 -35.514343 13.710701 106 113 106
15.946223 -35.488991 13.71548 112 113 106
16.090614 -35.530003 13.695132 115 120 113
16.241491 -35.519211 13.66727 78 86 80
6.1210327 -35.219189 13.702173 116 114 111
6.2902994 -35.278786 13.66748 124 124 120
6.5474749 -35.31086 13.666305 113 116 109
6.7020068 -35.286018 13.679948 119 119 114
6.8974867 -35.276329 13.696647 107 109 106
7.0961981 -35.318069 13.69301 101 106 106
7.2858472 -35.320377 13.721044 96 101 102
7.4478507 -35.313328 13.755459 85 93 91
7.902688 -35.293797 13.695842 128 125 119
8.06915 -35.322712 13.695215 114 112 112
8.2453747 -35.389278 13.662504 90 90 88
8.446331 -35.378391 13.698738 148 140 145
9.1350889 -35.343098 13.717589 97 96 100
9.3019066 -35.297359 13.699077 81 79 84
9.5116444 -35.287189 13.669387 85 92 89
9.7077827 -35.279831 13.676993 82 90 87
9.8993006 -35.28714 13.673524 89 96 95
10.072155 -35.282959 13.66976 90 99 96
10.246615 -35.258713 13.621649 92 99 96
12.76534 -35.225864 13.680283 107 108 99
12.902659 -35.233845 13.632556 138 133 128
13.149069 -35.251137 13.763416 110 109 95
13.302578 -35.270802 13.677425 139 135 128
13.433534 -35.253345 13.646388 121 121 110
15.488111 -35.317402 13.710334 129 134 131
15.695234 -35.235619 13.679864 122 123 118
15.873242 -35.319237 13.647756 109 113 105
16.277315 -35.213959 13.656665 70 82 67
16.512077 -35.238045 13.720289 116 123 117
16.697824 -35.285625 13.699366 116 124 115
16.856133 -35.281746 13.666243 79 93 79
5.9479432 -35.067318 13.667186 151 146 143
6.0874166 -35.093143 13.671172 112 114 109
6.2892351 -35.071091 13.683142 108 115 109
6.5060973 -35.092979 13.675801 104 111 104
6.6939926 -35.099041 13.697485 100 109 101
6.8987942 -35.093716 13.702282 94 102 97
7.0896621 -35.096561 13.704129 95 101 99
7.291595 -35.104801 13.702011 91 96 98
7.5067577 -35.067017 13.697694 105 102 104
7.6866894 -35.075043 13.701905 110 107 108
7.894279 -35.094894 13.720398 114 111 108
8.0475798 -35.021412 13.611506 125 120 114
8.8533592 -35.092972 13.674639 70 80 81
9.3622713 -35.086887 13.716234 76 84 85
9.4907761 -35.110394 13.697295 84 88 87
9.6974907 -35.099495 13.686331 91 95 93
9.8841391 -35.094357 13.699475 99 102 103
10.10367 -35.101933 13.688736 93 99 98
10.279481 -35.118202 13.660715 94 99 99
12.771185 -35.143803 13.653431 178 181 172
12.888988 -35.165302 13.659126 119 116 113
13.151922 -35.178116 13.73348 205 199 184
13.321497 -35.138783 13.72691 132 127 124
13.440576 -35.073227 13.652814 124 120 119
14.141511 -35.032684 13.653079 81 96 81
15.55796 -35.130981 13.744314 147 145 140
15.735955 -35.152538 13.679266 132 133 127
15.824697 -35.193527 13.614265 148 143 137
16.179859 -35.122959 13.739697 80 88 76
16.289 -35.090263 13.701776 102 106 97
16.502079 -35.110126 13.706402 131 126 123
16.673714 -35.149555 13.711607 117 121 115
16.861729 -35.139244 13.656629 52 66 53
2.6969624 -34.845367 13.665829 140 135 134
2.8930144 -34.854805 13.669323 146 148 137
3.0723157 -34.885117 13.622221 102 105 109
3.2630415 -34.917252 13.658905 92 100 103
5.777792 -34.901966 13.61961 87 89 86
5.8988061 -34.915649 13.657306 149 138 139
6.0999413 -34.908077 13.675229 126 119 118
6.2969203 -34.904755 13.695572 109 113 110
6.4980211 -34.896343 13.684021 97 106 100
6.6988378 -34.907108 13.6874 92 101 95
6.9161539 -34.913578 13.684721 108 110 109
7.0836082 -34.899712 13.692391 119 116 118
7.3105764 -34.920273 13.719481 98 100 101
7.4737935 -34.927872 13.724621 137 127 132
7.7062535 -34.944889 13.742629 117 115 116
7.8740559 -34.926121 13.714642 105 105 103
8.9869518 -34.820084 13.611166 57 67 66
9.1044588 -34.849693 13.71642 78 84 82
9.3148594 -34.891441 13.706549 78 83 84
9.5092916 -34.879429 13.678852 101 101 102
9.6914968 -34.887901 13.699226 94 97 97
9.8890486 -34.893883 13.699181 94 96 96
10.084275 -34.918106 13.69879 83 91 90
10.292951 -34.860275 13.662006 80 87 84
10.416237 -34.837807 13.778629 76 67 70
10.60528 -34.808788 13.669903 40 32 29
12.104358 -34.844898 13.677057 127 129 124
12.267753 -34.84621 13.669277 135 130 126
12.426314 -34.830986 13.625004 149 140 133
13.51989 -34.860428 13.630261 129 125 118
13.738308 -34.870533 13.67237 127 123 116
13.92374 -34.878033 13.69136 127 123 118
14.09816 -34.867916 13.684261 135 133 128
14.325289 -34.864742 13.627313 124 122 120
15.96779 -34.974705 13.774347 52 64 50
16.128674 -34.995937 13.738315 121 124 114
16.304482 -34.984959 13.704766 94 99 90
2.3305473 -34.675766 13.671073 115 113 109
2.4644878 -34.652382 13.702502 123 118 119
2.6913528 -34.714207 13.712909 152 141 143
2.8672249 -34.690468 13.689226 108 107 101
3.0861604 -34.700249 13.708041 106 109 107
3.2720172 -34.618382 13.69696 100 110 107
3.477283 -34.650963 13.687756 109 115 116
5.9299145 -34.719086 13.670906 123 121 118
6.1112628 -34.712837 13.689806 106 107 108
6.2976608 -34.696091 13.702518 98 105 104
6.4959531 -34.697247 13.688326 92 101 97
6.6924658 -34.682522 13.679297 95 102 100
6.9005337 -34.695576 13.691914 117 113 117
7.0780239 -34.693874 13.67953 105 101 105
7.3111243 -34.712639 13.685826 114 112 109
7.4271498 -34.720802 13.710859 137 122 126
7.7381415 -34.662804 13.716197 112 106 110
7.8805518 -34.721458 13.691569 115 114 112
8.0270653 -34.696182 13.732018 68 77 72
8.9443474 -34.729519 13.729248 67 75 75
9.0885372 -34.667088 13.696909 73 78 79
9.3122044 -34.689678 13.698127 80 85 86
9.4993467 -34.697971 13.692118 103 103 106
9.6952467 -34.710953 13.716068 101 98 101
9.9004173 -34.708809 13.703831 90 94 93
10.089149 -34.674892 13.704049 111 109 110
10.27354 -34.688412 13.707811 127 120 122
10.493255 -34.653072 13.694047 115 114 117
10.672877 -34.628036 13.65072 112 111 110
12.146122 -34.796581 13.766474 108 110 100
12.310044 -34.748074 13.671099 133 128 129
13.544391 -34.734859 13.68746 157 147 140
13.669866 -34.736996 13.669414 147 136 132
13.921078 -34.704021 13.700547 154 148 146
14.103281 -34.680099 13.688814 141 139 135
14.220136 -34.699776 13.676922 129 127 122
14.898614 -34.602165 13.61373 155 150 144
15.153678 -34.635113 13.689634 126 125 123
15.239759 -34.64645 13.637996 119 117 113
16.098543 -34.625702 13.746078 60 74 60
16.287962 -34.612499 13.65639 82 94 82
2.1136513 -34.485703 13.70713 112 112 115
2.3259454 -34.488335 13.678443 126 126 124
2.4735065 -34.492855 13.695714 147 141 139
2.6908374 -34.50185 13.69469 127 122 115
2.8933523 -34.470905 13.686597 121 127 124
3.0866311 -34.502529 13.719104 92 102 99
3.3059325 -34.494694 13.705879 89 101 98
3.4438052 -34.468849 13.652796 83 93 92
3.628026 -34.471233 13.632454 67 79 79
4.1185827 -34.405029 13.702391 100 99 107
5.9490089 -34.534332 13.615913 109 118 113
6.1321669 -34.48827 13.686783 120 120 120
6.3000751 -34.511608 13.710876 103 109 106
6.4781399 -34.49556 13.709316 96 103 99
6.7007852 -34.487995 13.696838 94 100 97
6.8969827 -34.508434 13.685926 90 95 95
7.090693 -34.514088 13.69163 102 102 104
7.3100014 -34.518707 13.698167 133 123 125
7.4707022 -34.465958 13.701468 113 112 111
7.679955 -34.462894 13.755007 107 106 106
7.9084101 -34.527969 13.731241 112 104 109
8.187047 -34.516041 13.732293 79 83 81
8.298686 -34.492661 13.711254 110 105 108
8.4592953 -34.434669 13.695482 82 83 80
8.6837025 -34.588669 13.63312 82 86 82
8.9792013 -34.581814 13.645113 87 88 92
9.1509161 -34.539818 13.695518 78 84 88
9.2729206 -34.527103 13.733351 71 76 78
9.4766521 -34.540874 13.745642 100 100 102
9.6789341 -34.5616 13.692759 104 105 108
9.9594278 -34.542427 13.720476 111 110 113
10.088616 -34.542255 13.721412 124 118 120
10.243008 -34.574574 13.741892 149 139 138
10.534673 -34.512463 13.692462 119 118 119
10.64172 -34.503696 13.687035 114 115 116
12.968331 -34.408257 13.628788 79 78 76
13.267527 -34.459103 13.707621 132 129 120
13.518031 -34.47324 13.66355 62 62 64
13.950713 -34.486172 13.701458 140 136 128
14.066042 -34.482059 13.66982 145 140 135
14.259167 -34.526173 13.652496 127 124 122
14.594549 -34.41478 13.695169 132 128 120
14.676962 -34.428772 13.679837 121 121 113
14.889098 -34.47253 13.687402 133 130 122
15.147534 -34.546726 13.695821 133 132 128
15.271187 -34.531628 13.685013 128 127 125
15.714058 -34.515354 13.680875 94 105 95
15.953387 -34.464493 13.66771 143 140 130
16.102724 -34.494484 13.678271 144 143 136
16.261507 -34.534039 13.666238 110 114 104
1.3178217 -34.284805 13.663776 152 149 142
1.4698219 -34.230537 13.683593 130 131 124
1.6107605 -34.33009 13.782716 64 71 64
1.9693996 -34.366627 13.714813 137 138 132
2.1460261 -34.287979 13.630259 116 112 104
2.3105783 -34.288757 13.685398 124 124 118
2.4975755 -34.306843 13.723464 138 130 127
2.6829808 -34.314552 13.713867 127 124 119
2.894413 -34.28434 13.744361 106 112 108
3.0779772 -34.32037 13.692677 104 107 109
3.2869399 -34.319492 13.70633 93 100 101
3.4958467 -34.323395 13.714051 82 92 90
3.6949961 -34.302303 13.680283 82 91 89
3.8806546 -34.259102 13.699739 91 98 101
4.0802002 -34.273235 13.664427 72 84 88
5.940599 -34.238838 13.649669 130 127 127
6.1090822 -34.28405 13.678048 127 124 125
6.2795005 -34.310375 13.71324 127 123 126
6.5083537 -34.301334 13.69383 125 116 120
6.6987658 -34.305843 13.698303 94 93 95
6.8888021 -34.320892 13.70986 86 88 90
7.0983686 -34.289204 13.696935 101 99 103
7.2972865 -34.295048 13.699156 100 100 102
7.4958916 -34.313313 13.7419 98 98 98
7.7032437 -34.327393 13.7146 111 109 109
7.8910475 -34.305573 13.726588 101 96 99
8.0660648 -34.289761 13.732828 90 92 95
8.2724123 -34.304085 13.74408 89 91 93
8.5201864 -34.367825 13.701427 94 94 89
8.6306858 -34.378078 13.624159 136 144 131
9.4801683 -34.349152 13.72581 112 108 111
10.075169 -34.348579 13.76292 111 107 113
10.28589 -34.292068 13.749786 142 135 129
10.552958 -34.307804 13.711061 91 94 97
10.632086 -34.298321 13.645138 98 96 98
12.911592 -34.379742 13.612366 73 77 78
13.132261 -34.25211 13.703661 161 160 147
13.334543 -34.242527 13.703423 144 137 131
13.462143 -34.266762 13.67164 122 119 114
13.679839 -34.241562 13.639072 114 116 113
13.963353 -34.365498 13.723579 142 137 132
14.074789 -34.286179 13.679083 132 133 126
14.247145 -34.297157 13.639202 142 140 135
14.526948 -34.306622 13.700734 135 133 127
14.698846 -34.29324 13.70046 137 133 128
14.897621 -34.300869 13.700699 123 121 117
15.08327 -34.285004 13.693069 114 115 107
15.258687 -34.290058 13.726619 133 131 121
15.493711 -34.264591 13.678369 136 137 127
15.66634 -34.293465 13.633112 148 144 131
15.921515 -34.359764 13.66481 133 127 116
16.065653 -34.382668 13.650475 132 129 122
16.348261 -34.253712 13.66587 135 134 124
16.488583 -34.256008 13.7082 106 112 100
16.693537 -34.23764 13.752749 93 102 93
16.88851 -34.29092 13.689672 82 95 81
1.329541 -34.147316 13.684488 159 158 151
1.4673463 -34.173916 13.747038 131 132 124
1.7134225 -34.050972 13.685054 143 140 131
1.9013973 -34.090897 13.700596 116 119 115
2.0998218 -34.091072 13.691345 96 99 93
2.3220668 -34.103706 13.698967 109 110 109
2.4774301 -34.106712 13.738036 136 132 131
2.7666395 -34.171795 13.73245 128 132 127
2.8903809 -34.074276 13.722054 101 107 104
3.0969751 -34.080994 13.718154 105 106 109
3.3197498 -34.130341 13.690154 92 97 99
3.5026977 -34.115021 13.704827 92 97 97
3.7198894 -34.129448 13.727958 87 94 92
3.8909068 -34.092663 13.723106 85 93 92
4.0885878 -34.062283 13.688614 85 100 93
5.2073069 -34.163773 13.619534 69 84 77
5.578979 -34.051361 13.640373 91 94 103
5.7513885 -34.046867 13.668219 151 144 147
5.8846269 -34.099087 13.71701 146 140 141
6.1030707 -34.123589 13.712773 121 118 120
6.2821283 -34.107197 13.706758 138 130 134
6.4742875 -34.135422 13.753476 139 129 131
6.6617365 -34.163445 13.695135 103 95 101
6.9070711 -34.136711 13.650669 122 112 125
7.0742044 -34.159584 13.719202 144 126 134
7.2690749 -34.08556 13.69146 112 105 106
7.5833445 -34.055115 13.74055 118 121 114
7.6846933 -34.099972 13.69647 98 93 96
7.9167814 -34.094761 13.738766 97 93 96
8.1003408 -34.100479 13.707298 90 92 92
8.2705812 -34.127228 13.670087 69 73 75
9.1308899 -34.041756 13.685961 112 101 109
10.337626 -34.093121 13.740772 97 95 99
10.552124 -34.099651 13.696059 91 95 96
10.676094 -34.100498 13.681758 81 88 88
10.922994 -34.080837 13.63023 116 121 115
11.118933 -34.077614 13.619605 125 123 119
11.501085 -34.025612 13.787334 85 87 84
13.139684 -34.082394 13.710732 147 142 134
13.299788 -34.081947 13.705934 150 141 138
13.486056 -34.118309 13.697431 134 126 124
13.695285 -34.161419 13.629445 133 131 128
13.946666 -34.104755 13.742227 145 144 137
14.119062 -34.095448 13.696261 148 142 138
14.281712 -34.089302 13.659446 139 132 131
14.522537 -34.122288 13.702144 151 145 139
14.690901 -34.104275 13.702751 159 148 147
14.889187 -34.098637 13.711406 134 127 124
15.0978 -34.08876 13.698297 135 132 127
15.308368 -34.120693 13.692845 141 135 130
15.509542 -34.12167 13.668609 140 136 131
15.667912 -34.085075 13.682838 145 141 139
16.18428 -34.129787 13.764408 152 141 138
16.308681 -34.128166 13.715747 144 138 131
16.466545 -34.120766 13.677139 143 142 133
16.700136 -34.151703 13.719325 143 145 140
16.916128 -34.137791 13.623325 76 86 77
1.3646803 -33.8913 13.71267 132 127 119
1.5236882 -33.884373 13.683781 145 138 134
1.7031429 -33.91716 13.699984 125 124 121
1.9001781 -33.936188 13.713338 106 109 107
2.0378265 -33.968548 13.712639 90 98 93
2.5303774 -33.903561 13.71032 121 127 127
2.7316337 -33.913834 13.734891 103 106 106
2.9009342 -33.892864 13.715725 94 101 100
3.1057103 -33.902393 13.690042 95 101 101
3.2931108 -33.891342 13.679316 95 102 101
3.4956207 -33.880947 13.70827 103 102 103
3.6900997 -33.898827 13.684163 100 94 96
3.9170299 -33.903942 13.656299 83 95 93
4.121839 -33.9314 13.694414 75 89 88
4.3781633 -33.929825 13.630369 89 103 104
5.5467758 -33.86887 13.6783 146 136 146
5.6866636 -33.89035 13.716031 147 138 144
5.8922009 -33.84024 13.710005 169 154 164
6.1345568 -33.858486 13.708845 114 110 112
6.2756205 -33.904858 13.718465 124 118 120
6.4369221 -33.880363 13.757188 107 110 108
6.7322402 -33.857368 13.72473 104 99 109
7.2990623 -33.937332 13.766761 113 108 108
7.4922929 -33.886124 13.741129 103 98 99
7.671597 -33.906708 13.700324 92 88 93
7.8543501 -33.953182 13.672727 145 137 140
8.2589769 -33.924732 13.747385 83 83 91
8.4011631 -33.880379 13.63891 139 126 135
8.6830359 -33.956554 13.656801 76 82 85
8.8742371 -33.885853 13.769421 77 78 84
9.0587378 -33.814301 13.738213 62 63 68
10.558311 -33.898426 13.70261 90 93 96
10.726452 -33.895256 13.710876 105 104 107
10.89041 -33.872456 13.705729 115 113 116
11.080151 -33.864643 13.697942 117 113 115
11.304453 -33.856396 13.695296 118 113 113
11.469625 -33.845264 13.686583 97 98 98
11.659725 -33.971775 13.639109 111 116 109
13.132823 -33.916035 13.750961 145 134 128
13.290339 -33.946896 13.698305 157 147 144
13.487899 -33.925941 13.683049 134 129 127
14.121035 -33.916866 13.708448 133 128 127
14.267733 -33.917519 13.667959 126 123 122
14.589409 -33.832142 13.726429 133 130 124
14.711606 -33.89344 13.691909 160 148 144
14.914245 -33.904533 13.701667 144 139 135
15.092896 -33.898792 13.697629 151 143 139
15.284279 -33.875069 13.669784 144 138 138
15.486706 -33.85083 13.672264 149 142 142
15.677234 -33.856625 13.634307 133 129 126
15.88236 -33.831779 13.663643 96 100 91
16.083961 -33.800697 13.635355 95 97 84
16.382345 -33.97435 13.64846 155 142 136
16.411318 -33.957069 13.781511 146 148 134
16.692621 -33.933628 13.678177 172 171 165
1.3605251 -33.678852 13.681767 148 147 145
1.4711655 -33.707409 13.725977 136 135 130
1.6723926 -33.694206 13.723885 102 106 103
1.8129654 -33.60836 13.709433 108 109 104
2.5566976 -33.676769 13.720039 89 98 96
2.6907401 -33.727409 13.719885 93 99 100
2.9066801 -33.738472 13.716195 82 92 89
3.1412857 -33.690395 13.692938 84 92 91
3.3135059 -33.715508 13.70212 94 100 100
3.5056612 -33.701614 13.745387 101 102 101
3.6664004 -33.69569 13.679749 85 96 89
3.9194973 -33.690964 13.703242 69 83 82
4.087534 -33.749645 13.779613 67 86 82
5.5311794 -33.732468 13.653068 90 91 96
5.6728649 -33.722294 13.700647 121 119 121
5.8857889 -33.699696 13.695464 130 123 125
6.1004272 -33.675354 13.69528 121 114 119
6.2837992 -33.688877 13.685857 115 108 113
6.4465384 -33.699829 13.680585 129 121 125
6.7048259 -33.699539 13.687405 115 109 116
6.9398308 -33.72546 13.705633 93 86 94
7.1014895 -33.684723 13.741608 91 88 92
7.2880273 -33.686089 13.696033 101 98 103
7.4862051 -33.735065 13.6938 96 88 97
7.6220007 -33.78664 13.725119 146 135 143
8.3776436 -33.747791 13.613223 120 100 111
8.7538834 -33.693459 13.64489 85 89 94
8.8608408 -33.682388 13.65888 57 66 67
9.1063032 -33.666325 13.605076 102 96 108
9.2411032 -33.648758 13.76886 79 84 88
10.557802 -33.729721 13.697356 81 90 84
10.691015 -33.694527 13.71165 92 93 95
10.910159 -33.733383 13.730175 117 114 119
11.111373 -33.773312 13.723693 127 118 121
11.288394 -33.7346 13.714298 124 115 117
11.488736 -33.708847 13.703196 114 111 111
11.67427 -33.747353 13.667225 129 127 130
13.123787 -33.652309 13.604194 106 110 93
13.322698 -33.777081 13.705032 156 148 142
