ply
format ascii 1.0
comment PCL generated
element vertex 1093
property float x
property float y
property float z
property uchar red
property uchar green
property uchar blue
element face 0
element camera 0
property float view_px
property float view_py
property float view_pz
property float x_axisx
property float x_axisy
property float x_axisz
property float y_axisx
property float y_axisy
property float y_axisz
property float z_axisx
property float z_axisy
property float z_axisz
property float focal
property float scalex
property float scaley
property float centerx
property float centery
property int viewportx
property int viewporty
property float k1
property float k2
end_header
-42.109966 -39.910767 18.143078 175 185 186
-41.880665 -39.916695 18.11001 106 124 124
-41.687336 -39.921947 18.107052 131 148 152
-41.500336 -39.915615 18.112572 151 172 178
-41.326241 -39.865597 18.090178 150 162 171
-41.109699 -39.920719 18.120852 113 131 136
-40.886574 -39.888908 18.109514 100 121 124
-40.705997 -39.907162 18.122307 99 118 122
-40.48357 -39.942348 18.147621 129 133 143
-40.334324 -39.910286 18.111427 90 112 111
-40.08445 -39.896542 18.085743 105 125 124
-39.910839 -39.907204 18.110708 61 83 77
-39.677158 -39.955399 18.003975 82 96 92
-39.505039 -39.926624 18.097963 101 119 121
-39.293545 -39.948452 18.101645 113 132 132
-39.101151 -39.979465 18.066366 102 117 120
-38.918304 -39.929356 18.113131 124 133 133
-43.64856 -39.709133 18.120508 194 195 202
-43.459221 -39.675007 18.093346 104 119 112
-43.27845 -39.681316 18.100105 123 139 134
-43.101227 -39.68985 18.10602 134 147 142
-42.898895 -39.709923 18.096163 155 160 160
-42.705158 -39.690418 18.111383 116 132 129
-42.475555 -39.703896 18.107491 145 151 152
-42.289978 -39.704449 18.093134 102 118 118
-42.128521 -39.727203 18.094885 107 122 122
-41.938385 -39.718552 18.078186 120 131 136
-41.730499 -39.739971 18.090988 137 156 151
-41.475327 -39.677471 18.100994 134 151 159
-41.337284 -39.655655 18.053986 121 140 145
-41.04707 -39.689507 18.127865 117 135 141
-40.902245 -39.714363 18.091167 117 140 147
-40.715694 -39.678371 18.105825 88 114 115
-40.514774 -39.704258 18.103338 93 114 115
-40.300755 -39.677208 18.117306 107 125 127
-40.122997 -39.708576 18.10078 116 139 140
-39.912659 -39.648666 18.092846 136 154 160
-39.726612 -39.709919 18.157562 93 114 111
-39.518375 -39.656734 18.090008 85 106 102
-39.331226 -39.769905 18.098042 103 110 121
-43.683933 -39.488083 18.122513 125 135 129
-43.478378 -39.489502 18.103449 126 143 133
-43.292065 -39.487144 18.105221 138 152 146
-43.133236 -39.511566 18.113279 160 168 166
-42.870682 -39.501888 18.115923 125 146 141
-42.707859 -39.503536 18.108049 91 114 109
-42.495464 -39.495987 18.118071 98 118 113
-42.338535 -39.479984 18.11429 98 116 115
-42.15786 -39.507484 18.163136 100 115 109
-41.680271 -39.488918 18.085545 154 163 169
-41.493549 -39.51199 18.121672 126 144 148
-41.332954 -39.540161 18.090137 100 119 120
-41.075314 -39.528328 18.110596 166 166 175
-40.893475 -39.512859 18.088217 145 164 172
-40.740341 -39.495102 18.111546 183 192 195
-40.52581 -39.450813 18.12738 151 161 165
-40.289711 -39.521904 18.110073 103 121 122
-40.172005 -39.529968 18.155884 189 202 206
-39.828644 -39.501507 18.119032 115 135 141
-39.685951 -39.471634 18.112595 81 104 102
-39.515259 -39.519218 18.087479 84 105 105
-44.020546 -39.263893 18.194153 251 234 240
-43.883106 -39.274632 18.131651 189 178 186
-43.670021 -39.295982 18.11129 145 152 148
-43.488708 -39.30304 18.113029 145 160 154
-43.307953 -39.268833 18.060146 157 164 162
-43.117603 -39.277065 18.126575 145 159 155
-42.893585 -39.26516 18.102295 120 142 134
-42.75457 -39.297592 18.114302 144 155 155
-42.496574 -39.296333 18.100248 101 121 115
-42.344826 -39.279099 18.125832 122 127 130
-42.130711 -39.329491 18.067333 97 124 120
-41.932533 -39.233433 18.085814 13 46 35
-41.693295 -39.314552 18.178335 217 203 216
-41.474174 -39.316975 18.067974 141 155 163
-41.281788 -39.270844 18.027088 94 115 110
-41.089283 -39.312618 18.106789 162 179 187
-40.885872 -39.298527 18.082985 142 163 168
-40.688416 -39.305122 18.122025 145 157 164
-40.46069 -39.323524 18.130243 165 168 177
-40.265762 -39.342186 18.166576 163 168 171
-40.082813 -39.284481 18.12591 162 170 174
-39.924934 -39.274933 18.164431 65 92 88
-39.731853 -39.26173 18.095964 97 117 119
-39.537952 -39.254009 18.067686 126 138 141
-43.889782 -39.116226 18.137032 194 187 192
-43.701664 -39.105309 18.115396 189 190 191
-43.479156 -39.089405 18.084715 184 190 186
-43.295525 -39.112156 18.10836 151 161 154
-43.107552 -39.118168 18.106205 133 152 146
-42.904881 -39.103142 18.066401 126 144 142
-42.684185 -39.094788 18.114441 109 129 125
-42.505684 -39.051384 18.118904 122 130 128
-42.291977 -39.080181 18.074678 85 105 103
-42.126614 -39.074017 18.070658 79 104 97
-41.958427 -39.110825 18.13526 69 91 87
-41.707302 -39.128983 18.157536 205 210 218
-41.405628 -39.099339 18.130636 129 157 153
-41.289841 -39.130707 18.069016 124 143 148
-41.1152 -39.102318 18.12167 170 185 191
-40.892838 -39.109859 18.096935 141 157 161
-40.736259 -39.088249 18.123781 151 164 169
-40.518066 -39.143654 18.15807 187 191 194
-40.316811 -39.110031 18.111826 94 110 111
-40.103348 -39.109188 18.085596 118 135 134
-39.888008 -39.095978 18.093124 122 138 140
-39.682796 -39.112671 18.074251 171 180 185
-39.536201 -39.152512 18.114504 141 147 154
-43.841694 -38.896309 18.1644 197 185 191
-43.704483 -38.911594 18.126604 171 162 171
-43.519947 -38.929619 18.108974 175 173 179
-43.298141 -38.937668 18.126913 168 171 167
-43.06683 -38.910435 18.11375 149 158 151
-42.877594 -38.909981 18.093525 154 167 168
-42.705021 -38.895214 18.099586 141 156 153
-42.503811 -38.892662 18.099512 114 130 127
-42.30621 -38.905483 18.097679 99 116 113
-42.127705 -38.910061 18.086939 96 118 106
-41.99897 -38.821445 18.138451 72 96 74
-41.337063 -38.976688 18.017836 177 188 197
-41.112698 -38.959461 18.063627 80 100 103
-40.872559 -38.907024 18.084297 146 159 163
-40.696316 -38.897057 18.1066 159 173 178
-40.492619 -38.888706 18.117237 116 130 132
-40.305107 -38.89558 18.114792 112 127 129
-40.11784 -38.925392 18.121561 126 136 140
-39.89595 -38.86121 18.098721 134 143 148
-39.742439 -38.908825 18.129517 138 142 145
-39.54493 -38.886307 18.124311 68 84 77
-43.697437 -38.758205 18.120739 171 168 169
-43.131428 -38.761272 18.131672 184 182 183
-42.879051 -38.710663 18.087204 156 165 168
-42.704746 -38.708202 18.100945 143 155 152
-42.554729 -38.660683 18.064293 161 163 165
-42.318665 -38.70219 18.069235 112 129 125
-42.105667 -38.699642 18.063639 112 130 124
-41.9599 -38.678719 18.062397 117 137 127
-40.863209 -38.77779 18.114305 172 181 184
-40.685001 -38.704945 18.091345 162 173 180
-40.454678 -38.727238 18.12274 209 212 212
-40.315773 -38.69968 18.084095 132 139 142
-40.159035 -38.709927 18.103603 131 141 145
-39.902351 -38.745564 18.07539 137 153 150
-39.707001 -38.728115 18.0495 162 166 171
-39.577854 -38.681686 18.016068 101 118 137
-43.292694 -38.442764 18.152359 175 170 184
-43.100689 -38.519314 18.138477 188 187 189
-42.893398 -38.504665 18.10347 173 176 180
-42.698524 -38.505199 18.086079 136 149 148
-42.5443 -38.509499 18.069592 191 196 197
-42.306072 -38.500587 18.094219 127 140 136
-42.127068 -38.518639 18.07406 111 124 119
-40.664124 -38.49128 18.071842 166 176 182
-40.480259 -38.495262 18.092415 128 137 141
-40.338669 -38.498329 18.079544 88 101 102
-39.82579 -38.572849 18.035135 117 126 139
-39.769325 -38.432167 18.028149 120 126 136
-43.245781 -38.327881 18.160439 240 225 231
-43.092644 -38.305286 18.091022 185 179 187
-42.875057 -38.290668 18.065504 170 178 181
-42.685394 -38.304211 18.094711 150 159 157
-42.490074 -38.30756 18.101389 159 153 159
-42.311417 -38.351288 18.1341 161 160 163
-42.162506 -38.358746 18.114487 107 118 114
-40.882095 -38.324013 18.153629 179 184 186
-40.700974 -38.318008 18.140619 173 182 184
-40.512798 -38.321125 18.06127 135 147 152
-40.322674 -38.263283 18.072701 110 125 126
-43.067669 -38.063103 18.159676 189 173 183
-42.8932 -38.130936 18.102839 164 164 170
-42.697739 -38.142048 18.098553 174 176 180
-42.55415 -38.161316 18.078571 141 145 147
-42.355076 -38.181194 18.168793 145 168 150
-43.112854 -37.944248 18.166607 225 215 222
-42.90567 -37.991356 18.060785 175 163 173
-41.219959 -46.802299 18.355392 7 61 18
-41.472031 -46.615089 18.374542 6 45 1
-41.384903 -46.746784 18.214359 0 48 0
-41.115738 -46.687275 18.346077 13 59 17
-40.96954 -46.693611 18.320898 26 66 41
-42.900745 -46.464577 18.332001 21 64 34
-41.712952 -46.405674 18.374512 29 56 25
-41.217247 -46.46172 18.314226 40 65 43
-41.097427 -46.472992 18.340034 86 114 92
-40.985588 -46.51712 18.32766 15 52 20
-42.908386 -46.377708 18.357998 21 52 29
-41.431847 -46.257263 18.355139 35 60 48
-41.300373 -46.315807 18.334295 138 152 134
-41.199093 -46.342144 18.265469 32 54 33
-43.281021 -46.112003 18.355621 106 117 99
-43.148548 -46.06078 18.363646 118 127 112
-42.987602 -46.018669 18.360178 156 172 147
-42.733162 -46.017654 18.243961 104 129 101
-42.539391 -46.098522 18.320147 174 187 174
-42.328045 -46.189377 18.268324 165 181 144
-42.034977 -46.001648 18.287333 82 92 81
-41.235554 -46.134037 18.314415 137 146 143
-41.08604 -46.183655 18.370333 148 153 144
-43.504639 -45.871033 18.378849 160 164 145
-43.265331 -45.882755 18.282591 78 104 85
-43.118328 -45.920197 18.309036 132 142 126
-42.840691 -45.948254 18.308023 142 159 135
-40.42136 -45.886971 18.217766 39 68 40
-43.285233 -45.735859 18.298336 116 126 112
-43.170029 -45.690865 18.306644 185 191 170
-42.892746 -45.631126 18.33617 118 132 112
-42.745316 -45.690914 18.308218 191 200 180
-41.367695 -45.690102 18.301231 63 78 59
-40.476688 -45.718262 18.32383 42 68 45
-40.299709 -45.697651 18.309999 7 47 9
-43.246117 -45.53994 18.327246 136 146 129
-43.089787 -45.531109 18.326159 154 168 149
-42.954609 -45.49371 18.30344 116 130 110
-42.626823 -45.568447 18.352882 65 90 60
-40.475449 -45.47348 18.354523 106 105 108
-39.95697 -45.523903 18.249792 116 138 102
-43.580807 -45.210148 18.224205 212 221 200
-43.271023 -45.263824 18.296515 105 124 108
-43.049767 -45.367069 18.334637 150 157 149
-42.988903 -45.320217 18.35693 134 145 137
-42.549671 -45.221134 18.274637 81 101 89
-40.872368 -45.228863 18.363834 148 155 165
-40.750225 -45.310333 18.342632 169 158 172
-40.4842 -45.307835 18.352631 125 128 132
-40.341667 -45.327259 18.26095 193 164 179
-40.060429 -45.266178 18.285442 133 143 135
-39.894314 -45.332111 18.250084 36 53 45
-43.45813 -45.085655 18.304293 226 237 223
-43.292435 -45.082424 18.292913 157 170 156
-43.143124 -45.102791 18.297739 181 185 178
-42.825165 -45.01255 18.364372 96 115 99
-42.682495 -45.08284 18.264465 113 130 120
-40.917629 -45.134727 18.338623 145 145 150
-40.283764 -45.072861 18.284245 99 113 106
-40.079163 -45.093285 18.230947 87 109 101
-39.943062 -45.038803 18.301214 193 178 193
-43.438408 -44.970699 18.378336 25 62 31
-43.272907 -44.889736 18.273623 184 195 181
-43.171917 -44.933235 18.280041 137 150 141
-42.851952 -44.903316 18.32103 156 162 161
-42.7202 -44.936546 18.316647 143 154 148
-41.804951 -44.817295 18.277151 88 121 100
-41.155811 -44.92664 18.366646 251 250 255
-40.427052 -44.994694 18.310883 94 121 106
-40.272179 -44.918484 18.302683 110 122 124
-40.126614 -44.895 18.268 164 159 167
-43.448391 -44.657616 18.336573 166 182 167
-43.295689 -44.764881 18.300119 172 181 171
-42.884007 -44.676708 18.259953 197 199 205
-42.338493 -44.656307 18.288628 73 80 73
-40.812355 -44.663746 18.325787 60 82 61
-40.730339 -44.690605 18.257025 150 147 150
-40.479416 -44.721916 18.303564 114 119 121
-40.344841 -44.666153 18.342482 108 120 117
-40.08646 -44.736233 18.340641 111 111 106
-43.534134 -44.560535 18.357056 142 144 134
-43.283539 -44.466232 18.227573 209 222 216
-43.10178 -44.408562 18.205551 188 200 190
-42.794086 -44.567738 18.310074 166 176 186
-42.295174 -44.404495 18.27227 101 110 105
-42.116707 -44.4636 18.237799 54 67 76
-41.688221 -44.552189 18.310789 163 161 182
-41.480164 -44.440735 18.305769 94 118 105
-40.632473 -44.599007 18.264969 113 135 132
-40.451443 -44.447746 18.302826 94 101 102
-40.253941 -44.556145 18.350796 94 123 102
-40.051434 -44.488678 18.268526 123 132 132
-39.984833 -44.406555 18.230064 134 135 137
-43.80423 -44.380661 18.308523 179 187 189
-43.61359 -44.256577 18.216328 59 83 57
-43.499111 -44.264641 18.258156 131 139 116
-43.301514 -44.318542 18.309668 173 182 175
-43.136604 -44.358456 18.214003 175 190 185
-42.911133 -44.280811 18.29224 121 134 124
-42.767166 -44.245827 18.282776 99 109 93
-42.503513 -44.315125 18.282455 124 127 131
-42.382053 -44.264496 18.234135 126 117 129
-42.043411 -44.286774 18.358936 140 140 147
-41.944042 -44.272926 18.305641 153 159 155
-41.632858 -44.384056 18.251919 53 70 71
-41.516048 -44.281887 18.207611 89 104 104
-41.157883 -44.289719 18.315947 56 76 75
-40.860924 -44.237648 18.392767 133 121 132
-40.672249 -44.305374 18.31883 120 122 129
-40.292557 -44.299446 18.318665 91 101 97
-40.105659 -44.261028 18.33005 74 91 84
-43.670303 -44.092312 18.297983 128 132 119
-43.458813 -44.163906 18.322441 178 192 169
-43.309635 -44.079826 18.275799 158 163 159
-43.150913 -44.075005 18.260487 153 162 155
-42.90126 -44.065071 18.307425 134 138 139
-42.696487 -44.05991 18.307281 112 127 130
-42.517567 -44.171753 18.25737 130 129 138
-42.250843 -44.056087 18.360687 130 123 132
-42.071056 -44.103134 18.289755 146 151 153
-41.926823 -44.040237 18.270117 182 182 182
-41.437523 -44.073006 18.263458 147 149 156
-41.301987 -44.103802 18.300886 173 158 181
-40.892773 -44.151794 18.3337 141 119 132
-40.647015 -44.130054 18.390491 111 115 117
-40.597824 -44.041183 18.310793 168 162 164
-40.251335 -44.159096 18.329664 146 123 139
-40.192848 -44.178371 18.350079 113 131 131
-43.600945 -43.995739 18.308964 215 223 208
-43.466694 -43.879456 18.325865 175 175 171
-43.308105 -43.858307 18.25132 179 178 176
-43.104885 -43.841415 18.347212 166 170 168
-42.872322 -43.88633 18.320339 114 125 126
-42.750259 -43.924122 18.238455 109 117 123
-42.473537 -43.869556 18.350325 129 136 134
-42.31477 -43.931564 18.276947 141 140 145
-42.086945 -43.90797 18.312527 156 159 161
-41.947495 -43.943344 18.300678 82 98 97
-41.5439 -43.944519 18.292574 50 79 65
-41.319778 -43.849621 18.290127 220 231 229
-41.11261 -43.910023 18.27449 90 107 106
-40.900642 -43.922626 18.301817 109 114 121
-40.704762 -43.912922 18.307606 75 88 81
-40.464104 -43.880089 18.332602 130 127 140
-40.328758 -43.874786 18.325142 73 86 82
-43.700203 -43.652817 18.215353 186 192 181
-43.488815 -43.70322 18.289227 186 184 175
-43.318691 -43.715622 18.282217 197 195 191
-43.058388 -43.761635 18.262295 172 179 173
-42.903755 -43.703518 18.312105 113 121 125
-42.684971 -43.70689 18.304768 124 130 129
-42.567902 -43.708588 18.333801 98 104 101
-42.306702 -43.659058 18.347532 118 133 121
-42.115337 -43.70385 18.30784 131 130 147
-41.683399 -43.624531 18.337049 119 125 118
-41.064571 -43.705143 18.326385 86 104 99
-40.896191 -43.707317 18.283947 82 100 97
-40.706642 -43.685425 18.29903 86 102 107
-40.464371 -43.67873 18.248562 90 100 99
-40.301655 -43.681683 18.233961 92 95 97
-43.683193 -43.495628 18.269527 171 174 165
-43.467751 -43.505882 18.296871 189 190 181
-43.318214 -43.477169 18.274233 172 171 169
-43.094193 -43.501236 18.279478 164 163 165
-42.911278 -43.507175 18.2938 169 175 171
-42.680077 -43.548367 18.346172 149 158 157
-42.471146 -43.465775 18.263088 149 147 147
-42.070255 -43.520618 18.316801 133 142 132
-41.750229 -43.531944 18.246325 62 69 74
-41.089912 -43.576862 18.312977 116 116 124
-40.638214 -43.589226 18.304022 60 83 78
-40.457577 -43.536572 18.362768 71 85 80
-43.499065 -43.317791 18.358423 224 220 219
-43.344772 -43.356346 18.312603 172 172 175
-43.12476 -43.324612 18.270201 166 163 166
-42.899483 -43.333179 18.314774 214 217 208
-42.715019 -43.330994 18.318176 166 158 159
-42.506939 -43.286297 18.29871 119 136 127
-42.29834 -43.348225 18.30982 126 130 131
-42.120621 -43.319679 18.336096 68 88 89
-41.918854 -43.241238 18.362593 151 151 163
-41.76059 -43.343311 18.28479 146 129 154
-41.328945 -43.393513 18.284885 209 208 214
-43.033939 -43.108078 18.343557 227 226 229
-42.864414 -43.19574 18.238031 248 232 243
-42.451538 -43.08556 18.320398 161 161 152
-42.307297 -43.065014 18.325932 104 116 111
-42.088364 -43.045948 18.287605 118 108 120
-41.974838 -43.092129 18.382523 205 192 210
-41.236885 -41.054234 18.280584 58 86 64
-41.072548 -41.100464 18.315578 51 79 63
-40.960468 -41.105831 18.281784 73 107 93
-40.704948 -41.037849 18.283272 213 208 211
-40.595974 -41.076996 18.203487 108 118 117
-39.244896 -41.007126 18.274811 61 84 74
-39.0868 -41.03717 18.247166 126 124 135
-42.101868 -40.811867 18.314554 126 127 141
-41.847916 -40.832706 18.226051 139 157 162
-41.684093 -40.856541 18.288551 115 126 131
-41.514156 -40.889755 18.300325 125 140 140
-41.277218 -40.876743 18.305607 158 164 167
-41.097519 -40.880299 18.304808 151 157 157
-40.894852 -40.850971 18.318573 167 162 171
-40.741241 -40.921459 18.252232 234 235 232
-39.827591 -40.822559 18.250328 211 194 200
-39.678867 -40.880436 18.273949 125 134 129
-39.497524 -40.870289 18.298964 115 127 123
-39.308323 -40.908382 18.300802 106 122 117
-39.178616 -40.893364 18.317776 107 117 118
-42.498772 -40.626259 18.272041 80 109 102
-42.261425 -40.656635 18.250805 57 87 70
-42.089046 -40.676308 18.272434 129 134 139
-41.894657 -40.688461 18.276627 154 160 167
-41.711441 -40.677006 18.31797 159 162 169
-41.496578 -40.700191 18.302958 161 166 170
-41.283691 -40.702526 18.31892 162 168 170
-41.072418 -40.710236 18.28854 184 181 188
-40.878593 -40.673141 18.261864 198 202 210
-40.741661 -40.73838 18.304781 194 194 202
-40.487778 -40.63327 18.307281 186 189 194
-40.307709 -40.702538 18.309582 170 174 183
-40.108131 -40.626137 18.300133 93 112 113
-39.916447 -40.68187 18.292681 191 188 191
-39.702324 -40.639725 18.33259 194 196 199
-39.488342 -40.695976 18.302166 167 173 173
-39.331429 -40.748169 18.326523 170 169 171
-39.129131 -40.681572 18.282827 62 78 71
-42.911667 -40.480679 18.209055 137 146 140
-42.68576 -40.491417 18.276176 150 161 164
-42.472038 -40.49493 18.276638 118 136 134
-42.289288 -40.489498 18.284624 141 154 156
-42.103348 -40.508869 18.280666 145 152 154
-41.872761 -40.501053 18.297005 164 172 173
-41.705479 -40.506298 18.311811 188 191 197
-41.506042 -40.51627 18.327808 172 175 179
-41.284901 -40.525913 18.318489 163 163 169
-41.096684 -40.518826 18.310596 156 160 166
-40.920803 -40.513309 18.313755 159 171 178
-40.726719 -40.509777 18.327438 154 163 170
-40.541641 -40.473457 18.343983 180 190 191
-40.299427 -40.517643 18.304214 133 139 145
-40.110561 -40.484558 18.319805 107 124 123
-39.905556 -40.459587 18.294992 117 137 136
-39.675026 -40.478642 18.344971 170 182 185
-39.488369 -40.502426 18.300766 172 181 181
-39.335922 -40.541214 18.330044 183 186 187
-39.127296 -40.482182 18.304289 116 126 123
-38.987865 -40.475845 18.292791 64 80 74
-43.27475 -40.256817 18.21162 174 166 173
-43.068199 -40.24741 18.249163 157 162 164
-42.896709 -40.282776 18.280882 133 152 146
-42.711094 -40.284279 18.304424 155 159 164
-42.491035 -40.290348 18.298883 142 151 152
-42.306015 -40.306076 18.297859 133 148 148
-42.156769 -40.257874 18.256279 150 145 155
-41.877876 -40.284523 18.301449 176 183 189
-41.722797 -40.295311 18.291771 166 179 184
-41.472874 -40.261417 18.317585 160 162 167
-41.285084 -40.27404 18.289385 160 156 165
-41.085106 -40.299755 18.325943 128 137 144
-40.919201 -40.294907 18.310234 141 141 155
-40.686153 -40.306602 18.303907 143 158 162
-40.505505 -40.303707 18.318857 148 157 161
-40.312981 -40.269875 18.319818 156 159 165
-40.08604 -40.304321 18.332378 82 103 100
-39.904774 -40.295288 18.286661 76 97 93
-39.718922 -40.268806 18.286068 104 120 120
-39.479454 -40.341255 18.255928 148 155 155
-39.271477 -40.324593 18.334738 176 180 182
-39.10273 -40.247841 18.344652 148 155 157
-38.947289 -40.302322 18.297688 72 89 89
-43.458435 -40.045338 18.22406 161 147 162
-43.261707 -40.139336 18.273262 160 156 163
-43.079464 -40.119267 18.270094 152 162 162
-42.896938 -40.102081 18.284468 166 171 173
-42.712574 -40.116024 18.307695 155 155 162
-42.499077 -40.098953 18.299276 132 141 143
-42.306358 -40.07132 18.267101 160 167 174
-42.087086 -40.093037 18.305914 174 178 182
-41.951801 -40.107742 18.29936 167 166 174
-41.715939 -40.104591 18.28817 134 151 154
-41.538509 -40.062881 18.29454 163 181 185
-41.281044 -40.160736 18.316807 193 192 199
-41.089951 -40.103489 18.325115 131 142 143
-40.890835 -40.121601 18.316935 115 128 135
-40.711231 -40.104527 18.324783 125 135 144
-40.497494 -40.080265 18.32114 119 134 137
-40.318138 -40.064625 18.345688 152 164 166
-40.092346 -40.114929 18.298769 70 93 87
-39.892948 -40.090656 18.301105 77 96 91
-39.683434 -40.14537 18.329033 98 110 111
-39.495968 -40.115639 18.32065 155 156 158
-39.284637 -40.121243 18.302128 140 151 152
-39.105328 -40.111977 18.310915 166 169 171
-38.922222 -40.090309 18.308838 184 188 187
-38.743511 -40.197762 18.288012 179 164 167
-43.640942 -39.906986 18.297691 228 221 230
-43.488014 -39.888939 18.245049 187 181 188
-43.309391 -39.869873 18.237597 196 195 200
-43.073437 -39.913124 18.287115 157 165 165
-42.890347 -39.903034 18.294987 156 165 166
-42.710907 -39.88171 18.328417 145 157 161
-42.448231 -39.921211 18.310789 152 158 163
-42.253098 -39.929264 18.330185 170 173 177
-42.046021 -39.895828 18.292545 152 160 166
-41.89275 -39.904629 18.317675 172 176 182
-41.715374 -39.902481 18.299879 149 161 166
-41.518318 -39.900768 18.282175 157 175 181
-41.32357 -39.881046 18.324224 126 144 151
-41.100101 -39.906658 18.297579 84 110 111
-40.8908 -39.906876 18.306776 109 126 129
-40.698162 -39.885654 18.304644 110 125 129
-40.493546 -39.946438 18.327183 151 162 164
-40.357624 -39.883789 18.286745 134 144 149
-40.128952 -39.94521 18.31229 144 150 152
-39.88102 -39.903507 18.310217 64 81 78
-39.72747 -39.879585 18.330896 103 118 120
-39.492886 -39.929508 18.318661 117 140 140
-39.322968 -39.937218 18.264343 104 115 114
-39.096554 -39.973305 18.295286 122 132 134
-38.97324 -39.955547 18.243645 73 96 102
-43.68998 -39.610161 18.272247 207 204 207
-43.456604 -39.728767 18.286566 177 177 181
-43.2612 -39.673267 18.290335 146 154 152
-43.098705 -39.674118 18.307468 165 171 172
-42.896713 -39.705147 18.300501 174 176 180
-42.657349 -39.6553 18.311319 161 168 172
-42.519012 -39.701244 18.290625 116 131 130
-42.314362 -39.694958 18.314846 178 183 185
-42.071331 -39.753288 18.320984 180 183 190
-41.882259 -39.698509 18.353338 177 176 182
-41.681034 -39.707722 18.3305 182 192 198
-41.549191 -39.717087 18.295637 146 160 166
-41.295063 -39.697845 18.345612 153 162 166
-41.065014 -39.681644 18.299259 117 135 136
-40.887249 -39.705128 18.284548 102 122 126
-40.691792 -39.697495 18.299957 93 115 116
-40.516655 -39.682327 18.29809 107 127 128
-40.267525 -39.662781 18.271624 119 131 133
-40.145271 -39.701611 18.315884 140 157 159
-39.841022 -39.702251 18.338785 123 142 142
-39.724827 -39.691784 18.29286 101 117 120
-39.484676 -39.712738 18.261648 125 137 142
-43.826878 -39.469086 18.330301 164 158 166
-43.690441 -39.464935 18.262087 150 153 149
-43.461842 -39.479515 18.282364 134 148 142
-43.302765 -39.493996 18.287884 180 183 183
-43.102917 -39.506668 18.292015 165 173 175
-42.858643 -39.528137 18.302158 164 152 158
-42.697983 -39.504284 18.309193 111 127 124
-42.487846 -39.473915 18.323639 129 138 143
-42.336315 -39.511406 18.275892 157 156 158
-42.108467 -39.55368 18.29101 119 123 124
-41.879177 -39.536835 18.349703 178 179 183
-41.723965 -39.511543 18.309532 189 188 194
-41.517193 -39.4743 18.274147 104 121 124
-41.303898 -39.491001 18.347652 185 188 195
-41.078041 -39.49445 18.313429 134 151 155
-40.905056 -39.482677 18.302414 128 145 150
-40.695782 -39.506344 18.295437 112 132 134
-40.45039 -39.490654 18.302465 99 114 116
-40.275108 -39.475464 18.305691 119 137 139
-40.125393 -39.50029 18.317356 110 130 132
-39.920723 -39.505898 18.336517 117 137 141
-39.67934 -39.552059 18.295334 73 88 87
-39.521408 -39.555473 18.230167 78 99 95
-39.277344 -39.450855 18.313728 195 202 212
-43.912212 -39.268253 18.218073 188 178 187
-43.668118 -39.301781 18.292194 157 158 155
-43.475666 -39.318924 18.27467 155 160 156
-43.296589 -39.303394 18.295713 170 173 171
-43.1031 -39.293934 18.304344 147 160 155
-42.879986 -39.299698 18.318428 122 137 133
-42.721085 -39.280746 18.32682 158 161 164
-42.510792 -39.295208 18.288221 107 123 122
-42.344139 -39.31448 18.30859 111 111 114
-42.144848 -39.302761 18.303268 82 103 97
-41.887917 -39.356117 18.321522 171 167 177
-41.654018 -39.329502 18.280724 133 136 142
-41.529289 -39.362038 18.272053 110 125 129
-41.292774 -39.364384 18.355968 214 213 221
-41.072174 -39.274208 18.272123 162 174 181
-40.934361 -39.315453 18.298855 135 149 154
-40.688465 -39.306423 18.29669 150 163 170
-40.478363 -39.263657 18.337925 171 178 184
-40.316132 -39.335468 18.320339 184 190 195
-40.088089 -39.294033 18.262215 147 156 160
-39.911652 -39.280029 18.333431 111 127 128
-39.734715 -39.29055 18.332113 84 99 102
-39.391136 -39.391369 18.359503 245 251 255
-44.016186 -39.135391 18.273712 173 167 175
-43.892532 -39.14954 18.237671 195 192 199
-43.640575 -39.096077 18.25765 141 150 148
-43.500767 -39.122169 18.277153 166 172 168
-43.280632 -39.107681 18.299368 167 173 169
-43.107014 -39.10939 18.304062 156 164 161
-42.89637 -39.114319 18.306393 132 142 139
-42.696156 -39.106453 18.309795 122 129 130
-42.55587 -39.133987 18.319931 141 144 144
-42.331177 -39.09412 18.257912 105 122 118
-42.123917 -39.105873 18.229269 78 92 89
-41.935619 -39.076134 18.25996 73 97 81
-41.697983 -39.199039 18.378071 149 149 152
-41.516079 -39.115784 18.313868 153 165 165
-41.246799 -39.069752 18.289207 174 191 197
-41.140774 -39.107365 18.284674 154 171 178
-40.875996 -39.116508 18.278484 158 174 180
-40.72197 -39.090637 18.317299 164 176 181
-40.532623 -39.098541 18.318743 168 174 177
-40.280281 -39.109093 18.276409 107 119 122
-40.103188 -39.070473 18.334347 152 158 161
-39.894909 -39.103184 18.302563 99 116 115
-39.716583 -39.103966 18.296728 108 119 125
-39.57225 -39.104538 18.281967 195 192 189
-43.860836 -38.893063 18.273779 193 182 189
-43.714394 -38.850883 18.270502 180 175 181
-43.45256 -38.932053 18.224251 192 191 198
-43.288021 -38.914757 18.310133 206 199 204
-43.104588 -38.903767 18.312302 168 165 167
-42.879932 -38.907482 18.313543 150 153 155
-42.665588 -38.940052 18.287445 100 112 116
-42.5037 -38.897968 18.259773 134 147 141
-42.328396 -38.895782 18.270657 108 129 119
-42.1054 -38.905785 18.247997 143 168 154
-41.390442 -38.964207 18.336857 188 187 198
-41.161423 -38.976181 18.393896 114 114 116
-40.866737 -38.913757 18.280167 193 201 207
-40.669365 -38.947235 18.32951 183 187 192
-40.506001 -38.916271 18.312885 148 155 158
-40.315968 -38.928368 18.316792 138 148 152
-40.117233 -38.913879 18.283375 134 145 149
-39.913185 -38.894653 18.327003 162 166 165
-39.739426 -38.8456 18.297611 212 212 213
-43.673782 -38.757225 18.256702 141 138 138
-43.595596 -38.788086 18.20018 168 160 161
-43.2519 -38.725124 18.307392 212 204 208
-43.087444 -38.699539 18.320345 197 189 194
-42.910599 -38.687763 18.311806 142 141 144
-42.710819 -38.686607 18.296995 137 142 145
-42.517212 -38.713963 18.270794 127 139 133
-42.316566 -38.737709 18.274698 87 109 102
-42.182045 -38.768929 18.217775 55 75 65
-41.974506 -38.691555 18.222967 167 179 169
-40.818962 -38.721275 18.291183 162 171 179
-40.709518 -38.713253 18.297409 176 183 190
-40.504379 -38.736801 18.312799 145 155 159
-40.310871 -38.70369 18.301765 162 166 172
-40.121529 -38.756325 18.358902 171 171 173
-39.94899 -38.752777 18.322739 114 125 125
-39.659817 -38.772484 18.270002 131 129 133
-43.495487 -38.518494 18.236198 120 118 132
-43.266682 -38.504536 18.309345 190 187 191
-43.110428 -38.531204 18.293509 201 194 198
-42.901325 -38.511223 18.279156 156 154 157
-42.695034 -38.509933 18.290676 137 142 145
-42.502556 -38.477467 18.279024 132 143 140
-42.318928 -38.486473 18.274309 115 132 126
-42.147259 -38.402267 18.249907 142 153 147
-40.664436 -38.516533 18.291828 177 174 184
-40.510155 -38.472111 18.248501 112 122 126
-40.374695 -38.503918 18.317982 137 144 149
-43.24588 -38.310215 18.338474 179 176 180
-43.100719 -38.321865 18.285471 178 173 176
-42.917286 -38.294342 18.288673 140 143 142
-42.661182 -38.304531 18.289202 148 153 151
-42.511101 -38.314354 18.272762 142 149 146
-42.288944 -38.356449 18.274803 143 157 145
-42.157284 -38.353809 18.283264 135 146 133
-40.915092 -38.245689 18.279867 199 202 211
-40.662933 -38.28619 18.289564 211 203 209
-40.573448 -38.383095 18.221252 170 174 184
-43.325584 -38.066746 18.281986 189 185 191
-43.084671 -38.101315 18.295467 219 208 214
-42.875717 -38.147453 18.319052 189 184 189
-42.725597 -38.149738 18.326576 183 173 182
-42.574883 -38.147423 18.310307 136 132 141
-42.325474 -38.182678 18.315269 83 106 90
-40.644505 -38.159828 18.252371 95 95 105
-43.248039 -37.962135 18.307682 196 188 196
-43.081261 -37.956215 18.30509 182 166 174
-42.876938 -37.976875 18.299162 206 196 202
-42.699707 -37.986034 18.380566 170 170 174
-41.331394 -46.815659 18.41824 2 54 5
-41.88308 -46.61269 18.538734 36 66 38
-41.469982 -46.672295 18.482594 6 54 13
-41.340527 -46.710266 18.465584 20 61 25
-41.135494 -46.659615 18.417614 28 68 37
-41.891541 -46.488022 18.462856 14 44 20
-41.624321 -46.586697 18.586111 11 52 12
-41.485939 -46.499218 18.526566 21 59 25
-41.279488 -46.493816 18.511869 43 75 48
-41.125637 -46.486973 18.499397 42 78 53
-43.025711 -46.259102 18.504875 43 76 45
-42.539898 -46.362919 18.543205 127 132 135
-41.976021 -46.342567 18.54335 54 82 65
-41.706902 -46.302792 18.5676 138 147 137
-41.451782 -46.307304 18.564445 134 141 128
-41.278503 -46.30595 18.503553 108 124 108
-41.099426 -46.32159 18.509705 78 99 81
-43.499996 -46.045303 18.436985 125 141 120
-43.318085 -46.110458 18.518169 117 130 112
-43.108997 -46.050446 18.468725 95 105 89
-42.936752 -46.087921 18.455101 174 177 156
-42.66428 -46.025921 18.589321 132 152 134
-42.503036 -46.128716 18.446171 118 130 119
-42.309704 -46.067486 18.520439 87 101 79
-41.910755 -46.015472 18.590319 96 111 92
-41.454884 -46.082176 18.533806 63 74 58
-41.244453 -46.151154 18.531746 224 225 215
-40.812584 -46.010475 18.532009 95 116 96
-40.580894 -46.055031 18.527966 41 77 45
-43.476246 -45.897408 18.478271 119 132 109
-43.267773 -45.915508 18.502871 163 174 159
-43.111977 -45.918476 18.512939 120 137 117
-42.880035 -45.893993 18.516634 142 158 130
-42.625759 -45.881985 18.543787 139 155 133
-42.488247 -45.814747 18.493858 172 171 153
-42.324841 -45.888092 18.502163 151 162 149
-42.11982 -45.855568 18.447367 129 138 133
-40.660568 -45.948025 18.556324 106 115 110
-40.442875 -45.872429 18.428867 93 114 100
-43.459484 -45.728119 18.536373 103 105 84
-43.271557 -45.687134 18.512049 160 164 150
-43.162781 -45.679062 18.515018 167 171 155
-42.943531 -45.715763 18.498013 100 118 92
-42.687042 -45.640575 18.45116 146 155 140
-42.563793 -45.684258 18.518305 144 154 139
-40.822159 -45.676594 18.591806 126 139 132
-40.67149 -45.675846 18.533833 177 179 175
-40.529808 -45.674225 18.49402 32 65 36
-43.409153 -45.597633 18.441317 206 232 219
-43.27911 -45.534061 18.517567 138 146 132
-43.110939 -45.483246 18.500748 182 190 170
-42.923046 -45.4893 18.514935 126 139 118
-42.70713 -45.506474 18.506578 137 147 131
-42.52475 -45.546684 18.591942 125 139 120
-40.697754 -45.408627 18.418581 150 142 155
-40.524162 -45.488731 18.573326 56 78 54
-43.37883 -45.32103 18.564362 122 130 115
-43.059074 -45.298054 18.493364 156 170 153
-42.713444 -45.306515 18.528822 138 145 137
-40.907551 -45.268784 18.552469 175 178 182
-40.26622 -45.317261 18.508358 159 159 157
-39.92495 -45.264786 18.483982 183 180 173
-43.404007 -45.093761 18.515062 196 199 192
-43.354015 -45.071213 18.511515 153 167 157
-43.14156 -45.067432 18.47072 197 201 195
-42.71077 -45.019653 18.51115 86 104 92
-42.471825 -45.028603 18.518459 122 131 124
-42.364925 -45.062984 18.473202 107 127 118
-41.077106 -45.018631 18.55456 141 145 152
-40.905968 -45.177376 18.444725 134 138 145
-40.435837 -45.081032 18.547543 71 84 71
-40.308239 -45.103485 18.543884 121 128 125
-39.905754 -45.086445 18.510874 127 140 159
-43.427639 -44.920822 18.572552 218 227 211
-43.303993 -44.876041 18.475508 158 169 155
-43.168423 -44.884308 18.513115 141 152 148
-42.881275 -44.861244 18.526308 139 150 146
-42.713867 -44.902042 18.512537 118 128 121
-42.539085 -44.972099 18.51836 186 197 191
-41.033321 -44.990776 18.49053 90 93 100
-40.512939 -44.84407 18.503969 148 153 149
-40.329548 -44.9133 18.48019 88 102 93
-40.070808 -44.945999 18.455273 87 109 94
-39.946728 -44.926464 18.429693 125 130 126
-43.480625 -44.622154 18.516956 133 146 129
-43.312969 -44.679989 18.516758 156 166 154
-43.069374 -44.71278 18.539831 140 146 142
-42.900658 -44.72533 18.511703 146 153 155
-42.760281 -44.782089 18.539471 154 161 157
-41.808956 -44.624454 18.481094 105 129 115
-41.75193 -44.618504 18.564632 79 106 87
-41.358376 -44.623005 18.444233 98 102 111
-40.466007 -44.715981 18.46661 122 127 130
-40.295498 -44.740501 18.471989 93 101 100
-40.162964 -44.704178 18.515278 126 127 132
-43.437538 -44.551003 18.51759 139 144 138
-43.337059 -44.548164 18.530178 180 188 179
-43.103638 -44.53051 18.540947 156 158 160
-42.914867 -44.552464 18.563709 174 173 187
-41.891876 -44.405991 18.496218 72 84 74
-40.931873 -44.570602 18.412041 67 87 76
-40.674679 -44.485268 18.590782 129 133 135
-40.493706 -44.483032 18.434284 117 116 119
-40.32386 -44.563034 18.533005 119 110 120
-40.153492 -44.507801 18.509331 112 119 120
-43.495335 -44.297821 18.508621 178 185 174
-43.079121 -44.336308 18.573318 151 148 147
-42.974014 -44.239281 18.441811 79 89 78
-42.625294 -44.206497 18.526501 144 143 143
-42.480057 -44.267029 18.510168 106 119 114
-42.362137 -44.281067 18.455784 98 97 102
-42.059772 -44.285923 18.439817 175 182 188
-41.663712 -44.260151 18.526741 123 127 131
-41.410912 -44.22295 18.589834 81 104 88
-41.229057 -44.301197 18.499092 133 140 128
-41.144073 -44.241631 18.495163 94 99 102
-40.940914 -44.270672 18.490318 112 111 115
-40.770496 -44.297134 18.467621 126 130 138
-40.438389 -44.308933 18.485922 149 157 159
-40.293823 -44.312828 18.554363 110 115 109
-40.122444 -44.344696 18.506195 114 112 112
-43.633057 -44.072525 18.458405 175 178 165
-43.54953 -44.014465 18.469654 146 151 129
-43.294952 -44.091225 18.50539 142 156 146
-43.037174 -44.112938 18.457678 152 158 149
-42.959095 -44.001976 18.430906 138 139 131
-42.7076 -44.134762 18.488396 139 133 147
-42.557228 -44.165581 18.494427 121 122 126
-42.321594 -44.117218 18.469694 102 111 107
-42.163372 -44.174431 18.520575 143 153 152
-41.896141 -44.06818 18.506121 139 146 153
-41.714134 -44.087982 18.542751 144 145 154
-41.32666 -44.081108 18.461977 152 149 160
-41.096355 -44.050884 18.550001 104 128 117
-40.917946 -44.048016 18.501326 118 113 124
-40.761562 -44.037449 18.53891 123 111 127
-40.519043 -44.123444 18.495039 124 129 131
-40.328293 -44.062271 18.499977 225 210 227
-43.531551 -43.890755 18.403067 217 223 211
-43.079433 -43.928234 18.538294 156 158 156
-42.839382 -43.872555 18.473621 118 131 139
-42.70327 -43.924408 18.435249 88 109 105
-42.492737 -43.896301 18.551687 123 134 137
-42.2924 -43.896301 18.516205 141 140 149
-42.146011 -43.851192 18.471375 136 147 149
-41.908768 -43.88599 18.478512 88 103 99
-41.732864 -43.924992 18.490974 73 88 82
-41.492996 -43.84325 18.511938 105 111 109
-41.324619 -43.851013 18.514111 126 128 126
-41.075951 -43.930069 18.455692 90 97 96
-40.871925 -43.932003 18.50675 117 128 126
-40.675091 -43.89497 18.50062 94 106 107
-40.496868 -43.914993 18.506485 141 129 137
-40.359146 -43.869545 18.57658 97 98 100
-43.475292 -43.61887 18.410566 221 214 204
-43.29068 -43.709415 18.559097 174 179 182
-43.055504 -43.744148 18.515087 86 102 95
-42.907856 -43.672699 18.506308 127 139 140
-42.683186 -43.681576 18.521036 117 128 124
-42.503563 -43.711174 18.536793 116 121 119
-42.301468 -43.735584 18.494734 139 140 146
-42.158463 -43.611305 18.51866 51 86 66
-41.717594 -43.729706 18.486818 66 87 74
-41.449829 -43.690388 18.563299 109 122 121
-41.274109 -43.658905 18.553898 174 167 180
-41.036758 -43.717098 18.463352 101 109 104
-40.904343 -43.713524 18.496862 89 98 99
-40.698765 -43.701866 18.511024 104 111 117
-40.526794 -43.706318 18.512297 84 96 94
-40.338764 -43.721977 18.441635 83 101 89
-43.470436 -43.581318 18.469303 214 206 197
-43.270279 -43.537239 18.499495 158 152 156
-42.86948 -43.483139 18.512882 138 146 139
-42.705254 -43.504448 18.5144 125 132 128
-42.497688 -43.464436 18.482054 123 125 124
-42.335857 -43.468735 18.455503 114 131 124
-42.186989 -43.475647 18.445713 124 133 132
-41.870216 -43.417435 18.460703 152 143 154
-41.716843 -43.406437 18.540199 25 47 44
-41.276459 -43.531303 18.594217 145 148 143
-41.110355 -43.498425 18.556135 112 112 108
-40.957645 -43.535976 18.486292 153 161 154
-40.704948 -43.547073 18.534155 98 109 116
-40.5905 -43.523174 18.480322 76 97 92
-40.398911 -43.511349 18.533161 251 253 250
-43.470085 -43.300938 18.415039 110 105 109
-43.328094 -43.269356 18.454422 165 167 190
-43.197556 -43.246864 18.40057 184 185 187
-42.898968 -43.334888 18.518652 152 155 154
-42.662601 -43.293388 18.5182 136 144 139
-42.463966 -43.242241 18.500011 126 129 125
-42.350529 -43.274483 18.596516 171 169 166
-42.042366 -43.285984 18.588915 128 115 132
-41.912636 -43.330441 18.474842 115 121 121
-41.730442 -43.288754 18.446014 149 134 160
-41.315907 -43.278503 18.527494 180 186 190
-41.065895 -43.26556 18.446056 157 158 156
-40.960949 -43.322292 18.557789 101 118 103
-40.795631 -43.348557 18.57885 83 100 94
-42.856293 -43.13179 18.568197 187 170 173
-42.723042 -43.166351 18.56666 123 125 125
-42.493721 -43.07246 18.523851 158 151 155
-42.311214 -43.089966 18.503004 143 142 146
-42.103725 -43.115025 18.544062 164 152 167
-41.873268 -43.155006 18.488495 155 131 154
-41.026325 -43.172855 18.592831 50 71 62
-42.571018 -42.998466 18.555828 154 135 145
-42.270622 -42.997665 18.523029 136 134 145
-42.067322 -42.93924 18.544163 122 141 142
-41.702423 -42.912071 18.55817 123 134 119
-40.94231 -41.02425 18.481356 30 62 38
-41.690853 -40.860451 18.418682 102 114 110
-41.509087 -40.823303 18.587706 44 73 53
-41.30143 -40.838943 18.498556 145 145 144
-41.087894 -40.885792 18.501045 118 130 126
-40.928349 -40.898289 18.511312 127 139 138
-40.747044 -40.922565 18.413204 173 178 175
-39.498997 -40.831757 18.457909 98 106 103
-39.312599 -40.88932 18.498072 116 123 122
-39.143444 -40.881924 18.410454 225 211 236
-41.832615 -40.645557 18.545933 154 158 166
-41.705475 -40.671127 18.467537 155 159 165
-41.495094 -40.688389 18.490025 145 152 158
-41.297691 -40.68206 18.502695 160 168 169
-41.089802 -40.702312 18.494579 161 167 167
-40.922173 -40.678165 18.500612 166 171 176
-40.722298 -40.659187 18.510323 160 167 175
-40.505482 -40.637928 18.510347 133 146 150
-40.273762 -40.629456 18.512867 185 188 193
-40.129917 -40.635887 18.516079 138 146 147
-39.90992 -40.655239 18.480724 192 184 195
-39.670929 -40.67086 18.477411 127 131 129
-39.477623 -40.674725 18.453947 161 168 169
-39.274315 -40.665352 18.488304 124 129 133
-39.153671 -40.6511 18.454092 51 71 64
-38.989784 -40.658478 18.442139 65 95 97
-42.714142 -40.461082 18.479015 141 143 150
-42.494537 -40.442146 18.464617 100 119 119
-42.325977 -40.460812 18.455637 118 141 136
-42.104462 -40.493145 18.425516 179 177 184
-41.872036 -40.477226 18.520487 197 195 203
-41.703537 -40.493599 18.514336 177 180 184
-41.471779 -40.455856 18.523861 188 189 193
-41.329674 -40.505341 18.499466 150 157 162
-41.135105 -40.482147 18.539093 198 199 205
-40.899582 -40.500458 18.506945 165 177 183
-40.693157 -40.468502 18.481747 170 171 177
-40.510674 -40.462822 18.502686 171 174 178
-40.296082 -40.524269 18.510195 122 131 136
-40.130199 -40.487461 18.509554 119 132 132
-39.886997 -40.501587 18.53372 170 175 176
-39.695168 -40.532009 18.471279 182 181 183
-39.484417 -40.497868 18.481771 157 167 168
-39.309952 -40.491333 18.496674 186 188 189
-39.143513 -40.458286 18.489264 191 193 195
-38.968456 -40.467461 18.516293 57 80 73
-43.050903 -40.255402 18.44862 63 73 65
-42.832386 -40.248615 18.549845 173 169 182
-42.682659 -40.299049 18.489931 152 158 160
-42.485088 -40.27446 18.470592 131 147 149
-42.32811 -40.297924 18.476606 126 144 142
-42.058834 -40.283775 18.508762 213 212 219
-41.890465 -40.293736 18.522114 188 188 197
-41.731281 -40.321568 18.504412 175 181 186
-41.479733 -40.260109 18.506992 170 174 177
-41.282879 -40.300621 18.506712 126 134 138
-41.119068 -40.256756 18.523598 158 160 165
-40.921062 -40.261822 18.511953 187 188 203
-40.6852 -40.2869 18.489534 150 154 157
-40.500706 -40.292278 18.516411 146 157 162
-40.298386 -40.296635 18.516724 140 150 155
-40.101437 -40.303848 18.513821 87 107 104
-39.919487 -40.296734 18.499592 108 127 125
-39.659462 -40.295132 18.448183 123 126 127
-39.53537 -40.266945 18.476536 127 135 133
-39.262939 -40.343704 18.526016 192 191 196
-39.084591 -40.279259 18.513433 178 179 184
-38.959057 -40.253426 18.469736 98 108 102
-38.74511 -40.255653 18.495964 71 92 83
-43.196033 -40.031174 18.402502 58 82 68
-42.886646 -40.082386 18.508331 177 174 181
-42.708942 -40.092896 18.497746 170 171 179
-42.506802 -40.092175 18.49527 131 145 147
-42.316437 -40.092216 18.470219 147 158 159
-42.108238 -40.092918 18.474728 182 176 185
-41.871952 -40.108829 18.50692 189 192 198
-41.690018 -40.118507 18.518579 153 169 171
-41.520878 -40.101685 18.509302 139 153 154
-41.323112 -40.106331 18.505522 195 191 198
-41.098766 -40.098499 18.515131 134 145 148
-40.917259 -40.136093 18.457098 154 162 171
-40.700222 -40.100712 18.510387 114 128 132
-40.48711 -40.109268 18.490658 136 140 148
-40.287991 -40.098839 18.505276 162 168 172
-40.130486 -40.137562 18.550369 137 151 151
-39.910439 -40.115082 18.556133 150 155 156
-39.725502 -40.056343 18.563202 102 118 118
-39.443855 -40.116138 18.472078 142 159 158
-39.266708 -40.124004 18.498989 177 182 183
-39.051666 -40.12986 18.546574 212 212 214
-38.923759 -40.139229 18.538078 156 151 151
-43.056225 -39.879288 18.495049 156 161 167
-42.874115 -39.892422 18.499062 175 174 181
-42.70232 -39.890881 18.494799 151 160 165
-42.505997 -39.917 18.49757 128 145 143
-42.302582 -39.877251 18.488987 176 178 184
-42.130966 -39.939503 18.483852 179 179 185
-41.909691 -39.915215 18.506664 203 202 211
-41.684273 -39.890831 18.505053 183 187 195
-41.482178 -39.934227 18.533058 201 204 209
-41.324181 -39.878391 18.524767 153 165 168
-41.090652 -39.905483 18.520281 103 119 120
-40.895359 -39.909088 18.498819 107 119 121
-40.68306 -39.883781 18.544365 116 117 125
-40.495121 -39.849014 18.518723 118 126 130
-40.288914 -39.89537 18.521204 143 153 155
-40.125511 -39.912209 18.530399 152 159 159
-39.940071 -39.863747 18.467632 103 109 106
-39.709248 -39.880489 18.496542 90 106 104
-39.48534 -39.951279 18.493345 105 117 116
-43.738014 -39.614944 18.442045 254 249 250
-43.542557 -39.790821 18.423431 187 186 191
-43.226326 -39.674507 18.457573 136 145 137
-43.083897 -39.704533 18.503792 169 171 172
-42.905136 -39.692753 18.505531 161 164 167
-42.687271 -39.646271 18.505201 171 177 184
-42.50415 -39.723694 18.482374 136 147 149
-42.255661 -39.684479 18.485596 141 147 149
-42.094437 -39.741722 18.473673 148 154 159
-41.911469 -39.712219 18.479406 196 195 202
-41.721996 -39.724339 18.485119 191 192 199
-41.496643 -39.703205 18.525528 165 172 180
-41.259167 -39.716824 18.51548 129 142 142
-41.101681 -39.722439 18.502247 114 134 134
-40.930588 -39.650131 18.515209 174 177 181
-40.69463 -39.712425 18.512531 105 123 122
-40.486832 -39.700367 18.5042 110 129 128
-40.296459 -39.709351 18.502993 127 139 143
-40.126152 -39.709015 18.511427 124 138 140
-39.895786 -39.714691 18.540064 119 132 133
-39.708286 -39.706753 18.489702 104 121 123
-39.565456 -39.789127 18.513557 214 241 248
-43.426552 -39.488773 18.411762 130 138 138
-43.279804 -39.480675 18.483181 192 184 193
-43.088272 -39.495041 18.502413 168 170 173
-42.894176 -39.506962 18.500114 163 166 169
-42.711929 -39.502399 18.485411 132 145 144
-42.518795 -39.486732 18.474684 136 148 148
-42.276955 -39.550648 18.469912 91 109 106
-42.126328 -39.557575 18.491148 160 171 170
-41.876583 -39.542671 18.471601 205 204 208
-41.742668 -39.512074 18.475771 209 206 212
-41.484631 -39.48571 18.560686 186 183 192
-41.315575 -39.523716 18.525488 173 171 178
-41.074345 -39.522995 18.530388 150 163 166
-40.891842 -39.518848 18.496164 138 148 149
-40.716675 -39.533764 18.538708 178 178 185
-40.5187 -39.517502 18.488029 168 166 170
-40.260418 -39.491093 18.516632 181 189 190
-40.128094 -39.471905 18.484613 195 199 201
-39.901905 -39.525215 18.551817 95 105 110
-39.723648 -39.520992 18.521257 111 128 133
-43.673973 -39.306923 18.459621 132 128 132
-43.47543 -39.309071 18.421476 185 181 183
-43.296398 -39.303802 18.485556 210 204 208
-43.08593 -39.302357 18.504564 165 167 167
-42.901524 -39.30101 18.506563 133 145 142
-42.67852 -39.297424 18.516968 181 178 182
-42.519077 -39.323078 18.500162 173 175 182
-42.305431 -39.289989 18.439676 90 110 97
-41.902767 -39.246712 18.414932 226 233 239
-41.657169 -39.349522 18.52857 241 232 239
-41.509686 -39.332653 18.481485 220 210 216
-41.289795 -39.333881 18.538143 201 197 204
-41.076847 -39.318134 18.4741 137 148 153
-40.895252 -39.286312 18.508566 142 149 152
-40.690239 -39.29224 18.495386 145 157 164
-40.506786 -39.294643 18.497791 147 157 163
-40.28756 -39.293106 18.492908 141 157 162
-40.076469 -39.287392 18.528645 190 196 199
-39.915455 -39.266682 18.515104 132 145 147
-39.706501 -39.301376 18.509521 133 145 146
-43.447052 -39.153534 18.415371 251 244 236
-43.276165 -39.08744 18.480465 212 205 210
-43.10574 -39.094677 18.506977 170 174 172
-42.911526 -39.106476 18.489508 131 137 136
-42.713715 -39.089394 18.487848 169 167 172
-42.562305 -39.098515 18.458294 174 177 179
-42.319103 -39.166832 18.438576 103 117 109
-41.415535 -39.122437 18.452948 143 150 160
-41.272842 -39.10741 18.427237 189 200 209
-41.091488 -39.164352 18.436937 178 181 188
-40.848969 -39.105999 18.478687 153 168 176
-40.703712 -39.1152 18.500847 152 162 167
-40.500233 -39.095131 18.477907 141 150 154
-40.315201 -39.077465 18.471272 163 173 178
-40.083233 -39.084675 18.553225 200 205 204
-39.929169 -39.098888 18.49613 132 142 144
-39.729553 -39.121304 18.494652 124 130 134
-43.27895 -38.894337 18.50683 201 193 200
-43.108685 -38.93063 18.493246 181 177 181
-42.880516 -38.944492 18.504528 153 154 158
-42.70826 -38.950813 18.475227 127 132 133
-42.348392 -38.866207 18.444462 187 197 186
-41.280304 -38.920334 18.427801 170 174 178
-41.042934 -38.925606 18.488554 185 185 194
-40.882805 -38.918713 18.491344 191 199 205
-40.674934 -38.916969 18.493626 157 167 170
-40.519192 -38.915333 18.498686 136 146 148
-40.294895 -38.931561 18.488651 152 164 167
-40.116962 -38.9189 18.488287 149 155 160
-39.933502 -38.938942 18.488655 194 195 194
-39.799553 -38.818043 18.442324 254 253 255
-43.274899 -38.753986 18.473974 172 164 170
-43.093746 -38.718384 18.481731 150 150 152
-42.951088 -38.674019 18.455116 153 150 153
-42.704578 -38.670776 18.425682 120 124 129
-42.483643 -38.669502 18.443001 88 103 93
-42.38673 -38.685688 18.464531 32 61 41
-41.289162 -38.788284 18.459669 215 221 224
-41.025883 -38.69828 18.524185 207 202 210
-40.898243 -38.694221 18.482016 175 177 183
-40.692924 -38.699089 18.480804 147 159 166
-40.520893 -38.728275 18.478355 131 142 147
-40.326393 -38.75993 18.442352 185 187 191
-40.079712 -38.794941 18.547604 226 221 225
-39.925488 -38.795895 18.442732 80 81 86
-39.768627 -38.792229 18.524017 114 123 126
-43.066906 -38.556419 18.473976 143 142 145
-42.896683 -38.538876 18.496363 150 147 151
-42.677227 -38.48595 18.440374 123 129 128
-42.467045 -38.429684 18.437761 155 161 156
-42.352318 -38.44772 18.433235 192 193 185
-40.898952 -38.524391 18.492846 196 193 202
-40.717819 -38.51273 18.552708 166 167 175
-40.497917 -38.49963 18.495741 150 157 162
