ply
format ascii 1.0
comment PCL generated
element vertex 1106
property float x
property float y
property float z
property uchar red
property uchar green
property uchar blue
element face 0
element camera 0
property float view_px
property float view_py
property float view_pz
property float x_axisx
property float x_axisy
property float x_axisz
property float y_axisx
property float y_axisy
property float y_axisz
property float z_axisx
property float z_axisy
property float z_axisz
property float focal
property float scalex
property float scaley
property float centerx
property float centery
property int viewportx
property int viewporty
property float k1
property float k2
end_header
-82.095978 -19.284584 19.090469 67 91 68
-81.918854 -19.293999 19.109844 67 94 68
-81.684029 -19.27088 19.114052 71 95 71
-81.477386 -19.28611 19.084642 119 132 112
-81.301178 -19.286583 19.098703 112 125 100
-81.097183 -19.304121 19.09374 105 116 99
-80.887848 -19.284424 19.10885 112 127 103
-80.723511 -19.318216 19.084808 105 118 100
-80.521805 -19.294729 19.063675 130 141 121
-80.28392 -19.282656 19.1073 152 155 138
-80.098549 -19.294964 19.147055 118 127 106
-79.907516 -19.349506 19.129478 78 96 78
-79.721962 -19.358973 19.116415 68 87 66
-79.488564 -19.318645 19.067602 65 88 67
-79.287292 -19.306658 19.1047 49 78 50
-79.084976 -19.306425 19.108751 71 95 73
-78.950462 -19.321186 19.112509 70 90 75
-78.729691 -19.271341 19.063856 56 85 59
-78.468498 -19.28614 19.110275 117 128 108
-78.309853 -19.294947 19.111946 111 121 103
-78.129646 -19.296921 19.10317 93 107 95
-77.878899 -19.270416 19.134483 110 121 105
-77.662842 -19.283768 19.092688 177 171 166
-77.525513 -19.276991 19.076353 142 142 141
-77.289291 -19.311493 19.076319 131 134 120
-77.12812 -19.307615 19.080559 122 126 115
-76.902748 -19.353477 19.055319 103 107 102
-73.282288 -19.315725 19.027483 179 168 183
-87.768669 -19.141012 19.172651 92 114 91
-87.523224 -19.081806 19.131952 70 92 80
-87.342514 -19.175837 19.040051 107 132 111
-87.073586 -19.158146 19.089359 95 110 94
-86.909134 -19.1562 19.099697 96 114 99
-86.708382 -19.160824 19.024649 122 127 123
-86.458832 -19.096598 19.02618 80 100 75
-86.331985 -19.11166 19.054199 56 68 53
-86.095802 -19.180573 19.004055 101 120 110
-85.820671 -19.182373 19.035107 56 63 56
-85.518921 -19.121645 19.100393 129 141 130
-85.315826 -19.066648 19.036955 116 134 125
-85.119995 -19.123722 19.089077 102 114 106
-84.940178 -19.049044 19.140247 108 123 112
-83.224045 -19.109364 19.118404 131 123 110
-82.683846 -19.124672 19.093658 150 160 139
-82.510643 -19.137703 19.146595 153 158 140
-82.291687 -19.133183 19.127346 83 99 77
-82.093468 -19.10293 19.112785 79 100 79
-81.905952 -19.08552 19.108192 67 93 66
-81.701439 -19.106165 19.107203 74 93 68
-81.503319 -19.137928 19.111341 103 116 93
-81.284996 -19.103872 19.091015 85 104 77
-81.109734 -19.093182 19.091864 107 125 102
-80.913811 -19.073778 19.128445 96 114 97
-80.71405 -19.091167 19.089705 104 115 99
-80.476738 -19.092434 19.097971 138 150 129
-80.297401 -19.094879 19.086855 134 144 123
-80.128494 -19.079664 19.146347 155 155 141
-79.896553 -19.090506 19.098919 172 179 165
-79.679375 -19.041449 19.121422 103 122 103
-79.483284 -19.067762 19.122694 73 93 70
-79.274704 -19.087736 19.086657 72 94 68
-79.127556 -19.116461 19.08197 59 87 62
-78.908913 -19.089544 19.095423 90 107 100
-78.676521 -19.083471 19.086489 85 103 84
-78.511292 -19.105753 19.10227 93 107 89
-78.325554 -19.124479 19.126913 127 132 119
-78.107323 -19.094656 19.116556 101 110 99
-77.894379 -19.101265 19.076591 66 89 75
-77.749519 -19.118961 19.077858 165 173 163
-77.476089 -19.149906 19.087276 121 116 112
-77.270309 -19.112637 19.10717 104 114 100
-77.125626 -19.122616 19.091808 140 143 131
-76.934441 -19.08987 19.072271 98 115 100
-88.001846 -18.88368 19.069317 79 93 80
-87.818977 -18.8783 19.081987 147 165 150
-87.661743 -18.889559 19.059641 71 94 77
-87.493324 -18.892464 19.086748 33 61 39
-87.310982 -18.888905 19.102795 88 111 93
-87.077042 -18.820974 19.081223 196 196 198
-86.851799 -18.850092 19.109739 122 140 136
-86.708809 -18.859156 19.140457 63 89 66
-86.500587 -18.896553 19.082125 56 81 58
-86.317917 -18.817616 19.170418 96 111 92
-86.074707 -18.826639 19.083269 67 100 80
-85.946701 -18.802444 19.093348 80 112 89
-85.682388 -18.828222 19.100531 94 120 101
-85.528809 -18.90975 19.065165 161 167 162
-85.08979 -18.933332 19.068552 132 143 139
-84.912712 -18.89027 19.110128 158 164 156
-82.841293 -18.940025 19.127476 213 198 201
-82.220222 -18.862646 19.145796 105 121 95
-82.087349 -18.899309 19.141123 90 112 91
-81.907303 -18.895874 19.114473 65 88 64
-81.686676 -18.912737 19.105133 84 104 83
-81.500313 -18.902866 19.09462 100 118 94
-81.315384 -18.910872 19.080111 80 103 78
-81.093018 -18.894815 19.078884 105 123 100
-80.911163 -18.885393 19.09795 94 109 91
-80.687943 -18.922886 19.102777 105 119 102
-80.517235 -18.948414 19.143738 121 136 112
-80.268982 -18.912897 19.099354 122 134 109
-80.097206 -18.910891 19.091127 140 149 131
-79.936111 -18.914673 19.111595 192 201 184
-79.67569 -18.909159 19.082367 60 85 60
-79.495445 -18.895102 19.093224 62 89 61
-79.313087 -18.897001 19.087639 56 83 55
-79.11718 -18.899052 19.102953 49 74 53
-78.884888 -18.885132 19.081335 60 80 58
-78.681648 -18.907167 19.106569 102 114 97
-78.486351 -18.896826 19.101492 104 112 101
-78.291191 -18.898672 19.107264 119 126 113
-78.103401 -18.912163 19.093018 84 101 87
-77.932938 -18.903482 19.116074 85 107 92
-77.747353 -18.93022 19.087238 89 111 96
-77.493347 -18.886303 19.069523 167 154 164
-77.324013 -18.901674 19.080963 151 147 144
-77.186104 -18.958584 19.104019 127 133 120
-87.807968 -18.695007 19.043343 94 107 103
-87.668617 -18.686483 19.152542 112 129 116
-87.465401 -18.631828 19.095078 95 114 103
-87.330368 -18.718866 19.102398 122 136 118
-87.15612 -18.702307 19.022207 162 176 170
-86.892403 -18.754816 19.086893 101 120 108
-86.680771 -18.678249 19.083006 61 83 63
-86.510887 -18.713728 19.118343 149 164 147
-86.293854 -18.722254 19.121317 118 132 117
-86.138153 -18.66304 19.114552 87 102 90
-85.93161 -18.656492 19.109797 91 103 99
-85.725609 -18.69199 19.126631 144 154 154
-85.471619 -18.628242 19.101973 186 193 197
-85.360291 -18.675262 19.165695 116 103 112
-85.110466 -18.744337 19.050726 68 83 66
-84.930115 -18.780338 19.058876 190 185 183
-82.920135 -18.612499 19.022734 232 234 229
-82.525307 -18.672016 19.069054 171 182 159
-82.271996 -18.745111 19.101122 130 146 122
-82.099335 -18.741562 19.128365 105 122 102
-81.883575 -18.711506 19.119337 74 97 79
-81.702385 -18.702333 19.111845 63 90 62
-81.462868 -18.707581 19.10446 69 96 72
-81.307961 -18.715927 19.109282 67 93 66
-81.104942 -18.725004 19.101696 83 106 83
-80.891052 -18.703751 19.117413 119 132 113
-80.685928 -18.686394 19.094349 109 119 101
-80.511681 -18.716587 19.098631 133 139 127
-80.296257 -18.745665 19.109104 114 131 108
-80.109711 -18.714331 19.135881 80 102 79
-79.887268 -18.673098 19.098896 83 112 87
-79.67942 -18.707785 19.0944 37 72 43
-79.518791 -18.697655 19.103315 37 68 39
-79.293587 -18.732515 19.111023 52 80 52
-79.107513 -18.696043 19.083887 52 76 51
-78.874382 -18.669144 19.071693 69 91 69
-78.688042 -18.693018 19.108881 109 120 104
-78.520882 -18.717672 19.120558 96 107 92
-78.291466 -18.703592 19.109524 113 120 105
-78.096626 -18.707235 19.084026 111 116 106
-77.949814 -18.690905 19.09087 93 114 93
-77.727989 -18.66799 19.054304 140 152 131
-77.563698 -18.616568 19.059505 138 133 114
-77.27005 -18.760084 19.115023 178 173 164
-77.120583 -18.698269 19.18684 124 126 116
-76.907791 -18.741035 19.122234 126 128 119
-73.858902 -18.610058 19.016249 171 166 188
-88.059387 -18.49365 19.131086 151 163 163
-87.846558 -18.460583 19.095139 93 112 99
-87.709137 -18.474236 19.172075 107 133 118
-87.459908 -18.469627 19.079527 63 91 69
-87.307999 -18.551495 19.110167 113 136 123
-87.160812 -18.412292 19.16049 65 102 84
-86.877594 -18.59935 19.045588 85 112 97
-86.721512 -18.474903 19.029114 82 108 91
-86.489471 -18.506618 19.102074 89 104 93
-86.301453 -18.503342 19.072012 111 127 114
-86.082481 -18.466362 19.040352 132 140 131
-85.894638 -18.464458 19.075827 121 127 119
-85.703186 -18.476114 19.115608 112 129 114
-85.457069 -18.507639 19.076433 119 127 131
-85.298264 -18.467104 19.116564 175 173 177
-85.139984 -18.565466 19.113398 113 125 131
-84.998734 -18.432005 19.086468 197 193 200
-83.094841 -18.59374 19.147272 82 92 68
-82.990639 -18.467176 19.008589 185 188 179
-82.462074 -18.451235 19.165453 203 201 196
-82.357681 -18.504536 19.104111 164 173 161
-81.859055 -18.490194 19.10321 98 115 103
-81.701874 -18.514231 19.102968 68 91 70
-81.501892 -18.522558 19.09553 57 90 59
-81.311127 -18.500378 19.102711 65 94 67
-81.116661 -18.481276 19.096867 64 86 71
-80.884087 -18.539202 19.120007 127 142 124
-80.708412 -18.498774 19.118654 94 114 94
-80.511604 -18.502363 19.113604 118 140 115
-80.280304 -18.498276 19.119175 52 81 52
-80.13549 -18.501112 19.130112 61 84 63
-79.881271 -18.490225 19.099009 53 85 56
-79.697166 -18.50359 19.103886 51 81 52
-79.480865 -18.499626 19.100067 48 76 46
-79.304298 -18.501936 19.081566 48 79 48
-79.107872 -18.479145 19.085585 53 78 52
-78.910706 -18.490494 19.092297 64 86 64
-78.700272 -18.520769 19.078678 111 121 107
-78.466919 -18.477407 19.114918 110 121 104
-78.30365 -18.476456 19.082087 134 132 122
-78.080757 -18.500387 19.094639 123 128 112
-77.896523 -18.498705 19.09864 94 105 87
-77.723114 -18.495321 19.044983 63 83 66
-88.089462 -18.338741 19.172129 71 89 77
-87.926292 -18.26734 19.046444 32 60 34
-87.762703 -18.2672 19.16371 0 30 0
-87.309669 -18.278635 19.097736 70 97 75
-87.092262 -18.276449 19.125376 84 106 88
-86.910622 -18.263807 19.140602 95 116 106
-86.731094 -18.280003 19.081913 61 83 71
-86.493271 -18.257595 19.108118 56 78 67
-86.329102 -18.261845 19.128492 91 113 104
-85.899803 -18.375916 19.049555 148 155 153
-85.672989 -18.332588 19.088642 60 82 66
-85.483612 -18.304646 19.05756 112 120 121
-85.319038 -18.378689 19.089922 137 130 141
-82.466324 -18.387096 19.08153 53 62 44
-82.083321 -18.268518 19.14386 145 156 135
-81.873375 -18.284895 19.12484 120 133 117
-81.700287 -18.31624 19.105942 121 133 124
-81.504112 -18.312191 19.106606 89 108 95
-81.300636 -18.298504 19.106443 95 110 97
-81.094582 -18.312738 19.092199 99 118 102
-80.903847 -18.321005 19.099527 63 89 63
-80.697418 -18.317383 19.084461 89 108 92
-80.522537 -18.292187 19.10148 94 111 90
-80.319061 -18.28492 19.09964 80 105 79
-80.09893 -18.292021 19.115555 88 108 77
-79.900299 -18.30736 19.097052 99 116 95
-79.719093 -18.309849 19.070866 103 117 96
-79.490036 -18.279861 19.095795 93 110 91
-79.315697 -18.287821 19.100704 87 109 83
-79.088333 -18.319519 19.097853 82 101 80
-78.901222 -18.311178 19.10478 70 90 72
-78.697838 -18.291342 19.089403 70 88 74
-78.495613 -18.301134 19.110085 95 107 94
-78.315742 -18.332445 19.096075 136 133 123
-78.122536 -18.294018 19.089176 120 125 115
-77.880684 -18.304016 19.096479 110 119 105
-77.691177 -18.288734 19.068377 87 100 84
-77.570915 -18.21406 19.083498 93 119 99
-74.293083 -18.201618 19.066214 204 184 198
-73.89502 -18.276802 19.0797 159 149 168
-88.101753 -18.123568 19.125952 83 114 83
-87.814476 -18.054113 19.125002 58 78 53
-87.672882 -18.110207 19.036774 106 128 115
-87.538109 -18.124866 19.116514 70 97 81
-87.294197 -18.072506 19.104382 102 112 110
-87.090797 -18.198143 19.13933 109 126 106
-86.919395 -18.070312 19.111187 51 76 63
-86.736221 -18.036747 19.121088 100 121 117
-86.549011 -18.08709 19.097229 76 104 103
-86.283813 -18.118792 19.095314 85 102 97
-86.113441 -18.018312 19.123968 84 100 100
-85.944038 -18.067392 19.099176 70 92 89
-83.15493 -18.000761 19.095129 149 144 138
-82.058067 -18.115366 19.09095 131 141 125
-81.87812 -18.124689 19.12779 157 158 144
-81.685577 -18.112803 19.090969 140 148 135
-81.520607 -18.116907 19.118587 100 115 101
-81.316032 -18.107256 19.093159 139 147 138
-81.089478 -18.116314 19.082632 111 129 113
-80.9216 -18.114088 19.114571 108 118 99
-80.675865 -18.106026 19.086132 110 126 101
-80.525475 -18.09342 19.092966 103 121 94
-80.318939 -18.085428 19.121122 108 129 99
-80.093811 -18.107492 19.092693 175 184 164
-79.864647 -18.103083 19.134941 119 133 112
-79.697502 -18.118944 19.097416 93 108 87
-79.503189 -18.109968 19.105803 98 114 93
-79.29747 -18.108706 19.106672 96 110 98
-79.123024 -18.097525 19.081982 72 89 78
-78.901527 -18.107443 19.112957 79 96 80
-78.711899 -18.132627 19.092915 80 98 79
-78.492004 -18.160711 19.105633 99 107 94
-78.296982 -18.137314 19.092628 142 136 132
-78.092323 -18.129087 19.092817 139 146 129
-77.885643 -18.090553 19.130804 108 119 102
-77.70948 -18.156408 19.120522 120 126 112
-77.575569 -18.126844 19.145706 52 70 48
-74.280945 -18.044453 19.015324 222 219 230
-74.116905 -18.170395 19.067379 170 159 173
-73.929047 -18.058868 19.060387 180 169 184
-88.514534 -17.844183 19.183617 88 119 97
-88.386833 -17.804249 19.134386 64 112 72
-88.116661 -17.915295 19.155413 41 67 39
-87.998199 -17.849176 19.179535 59 85 65
-87.705086 -17.954069 19.097166 68 94 77
-87.516602 -17.892773 19.142578 27 63 43
-87.366013 -17.998075 19.031322 82 95 89
-87.109413 -17.842155 19.029833 68 67 63
-86.872864 -17.883005 19.109709 72 91 88
-86.689934 -17.853628 19.083521 34 52 48
-86.513817 -17.899931 19.16292 43 68 61
-86.285767 -17.9652 19.122526 61 83 79
-86.094231 -17.943722 19.096636 97 104 108
-85.908905 -17.855278 19.108522 82 95 97
-85.696274 -17.907364 19.119444 96 117 113
-82.687805 -17.851168 19.09351 161 155 167
-82.061058 -17.873529 19.122608 125 128 124
-81.895538 -17.91618 19.124035 148 146 147
-81.690598 -17.906136 19.125275 169 171 165
-81.497375 -17.899437 19.127211 141 147 140
-81.280159 -17.884241 19.096874 143 149 140
-81.103203 -17.902735 19.123379 155 162 141
-80.875572 -17.902098 19.117498 138 145 124
-80.740433 -17.866411 19.090393 108 125 100
-80.480026 -17.885731 19.11219 100 120 85
-80.332344 -17.913015 19.10092 112 133 100
-80.076187 -17.897085 19.112364 133 142 125
-79.864296 -17.913614 19.11693 175 176 163
-79.729111 -17.924892 19.108412 177 181 166
-79.458405 -17.896328 19.115044 82 109 87
-79.306679 -17.918505 19.095495 77 96 83
-79.099258 -17.909084 19.095436 84 101 83
-78.954147 -17.914715 19.099184 61 83 61
-78.506989 -17.831238 19.078617 130 132 132
-78.281975 -17.837234 19.070457 113 111 114
-78.117386 -17.990944 19.097507 132 130 116
-77.906372 -17.949976 19.092117 210 192 183
-77.67849 -17.924034 19.093517 128 121 118
-74.227951 -17.888893 19.081074 215 204 219
-74.001678 -17.880789 19.064331 177 172 185
-88.439667 -17.651199 19.077175 36 71 41
-88.284721 -17.708389 19.09515 61 90 64
-88.075577 -17.708431 19.081802 28 63 38
-87.964142 -17.71817 19.097956 51 72 59
-87.114403 -17.657412 19.114277 121 140 135
-86.880455 -17.719521 19.054642 59 77 76
-86.702843 -17.710005 19.100437 65 90 81
-86.495476 -17.731512 19.13028 72 90 84
-86.295456 -17.701567 19.10808 85 99 104
-86.089668 -17.687416 19.101727 70 85 79
-85.881783 -17.733234 19.101824 70 84 83
-85.713615 -17.7015 19.112799 83 99 105
-85.556732 -17.674408 19.046377 60 85 82
-85.344864 -17.687817 19.130558 47 47 55
-82.101028 -17.700945 19.101656 143 143 142
-81.937576 -17.726315 19.113642 147 145 150
-81.709557 -17.684242 19.099171 186 182 186
-81.542686 -17.725794 19.121119 150 151 151
-81.251419 -17.727478 19.113018 183 178 172
-81.121284 -17.717993 19.10515 171 172 154
-80.854843 -17.701214 19.110855 144 155 137
-80.72776 -17.69659 19.082357 97 115 92
-80.484657 -17.701574 19.106926 83 108 81
-80.317871 -17.69652 19.082457 83 109 74
-80.106483 -17.626776 19.044327 96 117 86
-79.878426 -17.737156 19.119543 188 187 183
-79.606224 -17.686319 19.123617 214 216 198
-79.463615 -17.693029 19.090933 118 138 118
-79.316948 -17.70088 19.11441 77 101 83
-79.142326 -17.722445 19.108816 63 90 68
-78.942856 -17.67524 19.068338 47 82 51
-74.095589 -17.704325 19.094772 206 193 208
-73.919678 -17.776564 19.011429 210 195 208
-88.261101 -17.599041 19.037868 31 66 45
-87.874741 -17.502617 19.105635 9 47 14
-87.652794 -17.46294 19.133223 55 86 70
-87.322151 -17.508387 19.098425 127 144 137
-87.094872 -17.479807 19.101263 75 97 87
-86.916344 -17.503668 19.091114 71 93 82
-86.766602 -17.507048 19.052578 42 72 53
-86.220253 -17.410761 19.06896 58 79 62
-86.087746 -17.488142 19.103834 64 82 75
-85.894112 -17.482817 19.133219 75 93 90
-85.697411 -17.509705 19.090565 74 99 96
-85.533829 -17.486858 19.08621 71 96 91
-85.37059 -17.523224 19.058277 61 89 90
-82.253006 -17.48509 19.106167 248 242 242
-82.083237 -17.471434 19.081436 163 155 162
-81.9645 -17.535625 19.048201 141 139 145
-81.690376 -17.521919 19.096531 184 176 182
-81.565506 -17.558626 19.18322 226 218 225
-81.228539 -17.480209 19.084541 211 208 209
-81.124802 -17.518499 19.106319 165 165 149
-80.851318 -17.499134 19.124348 148 159 141
-80.722176 -17.490377 19.106527 111 128 106
-80.509552 -17.501589 19.075605 112 134 105
-80.3172 -17.507158 19.09062 116 134 106
-80.109131 -17.498655 19.098709 87 111 66
-79.888916 -17.537489 19.158783 227 224 218
-79.656624 -17.48488 19.119402 171 174 159
-79.484795 -17.515957 19.103069 83 110 86
-79.294838 -17.500881 19.098377 78 97 85
-79.091637 -17.482124 19.108532 81 104 83
-78.896744 -17.511093 19.083883 72 97 75
-78.771393 -17.497747 19.035351 52 80 65
-87.80294 -17.256414 19.027281 68 101 84
-87.611954 -17.288754 19.198242 72 88 80
-87.3172 -17.233831 19.103233 97 125 109
-87.073418 -17.263704 19.09169 67 88 80
-86.910645 -17.306351 19.128904 73 99 81
-86.216202 -17.330532 19.013391 46 65 57
-86.063591 -17.251217 19.093933 58 78 74
-85.908478 -17.283112 19.121071 65 85 84
-85.695541 -17.282646 19.088837 64 82 92
-85.512993 -17.31848 19.098515 57 94 75
-82.063782 -17.337173 19.069595 139 130 135
-81.971786 -17.289583 19.003855 225 220 206
-81.654221 -17.302071 19.076124 205 197 206
-81.550491 -17.313057 19.154526 183 174 184
-81.21888 -17.380384 19.087215 28 54 29
-81.068123 -17.346151 19.068483 208 208 194
-80.885033 -17.305916 19.091993 162 170 152
-80.729324 -17.284973 19.075769 146 156 137
-80.489868 -17.283419 19.080578 121 135 108
-80.321953 -17.305103 19.099653 129 146 114
-80.135239 -17.327393 19.136326 117 134 99
-79.944595 -17.370028 19.099918 113 111 96
-79.670029 -17.316097 19.098009 161 170 151
-79.470322 -17.284821 19.079748 95 116 92
-79.296257 -17.304039 19.113676 87 108 88
-79.119858 -17.28483 19.107897 64 88 75
-78.915833 -17.326187 19.124252 56 84 65
-78.770027 -17.35532 19.149321 55 81 68
-86.243805 -17.152367 19.010929 38 65 55
-86.094765 -17.066177 19.068871 50 74 72
-85.914124 -17.120852 19.070223 88 108 101
-85.695557 -17.01906 19.084616 51 69 67
-85.523178 -17.054853 19.093225 39 71 53
-85.313995 -17.036467 19.089428 67 93 79
-81.707779 -17.123125 19.085489 193 187 191
-81.065872 -17.097857 19.145605 158 151 138
-80.896759 -17.091713 19.106779 142 145 128
-80.68808 -17.105711 19.107185 160 165 148
-80.513855 -17.106033 19.095682 137 145 124
-80.294228 -17.10483 19.09704 122 135 110
-80.135017 -17.06242 19.087864 105 120 97
-79.856033 -17.056507 19.096649 78 100 67
-79.688568 -17.094828 19.104279 94 111 81
-79.508522 -17.114719 19.113974 102 119 98
-79.292091 -17.093889 19.101601 117 122 110
-79.102859 -17.115532 19.074671 107 121 108
-78.951599 -17.070496 19.090458 54 73 58
-86.933823 -16.975834 19.123051 37 60 42
-86.292007 -16.909521 19.11953 99 124 112
-86.093979 -16.981821 19.080379 49 80 69
-85.912247 -16.880964 19.096298 74 100 89
-85.712326 -16.886189 19.071499 80 104 104
-85.47258 -16.89834 19.103306 72 101 89
-85.283119 -16.861731 19.112427 51 79 68
-84.962395 -16.913225 19.18413 45 80 57
-81.813057 -16.835869 19.02368 217 202 209
-81.73735 -16.888073 19.046164 199 195 202
-81.21537 -16.901646 19.018652 55 91 47
-81.060661 -16.880003 19.115967 158 156 143
-80.896759 -16.898651 19.112318 160 165 145
-80.687431 -16.898615 19.109596 167 170 156
-80.475967 -16.895449 19.108517 141 150 132
-80.305481 -16.897018 19.08824 102 115 98
-80.120987 -16.895315 19.127476 133 136 126
-79.90081 -16.903389 19.098301 105 120 94
-79.664078 -16.897524 19.096964 97 112 91
-79.495598 -16.892178 19.084099 109 118 104
-79.300606 -16.877954 19.102034 98 112 94
-79.125633 -16.899469 19.120335 111 117 108
-87.043579 -16.671099 19.008129 51 73 61
-86.843307 -16.676235 19.066765 44 75 74
-86.715706 -16.753635 19.194424 37 71 46
-86.220726 -16.766088 19.117569 17 46 42
-86.078407 -16.643028 19.10887 34 64 46
-85.698288 -16.728979 19.046345 81 103 97
-85.510635 -16.692106 19.111799 93 111 122
-85.293251 -16.68379 19.057762 92 117 114
-85.083572 -16.682049 19.091877 60 84 72
-84.944641 -16.743683 19.112122 57 83 75
-84.792809 -16.658836 19.005911 117 132 128
-81.757019 -16.753941 19.04952 191 182 189
-81.084686 -16.685444 19.097206 181 173 166
-80.896675 -16.716915 19.102573 170 166 158
-80.707954 -16.697456 19.099415 131 137 120
-80.483559 -16.673233 19.128048 130 134 120
-80.302658 -16.681749 19.082731 121 134 109
-80.09317 -16.691883 19.109146 134 141 117
-79.924423 -16.718185 19.093845 121 126 109
-79.697083 -16.738874 19.104235 113 120 108
-79.512398 -16.733879 19.073872 111 117 109
-79.334335 -16.72777 19.113014 148 135 132
-86.721428 -16.568771 19.053442 51 78 73
-86.265045 -16.40799 19.191458 60 81 74
-86.101929 -16.434111 19.138445 36 63 55
-85.900467 -16.509373 19.086901 38 76 58
-85.687317 -16.418816 19.119331 34 67 71
-85.524757 -16.521187 19.120554 75 91 92
-85.314331 -16.535311 19.085627 81 103 97
-85.094589 -16.548475 19.125008 75 102 97
-84.945709 -16.476246 19.105629 90 111 101
-81.889771 -16.419361 19.115749 140 126 133
-81.279266 -16.438004 19.026815 210 202 206
-81.082298 -16.528406 19.092291 185 175 175
-80.887756 -16.502846 19.120232 177 168 160
-80.694054 -16.497463 19.095903 147 149 131
-80.498619 -16.509062 19.088093 138 145 124
-80.335182 -16.517307 19.120811 90 103 85
-80.109428 -16.510651 19.107153 90 103 82
-79.953178 -16.578297 19.193039 113 116 105
-79.76149 -16.537678 19.03878 149 135 135
-79.380821 -16.55994 19.148293 201 162 170
-86.30349 -16.309042 19.073315 78 93 112
-86.109291 -16.299988 19.108097 81 107 100
-85.906525 -16.283112 19.110298 72 109 104
-85.68808 -16.277628 19.099085 33 69 45
-85.480637 -16.273417 19.103081 52 81 65
-85.275467 -16.294832 19.122829 118 127 130
-85.19371 -16.301884 19.154289 74 91 90
-84.904625 -16.295193 19.092781 109 124 123
-84.704727 -16.23987 19.010303 91 110 109
-84.542679 -16.276083 19.031639 55 86 83
-82.332123 -16.395056 19.03677 77 84 98
-81.908829 -16.363653 19.044704 131 129 132
-81.35614 -16.266502 19.039049 193 181 187
-81.063545 -16.309834 19.063513 158 151 155
-80.914268 -16.318924 19.113285 130 128 121
-80.692863 -16.332119 19.081181 138 139 132
-80.493355 -16.286751 19.100088 114 109 104
-80.373596 -16.301832 19.05481 92 98 85
-86.86705 -16.139919 19.192732 73 97 94
-86.057953 -16.083139 19.087017 63 93 75
-85.917732 -16.073011 19.079412 76 102 90
-85.682594 -16.102343 19.075157 57 79 80
-85.536636 -16.133129 19.131561 16 59 35
-85.235626 -16.101349 19.143696 84 100 104
-85.148422 -16.065792 19.070395 74 95 88
-84.875191 -16.078304 19.055523 112 128 123
-84.67852 -16.070229 19.017435 109 126 119
-84.27153 -16.109009 19.021879 13 48 17
-82.35051 -16.097458 19.061733 130 129 136
-81.091087 -16.005571 19.014618 74 96 66
-80.972107 -16.124947 19.052776 61 72 64
-80.654839 -16.122345 19.06263 74 74 71
-80.564156 -16.143494 19.042658 124 102 104
-80.340408 -16.123165 19.105642 92 101 76
-86.317993 -15.855377 19.176815 75 99 75
-86.124756 -15.908868 19.069437 39 70 50
-85.878204 -15.861832 19.075899 25 63 50
-85.688583 -15.952819 19.054729 51 83 88
-85.468941 -15.923049 19.102489 47 74 57
-85.299767 -15.904245 19.103655 80 103 94
-85.164818 -15.940081 19.123524 51 83 66
-84.897568 -15.937519 19.130846 63 86 72
-84.692772 -15.900401 19.128794 74 101 93
-84.590996 -15.892492 19.169174 99 126 125
-82.463684 -15.916962 19.103617 163 152 170
-82.321259 -15.918868 19.061012 74 87 90
-81.89447 -15.90328 19.159906 49 59 61
-81.229134 -15.903334 19.049999 159 163 141
-81.094208 -15.91558 19.025585 64 86 52
-80.807762 -15.928176 19.057465 98 82 85
-86.434845 -15.645926 19.054346 46 81 66
-86.259605 -15.692581 19.057013 29 74 54
-86.091103 -15.656585 19.068607 74 106 101
-85.850037 -15.721499 19.068018 51 82 64
-85.72348 -15.673151 19.134172 56 84 67
-85.529869 -15.718221 19.073858 41 68 49
-85.313057 -15.741755 19.091822 48 78 69
-85.070038 -15.63843 19.155113 72 102 83
-84.669922 -15.763429 19.086645 49 72 44
-82.659088 -15.702499 19.122566 165 156 167
-82.550179 -15.653596 19.005287 112 112 121
-82.274002 -15.689325 19.075859 126 132 130
-82.089867 -15.629645 19.019655 147 147 146
-81.8899 -15.662184 19.075506 135 135 136
-81.75206 -15.652688 19.128126 107 110 106
-86.603645 -15.586662 19.088957 45 79 74
-86.492035 -15.559963 19.067581 74 114 100
-86.288536 -15.548947 19.088455 20 62 38
-86.092346 -15.415374 19.032932 86 114 100
-85.871445 -15.550846 19.090269 52 84 67
-85.673019 -15.503797 19.068506 42 72 55
-85.475151 -15.511691 19.156513 59 93 70
-85.331688 -15.562275 19.073547 39 68 55
-85.085449 -15.561287 19.065886 59 93 77
-84.944305 -15.494983 19.077885 59 85 73
-84.69146 -15.472608 19.050674 29 66 44
-82.704132 -15.548092 19.140224 183 175 186
-82.291161 -15.4612 19.149895 201 191 202
-82.055862 -15.526761 19.056107 193 192 193
-81.888245 -15.506479 19.098413 146 149 143
-81.691879 -15.519485 19.115084 135 143 126
-81.50695 -15.498388 19.106693 104 126 97
-81.333847 -15.562181 19.029896 104 127 96
-86.122246 -15.369113 19.165787 59 92 81
-85.93811 -15.367969 19.053265 49 72 70
-85.730408 -15.317094 19.094849 19 55 44
-85.483742 -15.285395 19.085407 136 163 148
-85.371147 -15.283249 19.146566 56 99 76
-84.959702 -15.374795 19.002331 18 60 23
-84.699402 -15.280428 19.055162 83 108 91
-82.874672 -15.29258 19.085913 148 147 157
-82.764984 -15.350546 19.01156 188 176 196
-82.313431 -15.316631 19.085773 185 175 191
-82.099686 -15.321251 19.12615 211 208 214
-81.909477 -15.308411 19.081755 151 153 151
-81.706512 -15.343161 19.079063 140 153 137
-81.482857 -15.258767 19.038557 196 193 178
-81.295418 -15.271792 19.033247 187 192 170
-85.844582 -15.143699 19.105267 11 36 33
-85.482643 -15.119736 19.064781 80 109 92
-85.305397 -15.154135 19.124523 23 61 50
-85.028839 -15.141191 19.046011 0 42 4
-84.823174 -15.134908 19.091341 29 60 38
-84.656219 -15.088807 19.083797 60 89 66
-84.566971 -15.039099 19.179457 68 93 71
-82.240524 -15.14518 19.112904 169 154 166
-82.067932 -15.125253 19.099146 192 189 192
-81.881393 -15.078802 19.067156 141 144 152
-81.67305 -15.104539 19.101265 162 160 162
-81.507233 -15.085951 19.082418 138 144 142
-81.28228 -15.062533 19.062212 161 170 153
-81.127151 -15.045296 19.11235 110 130 107
-85.543114 -14.932085 19.068195 97 126 104
-85.050064 -14.831095 19.122553 23 57 40
-84.88681 -14.919694 19.10512 13 49 11
-84.483414 -14.952381 19.089516 62 94 72
-82.440384 -14.829662 19.02042 209 206 218
-82.306053 -14.935723 19.048525 169 165 174
-82.102249 -14.874196 19.061081 190 189 200
-81.90406 -14.866243 19.092138 185 184 188
-81.704704 -14.920806 19.108 167 170 172
-81.515137 -14.910997 19.084497 155 165 151
-81.318993 -14.903789 19.090385 130 146 128
-81.127975 -14.893988 19.096313 110 138 117
-85.190643 -14.650309 19.094151 73 94 83
-83.251671 -14.652764 19.100719 103 103 113
-83.014603 -14.727948 19.042734 81 89 95
-82.938362 -14.787372 19.123055 99 109 108
-82.466034 -14.669701 19.094734 210 205 215
-82.274803 -14.714746 19.082365 182 175 188
-82.066597 -14.67896 19.128466 172 175 181
-81.876671 -14.676833 19.099739 176 182 179
-81.720222 -14.671768 19.099295 158 168 155
-81.541908 -14.709191 19.081442 141 157 144
-81.343697 -14.713455 19.096792 94 118 98
-83.150398 -14.569732 19.051924 71 70 89
-82.964172 -14.581838 19.024965 125 120 141
-82.416061 -14.545235 19.061773 206 201 209
-82.316971 -14.451262 19.053663 232 225 237
-82.1287 -14.528486 19.118551 207 203 209
-81.897354 -14.536258 19.107456 182 186 187
-81.698402 -14.518684 19.092873 133 145 140
-81.519356 -14.50557 19.077591 83 105 89
-81.380676 -14.562612 19.104816 73 106 74
-83.574791 -14.201827 19.034523 87 107 105
-82.491081 -14.344021 19.000237 174 172 183
-82.263321 -14.261116 19.093872 218 216 226
-82.148422 -14.31992 19.09153 235 225 236
-81.887527 -14.297114 19.067816 167 175 179
-81.706917 -14.311184 19.091768 136 147 143
-81.535866 -14.346008 19.123512 97 109 99
-82.412399 -14.178146 19.041489 203 199 208
-82.24807 -14.081103 19.086903 183 178 192
-82.122795 -14.032033 19.177624 126 129 138
-81.857826 -14.083377 19.090137 149 149 162
-81.745094 -14.066686 19.095095 153 152 163
-83.511444 -13.944219 19.065554 167 168 176
-83.318222 -13.862306 19.06669 158 163 161
-83.088715 -13.824162 19.046583 115 129 112
-82.978027 -13.999083 19.124592 58 108 81
-82.265114 -13.914064 19.086985 170 163 178
-82.192192 -13.958413 19.086552 180 181 176
-81.864304 -13.930803 19.063538 151 151 153
-81.733437 -13.911875 19.037992 157 156 167
-83.247154 -13.682625 19.094822 109 117 108
-83.115974 -13.722012 19.085747 119 134 118
-82.884232 -13.666072 19.059624 118 132 104
-82.761208 -13.635077 19.107204 27 51 26
-82.102356 -13.777084 19.077606 115 108 114
-81.943581 -13.637293 19.082478 82 96 87
-81.711884 -13.66587 19.109922 138 136 140
-81.557373 -13.684654 19.086628 105 104 116
-83.130249 -13.52282 19.096502 57 84 61
-82.938881 -13.575825 19.043186 99 121 94
-81.63327 -13.522865 19.052425 146 145 149
-81.483391 -13.578347 19.154549 72 91 96
-83.266884 -13.309743 19.197039 51 74 45
-82.510376 -26.998081 19.233521 108 119 103
-82.629341 -26.710217 19.254704 147 150 124
-82.525276 -26.72084 19.312073 157 165 144
-80.710815 -26.606365 19.249699 111 120 98
-80.561096 -26.729662 19.206997 153 164 158
-80.376953 -26.627466 19.219465 129 117 112
-80.185013 -26.604877 19.268387 163 158 167
-82.54113 -26.487904 19.329327 137 152 127
-82.294983 -26.416428 19.369425 170 164 153
-80.884712 -26.474625 19.328817 42 74 43
-80.700806 -26.470049 19.323145 136 137 125
-80.517952 -26.511312 19.318392 157 152 146
-80.298691 -26.487114 19.278908 164 155 155
-80.1492 -26.47094 19.313807 180 170 177
-82.624382 -26.306372 19.291721 123 139 114
-82.503952 -26.266611 19.302378 154 160 129
-82.359047 -26.342556 19.310907 145 151 128
-80.867584 -26.344582 19.283484 126 125 108
-80.681984 -26.361641 19.337675 141 135 131
-80.534065 -26.397449 19.37475 161 153 144
-79.192818 -26.208023 19.233854 123 129 115
-82.815247 -26.005831 19.354843 108 116 85
-82.666565 -26.118526 19.253674 167 178 147
-82.548325 -26.175299 19.235279 192 192 177
-80.699165 -26.099476 19.34107 164 151 142
-80.505295 -26.02261 19.218578 165 170 152
-80.355591 -26.019291 19.236721 158 163 153
-80.118362 -26.065298 19.249729 163 163 163
-79.871269 -26.137125 19.288799 187 194 160
-79.704971 -26.042774 19.290495 80 90 76
-79.085075 -26.073332 19.361599 117 135 128
-82.610588 -25.995867 19.204063 98 100 78
-80.904099 -25.840832 19.235014 211 218 217
-80.50222 -25.915358 19.235409 117 122 107
-80.311172 -25.889536 19.268715 150 150 144
-80.132202 -25.912703 19.306528 128 129 125
-79.832298 -25.904707 19.331278 116 122 109
-79.66497 -25.90206 19.283163 115 119 114
-79.509087 -25.903563 19.306807 160 162 160
-79.340118 -25.882366 19.303764 138 145 134
-79.137589 -25.895134 19.236147 59 68 67
-78.863876 -25.82156 19.39801 142 149 148
-80.826935 -25.626917 19.260517 99 111 82
-80.495552 -25.698195 19.270281 135 130 120
-80.301949 -25.709967 19.263111 131 133 126
-80.089745 -25.793955 19.250515 123 141 117
-79.88945 -25.666626 19.312239 134 143 125
-79.698143 -25.667494 19.280508 152 155 149
-79.528374 -25.709049 19.308359 150 152 149
-79.306862 -25.71619 19.293221 160 161 163
-79.088875 -25.671946 19.311401 122 127 127
-78.889244 -25.690456 19.230064 156 159 152
-78.728844 -25.756178 19.296049 129 139 138
-77.875702 -25.740654 19.213146 92 97 91
-80.877197 -25.487896 19.279821 106 110 95
-80.695076 -25.584368 19.302469 49 70 53
-80.488045 -25.581047 19.228716 174 170 159
-80.323639 -25.480446 19.315205 103 111 104
-80.123047 -25.446228 19.239388 131 132 123
-79.927704 -25.498285 19.284674 109 122 113
-79.711174 -25.50144 19.269371 147 149 145
-79.468277 -25.543936 19.307171 147 146 147
-79.318176 -25.502317 19.290277 144 147 141
-79.146996 -25.525682 19.308325 154 153 148
-78.934395 -25.480921 19.285851 111 113 108
-78.708199 -25.503811 19.286385 131 135 126
-78.546486 -25.45475 19.312849 118 122 116
-78.351562 -25.49432 19.252291 76 91 78
-78.096893 -25.46933 19.251194 73 86 76
-77.9403 -25.458097 19.241119 134 142 134
-81.080193 -25.232363 19.242599 180 179 173
-80.969475 -25.380707 19.210062 206 203 208
-80.541283 -25.252338 19.254387 77 90 67
-80.067474 -25.345675 19.322107 102 106 87
-79.884529 -25.283352 19.305185 125 129 119
-79.686546 -25.27467 19.29096 145 146 141
-79.498993 -25.317497 19.289001 134 135 135
-79.270851 -25.302238 19.294222 124 129 121
-79.052032 -25.287514 19.237787 112 124 113
-78.884705 -25.282707 19.295275 106 117 103
-78.72847 -25.303413 19.271656 103 117 103
-78.528717 -25.29925 19.317171 109 115 110
-78.309898 -25.314709 19.315149 121 130 127
-78.105255 -25.288919 19.229218 187 189 189
-77.880272 -25.341434 19.316341 125 134 126
-77.753593 -25.271555 19.36474 81 91 84
-81.093864 -25.135992 19.269482 170 167 166
-80.959457 -25.11808 19.256161 178 170 171
-80.629501 -25.01675 19.306368 147 150 138
-80.51886 -25.072044 19.31155 127 131 113
-80.300941 -25.06599 19.274628 165 175 166
-80.052551 -25.095295 19.261377 157 159 160
-79.898392 -25.079958 19.302505 127 135 131
-79.706375 -25.103664 19.282469 151 153 149
-79.573639 -25.028576 19.296371 139 139 147
-79.261871 -25.060627 19.279932 117 124 118
-79.113159 -25.139578 19.287722 154 155 153
-78.887329 -25.075714 19.292355 123 129 122
-78.700943 -25.091923 19.306313 125 131 126
-78.506805 -25.097416 19.293686 158 157 153
-78.301971 -25.072781 19.28022 128 129 128
-78.088585 -25.064228 19.303865 114 121 116
-77.896286 -25.080166 19.289104 127 135 131
-77.716873 -25.069189 19.306776 130 134 125
-77.488968 -25.107628 19.261253 127 135 130
-77.368988 -25.100193 19.211262 81 98 80
-81.097801 -24.894381 19.322695 153 152 145
-80.854355 -24.885376 19.311335 91 104 87
-80.703125 -24.919231 19.267067 94 109 93
-80.540901 -24.861107 19.271517 122 131 113
-80.263992 -24.889866 19.278593 156 154 149
-80.105461 -24.89539 19.318466 156 151 149
-79.917969 -24.908173 19.32292 150 152 143
-79.685837 -24.896358 19.288963 150 150 150
-79.491234 -24.907938 19.264874 136 140 139
-79.28437 -24.915268 19.291212 110 116 111
-79.074249 -24.898441 19.265453 136 137 134
-78.908638 -24.890882 19.304556 131 134 130
-78.712898 -24.880732 19.288166 140 141 141
-78.511261 -24.911999 19.280527 138 140 135
-78.288383 -24.921587 19.30377 154 156 155
-78.097153 -24.897423 19.313835 133 137 136
-77.907829 -24.895248 19.293205 132 137 132
-77.711487 -24.915579 19.293674 124 130 122
-77.481934 -24.86558 19.317514 148 151 146
-77.313393 -24.892012 19.285789 124 130 121
-77.160446 -24.957409 19.257996 221 219 222
-80.899544 -24.779097 19.301096 106 114 102
-80.702873 -24.6964 19.300428 118 123 115
-80.283531 -24.720404 19.284624 143 148 142
-80.10807 -24.69581 19.297054 131 134 132
-79.885262 -24.671799 19.281208 133 138 131
-79.708992 -24.688114 19.293268 161 156 159
-79.492935 -24.708174 19.282518 184 182 184
-79.296585 -24.706131 19.294174 122 129 122
-79.094574 -24.701092 19.2897 101 110 102
-78.888832 -24.717628 19.289833 136 137 130
-78.690727 -24.685656 19.30368 137 140 136
-78.500862 -24.677198 19.293356 140 141 140
-78.308266 -24.679361 19.267677 133 138 132
-78.103317 -24.689945 19.287306 131 137 132
-77.894501 -24.6989 19.29566 136 141 137
-77.715874 -24.686867 19.301289 140 144 143
-77.497551 -24.704842 19.302895 133 135 134
-77.329651 -24.728571 19.291245 139 141 138
-77.166161 -24.709599 19.377121 143 145 146
-81.063919 -24.469339 19.315191 116 125 122
-80.822052 -24.511705 19.302143 105 113 104
-80.704384 -24.528492 19.29665 94 108 94
-80.50251 -24.458303 19.30793 129 134 123
-80.311882 -24.492167 19.294661 111 114 107
-80.106758 -24.493799 19.307657 136 135 133
-79.896774 -24.500723 19.287411 116 124 120
-79.699783 -24.491142 19.289522 135 134 134
-79.505562 -24.486256 19.279526 161 151 166
-79.310364 -24.523323 19.319023 106 110 114
-79.092583 -24.525917 19.346771 132 138 148
-78.864204 -24.547689 19.270147 125 134 128
-78.701508 -24.509447 19.289427 131 135 129
-78.509659 -24.529772 19.296209 135 135 133
-78.307396 -24.521946 19.297724 112 122 110
-78.078606 -24.518002 19.286158 137 143 141
-77.906792 -24.493216 19.292542 144 146 145
-77.713577 -24.518999 19.29405 114 123 120
-77.51976 -24.500811 19.284153 132 138 138
-77.325119 -24.497448 19.311588 150 150 153
-77.103226 -24.463505 19.304737 150 149 152
-80.856361 -24.354855 19.305475 98 115 98
-80.667809 -24.270821 19.286009 93 104 89
-80.498878 -24.310638 19.328199 131 128 119
-80.272713 -24.282793 19.304625 136 142 141
-80.099876 -24.292156 19.3002 131 134 133
-79.891983 -24.303703 19.277737 116 123 119
-79.694412 -24.312878 19.282524 109 115 111
-79.502342 -24.317795 19.29393 166 159 165
-79.333397 -24.268082 19.388117 186 175 179
-79.076538 -24.29808 19.31349 165 162 167
-78.878372 -24.318275 19.294701 122 130 120
-78.678856 -24.282503 19.245516 130 137 125
-78.529144 -24.264002 19.218355 148 146 144
-78.282249 -24.264771 19.268339 154 154 158
-78.082413 -24.311815 19.271816 139 139 141
-77.931488 -24.315279 19.268164 135 138 135
-77.682457 -24.317595 19.303192 137 138 141
-77.498985 -24.289932 19.275711 124 130 127
-77.285652 -24.326529 19.292097 193 191 195
-77.182419 -24.319273 19.231262 255 243 250
-76.610054 -24.237719 19.241842 184 209 180
-80.438103 -24.097198 19.338249 173 171 178
-80.287621 -24.129919 19.296507 124 128 120
-80.080498 -24.11816 19.291504 132 133 129
-79.906868 -24.101698 19.304752 148 147 146
-79.699966 -24.108089 19.287849 112 118 117
-79.490639 -24.135984 19.246412 143 142 148
-79.295326 -24.077988 19.277279 137 138 144
-79.129433 -24.093534 19.243843 136 138 146
-78.855721 -24.151571 19.278784 137 131 134
-78.674698 -24.192511 19.232346 172 168 156
-78.425865 -24.099718 19.254068 86 104 92
-78.312157 -24.108702 19.2992 142 145 141
-78.123093 -24.116055 19.25848 137 142 138
-77.927696 -24.092764 19.30986 128 135 123
-77.696968 -24.135759 19.306087 185 179 186
-77.523064 -24.097395 19.289543 155 157 156
-77.291542 -24.094753 19.261312 108 115 114
-75.552277 -24.013847 19.214306 134 137 137
-75.347725 -24.125469 19.36791 101 96 93
-80.202797 -23.869286 19.338373 123 121 108
-80.06794 -23.917274 19.331432 158 153 150
-79.91526 -23.92137 19.307514 157 155 153
-79.678139 -23.881437 19.284321 177 171 175
-79.495018 -23.914616 19.305586 157 150 160
-79.305321 -23.905977 19.279291 133 130 137
-79.091705 -23.86659 19.259056 98 104 106
-78.95356 -23.900188 19.263422 117 123 127
-78.413841 -23.856884 19.301552 145 144 142
-78.294998 -23.870651 19.330059 100 112 109
-77.911308 -23.848724 19.220404 107 122 97
-77.473221 -23.912628 19.245911 90 102 84
-77.313782 -23.930294 19.331484 127 138 124
-76.651604 -23.846096 19.261322 168 178 162
-76.527107 -23.846889 19.281029 88 112 92
-75.802841 -23.84136 19.293486 191 203 199
-75.633354 -23.853117 19.223778 131 134 117
-75.516693 -23.956638 19.391151 150 130 134
-79.667999 -23.737623 19.271896 141 139 146
-79.518578 -23.741501 19.311148 155 149 155
-79.342339 -23.744743 19.271809 153 148 151
-79.122643 -23.656738 19.288326 134 124 131
-78.957649 -23.712029 19.229527 171 170 183
-78.766678 -23.627945 19.24939 184 168 178
-78.436493 -23.697964 19.206165 104 101 99
-78.283096 -23.781494 19.210169 115 119 119
-78.062965 -23.676407 19.282064 123 130 117
-77.974083 -23.72303 19.230709 115 118 101
-77.289711 -23.723146 19.238876 153 158 148
-77.028419 -23.609241 19.383362 83 96 79
-76.710678 -23.657642 19.277325 127 133 119
-76.503601 -23.656345 19.30759 115 128 115
-76.394104 -23.694384 19.260578 97 108 104
-76.079155 -23.676527 19.312344 98 108 92
-75.877068 -23.63793 19.283113 115 124 111
-75.493752 -23.653919 19.280521 145 142 133
-79.660332 -23.577497 19.281792 249 245 246
-79.522934 -23.516157 19.213009 112 120 109
-79.274834 -23.583063 19.220009 219 199 210
-79.01577 -23.560547 19.309052 196 190 193
-78.888809 -23.521082 19.355509 240 237 244
-78.241295 -23.469574 19.297497 146 155 136
-78.104546 -23.474131 19.304344 128 136 121
-77.919182 -23.591946 19.320543 90 111 90
-77.673569 -23.454485 19.250385 127 134 120
-77.516479 -23.467421 19.311478 151 155 142
-77.31691 -23.477108 19.280983 131 141 126
-77.127129 -23.48345 19.28091 72 90 69
-76.812233 -23.477568 19.281723 146 146 141
-76.66478 -23.532553 19.254208 114 123 114
-76.541626 -23.483072 19.290262 186 192 186
-76.076286 -23.525518 19.284378 141 150 133
-75.927795 -23.532944 19.290276 112 123 113
-75.696449 -23.551056 19.258604 205 200 195
-75.545593 -23.570328 19.273783 171 168 169
-79.039345 -23.395878 19.204935 85 97 93
-78.462326 -23.24367 19.30368 21 48 15
-78.298195 -23.284603 19.291882 92 106 86
-78.094353 -23.298573 19.274015 134 142 125
-77.863983 -23.273567 19.26503 88 105 88
-77.704735 -23.306299 19.281029 113 120 103
-77.528244 -23.291632 19.301331 156 161 147
-77.313644 -23.300577 19.284393 134 141 126
-77.093895 -23.252272 19.273943 132 141 126
-76.924377 -23.251549 19.292061 127 139 121
-76.67205 -23.30393 19.281939 152 167 158
-76.467583 -23.221058 19.22094 114 120 112
-76.173714 -23.256676 19.334375 120 126 114
-75.668602 -23.302204 19.310638 252 251 252
-75.535881 -23.307684 19.272821 187 182 187
-75.327408 -23.256645 19.285522 188 182 189
-78.646744 -23.145006 19.207817 61 71 60
-78.461143 -23.104305 19.260542 82 101 82
-78.320686 -23.099203 19.284302 133 140 127
-78.075089 -23.089088 19.288267 109 122 108
-77.910255 -23.091976 19.273865 107 119 105
-77.687088 -23.106316 19.310843 152 156 140
-77.528427 -23.104 19.274378 155 158 144
-77.308365 -23.085129 19.297873 140 146 135
-77.105125 -23.104795 19.284317 132 144 129
-76.930008 -23.077795 19.300314 141 150 140
-76.680557 -23.037701 19.305986 130 140 130
-76.515388 -23.09705 19.289528 134 140 129
-76.333771 -23.109827 19.299368 131 135 125
-76.117409 -23.145256 19.247194 114 119 114
-78.60984 -22.887691 19.267733 69 91 56
-78.486336 -22.910624 19.306978 116 128 108
-78.321304 -22.908457 19.312901 107 119 100
-78.071793 -22.895515 19.28969 123 134 119
-77.893143 -22.90016 19.297276 158 163 149
-77.691673 -22.904068 19.306652 132 136 127
-77.484512 -22.874268 19.307808 138 145 135
-77.305138 -22.895084 19.30225 139 146 129
-77.122864 -22.9025 19.30257 152 161 150
-76.911217 -22.867041 19.263493 131 143 138
-76.672195 -22.861406 19.289274 141 143 132
-76.533882 -22.927364 19.279055 173 176 165
-76.296669 -22.977297 19.289465 195 194 181
-76.155441 -22.808527 19.26955 72 79 72
-75.90097 -22.964697 19.270452 104 111 105
-75.688744 -22.81638 19.258898 145 154 140
-75.416412 -22.999983 19.246201 143 146 139
-78.618782 -22.702751 19.385578 10 53 5
-78.470734 -22.688345 19.258886 137 152 125
-78.322433 -22.73975 19.345287 107 126 108
-78.083992 -22.704477 19.285446 131 139 124
-77.902748 -22.692513 19.29521 151 153 144
-77.700851 -22.707041 19.297911 146 152 140
-77.497566 -22.715519 19.290905 148 151 143
-77.318962 -22.699154 19.315121 164 162 154
-77.07383 -22.696562 19.302721 145 154 143
-76.904579 -22.677782 19.297724 149 153 146
-76.690407 -22.681286 19.29928 159 160 149
-76.498756 -22.694225 19.27463 148 151 143
-76.316833 -22.727219 19.240112 129 135 128
-76.087746 -22.712479 19.277241 154 154 146
-75.936478 -22.665949 19.256182 134 138 124
-75.721268 -22.737494 19.286276 162 164 156
-75.509827 -22.687065 19.296139 159 159 153
-78.505363 -22.56373 19.260452 62 76 51
-78.269005 -22.475571 19.263853 101 108 89
-78.079216 -22.513514 19.287546 132 140 129
-77.913231 -22.488874 19.286436 160 163 153
-77.697151 -22.51503 19.294994 138 148 136
-77.500099 -22.508083 19.287107 130 137 128
-77.297272 -22.495335 19.279739 153 158 152
-77.077461 -22.482838 19.295088 157 160 150
-76.906296 -22.499285 19.296993 161 161 153
-76.708244 -22.491283 19.3071 148 150 145
-76.524788 -22.492474 19.301563 156 156 153
-76.292702 -22.482698 19.295385 131 141 126
-76.116043 -22.511147 19.303421 133 137 123
-75.735558 -22.495806 19.328569 108 118 108
-80.76622 -22.20229 19.213882 179 163 166
-80.529449 -22.206871 19.2048 116 124 91
-80.37603 -22.228365 19.345844 58 76 64
-79.500671 -22.375498 19.358105 121 116 96
-78.407784 -22.33218 19.219959 41 65 33
-78.291367 -22.285725 19.286325 90 108 87
-78.096207 -22.292459 19.299774 142 150 136
-77.901711 -22.313837 19.289156 156 160 148
-77.720444 -22.322454 19.309071 131 142 128
-77.489433 -22.30127 19.308451 143 148 141
-77.306236 -22.295561 19.304964 133 141 131
-77.077171 -22.317032 19.2866 152 154 147
-76.881241 -22.301771 19.307659 156 159 156
-76.704353 -22.297009 19.319857 127 131 130
-76.522499 -22.298712 19.284767 112 119 109
-76.305168 -22.307533 19.322065 175 175 171
-76.154449 -22.291832 19.271498 130 135 130
-75.703049 -22.393063 19.375486 159 165 157
-74.817848 -22.234795 19.272388 218 210 208
-74.715668 -22.320299 19.304556 134 137 126
-74.592094 -22.36351 19.28826 125 135 118
-80.663132 -22.043947 19.230337 186 188 167
-80.512604 -22.074738 19.237648 161 154 140
-80.228569 -22.100281 19.297728 106 103 96
-80.140564 -22.037851 19.271633 102 110 90
-79.854797 -22.022684 19.203241 114 121 88
-79.728897 -22.043837 19.276484 55 69 68
-79.446671 -22.099232 19.32906 163 170 137
-78.486992 -22.115566 19.255091 155 155 138
-78.281166 -22.104538 19.286028 135 147 127
-78.093437 -22.107851 19.335333 144 154 133
-77.902275 -22.118099 19.290983 153 164 146
-77.724167 -22.111614 19.266609 141 148 140
-77.535934 -22.088085 19.259668 136 146 137
-77.27301 -22.101467 19.306871 148 152 147
-77.092125 -22.099083 19.29414 129 140 129
-76.894569 -22.103695 19.303995 147 151 148
-76.675629 -22.123243 19.302687 141 144 135
-76.538193 -22.101545 19.311502 152 156 145
-76.315926 -22.153463 19.26642 184 185 178
-76.187248 -22.145761 19.205688 250 250 238
-74.860992 -22.138048 19.2903 236 233 230
-74.732559 -22.136358 19.328131 143 142 135
-80.677254 -21.862335 19.275457 211 209 191
-80.497047 -21.891373 19.272367 201 195 180
-80.291008 -21.886534 19.275431 182 173 158
-80.128807 -21.878315 19.280432 137 139 118
-79.898476 -21.875057 19.276503 146 152 136
-79.719742 -21.927807 19.264214 159 160 160
-79.485481 -21.825338 19.394611 72 98 59
-79.361351 -21.894953 19.265778 99 112 82
-79.081169 -21.841038 19.201365 56 85 61
-78.90313 -21.839304 19.336224 143 159 156
-78.405731 -21.937185 19.241478 114 132 109
-78.288216 -21.948801 19.326183 111 134 107
-78.114868 -21.944487 19.27873 124 137 112
-77.895607 -21.910883 19.281181 161 171 155
-77.746017 -21.958849 19.277395 142 150 140
-77.496941 -21.973345 19.314318 132 141 126
-77.246407 -21.892809 19.257969 138 147 133
-77.076805 -21.920803 19.291002 169 168 159
-76.913773 -21.910231 19.299561 161 161 153
-76.69455 -21.898046 19.307722 144 145 138
-76.514328 -21.907087 19.29781 138 142 132
-76.383148 -21.896088 19.334518 87 97 93
-76.120117 -21.877453 19.278351 170 180 175
-75.970627 -21.950413 19.377108 123 134 136
-80.644844 -21.678827 19.252195 233 233 220
-80.51165 -21.717968 19.307085 175 174 158
-80.271317 -21.725523 19.301788 147 155 134
-80.097824 -21.711449 19.26503 148 150 131
-79.910873 -21.702173 19.259731 147 150 134
-79.681717 -21.709759 19.279915 145 144 138
-79.510292 -21.698307 19.259876 147 149 137
-79.321838 -21.70274 19.266451 126 135 124
-79.101486 -21.686102 19.274931 82 88 79
-78.912407 -21.66762 19.304964 81 96 100
-78.67588 -21.601784 19.325697 117 127 128
-78.408836 -21.754091 19.383596 194 202 178
-78.318024 -21.74761 19.26479 61 83 60
-77.873238 -21.796198 19.224714 165 169 155
-77.08535 -21.70669 19.298079 180 179 173
-76.915581 -21.734735 19.29109 162 161 155
-76.694633 -21.70833 19.31171 160 156 157
-76.517143 -21.71809 19.310032 166 167 161
-76.392609 -21.77075 19.365738 126 108 124
