ply
format ascii 1.0
comment PCL generated
element vertex 1116
property float x
property float y
property float z
property uchar red
property uchar green
property uchar blue
element face 0
element camera 0
property float view_px
property float view_py
property float view_pz
property float x_axisx
property float x_axisy
property float x_axisz
property float y_axisx
property float y_axisy
property float y_axisz
property float z_axisx
property float z_axisy
property float z_axisz
property float focal
property float scalex
property float scaley
property float centerx
property float centery
property int viewportx
property int viewporty
property float k1
property float k2
end_header
-76.786865 -17.838026 18.959919 87 109 76
-76.490227 -17.907478 18.931213 53 86 53
-76.331001 -17.856667 18.839384 39 77 41
-75.853516 -17.926399 18.831322 92 111 82
-75.736588 -17.944141 18.928551 125 142 111
-75.535019 -17.892715 18.916372 103 123 92
-75.300667 -17.911314 18.914526 88 114 89
-75.083885 -17.879631 18.898823 66 98 74
-74.966141 -17.913761 18.930016 73 101 77
-70.475899 -17.961018 18.841419 125 138 136
-70.260063 -17.921333 18.890266 126 131 134
-70.09568 -17.907158 18.900217 135 136 140
-69.95163 -17.896946 18.895481 141 140 145
-69.704102 -17.888937 18.899025 94 110 107
-69.503639 -17.928368 18.924412 121 125 132
-69.289627 -17.895285 18.894234 99 108 112
-69.114182 -17.889618 18.892193 86 99 97
-68.891068 -17.93322 18.891956 75 92 90
-68.741623 -17.901752 18.934694 80 94 97
-68.471443 -17.909145 18.897543 95 104 108
-68.385162 -17.970078 18.828022 125 136 139
-77.766876 -17.696688 18.865669 94 106 68
-77.489601 -17.659578 18.910183 109 119 91
-77.305397 -17.661867 18.904631 114 126 102
-77.105942 -17.655804 18.903646 105 124 96
-76.91378 -17.716404 18.899937 103 121 93
-76.71431 -17.730705 18.876167 78 99 70
-76.498779 -17.716379 18.952902 72 102 71
-76.335213 -17.705729 18.924692 58 93 60
-76.061119 -17.666641 18.930792 58 88 57
-75.916306 -17.65834 18.944754 76 103 74
-75.648087 -17.74206 18.909805 106 126 98
-75.448334 -17.718962 18.979906 89 113 88
-75.276619 -17.749767 18.873388 68 92 69
-75.108116 -17.709517 18.909424 90 113 88
-74.982147 -17.798391 18.986858 121 135 113
-70.279236 -17.76395 18.856426 104 119 118
-70.08239 -17.728086 18.887209 122 127 129
-69.916656 -17.725918 18.870834 136 135 140
-69.677628 -17.729862 18.847069 60 81 74
-69.254883 -17.759884 18.868448 90 102 101
-69.139923 -17.769825 18.88673 77 89 84
-68.85424 -17.793142 18.886381 43 70 58
-68.686142 -17.760679 18.913893 88 99 98
-68.502609 -17.769402 18.900959 94 105 107
-77.491997 -17.555376 18.89962 82 101 61
-77.384529 -17.596302 18.911619 94 98 75
-77.091187 -17.583187 18.83786 94 115 90
-76.276978 -17.504946 18.895517 77 105 73
-76.139763 -17.539059 18.928179 65 92 64
-75.963104 -17.572178 18.980537 79 98 73
-75.459305 -17.528831 18.928928 83 112 85
-75.317299 -17.464607 18.968174 94 116 92
-75.127472 -17.428505 18.922369 45 68 52
-70.130066 -17.575073 18.819584 88 103 98
-69.970642 -17.565344 18.85298 43 52 47
-76.818329 -17.300701 18.998823 76 102 75
-76.472878 -17.234741 18.957945 70 95 62
-75.925362 -17.217457 18.894739 54 89 57
-75.753365 -17.209223 18.858517 110 143 114
-75.513695 -17.309082 18.890118 99 116 93
-75.334793 -17.292818 18.857101 78 104 78
-75.162567 -17.331717 18.879065 55 86 64
-76.857147 -17.167765 18.98613 71 99 66
-76.685318 -17.11738 18.918377 105 131 95
-76.54007 -17.152206 18.895245 81 105 70
-76.349785 -17.04014 18.912828 51 86 55
-76.100243 -17.076582 18.918779 76 105 81
-75.968002 -17.163862 18.956743 73 102 74
-75.788734 -17.120893 18.851292 87 108 77
-75.400818 -17.130257 18.802315 81 96 73
-75.342949 -17.144886 18.891047 81 104 78
-77.099869 -16.838636 18.898838 182 203 182
-76.602959 -16.814034 18.879049 67 97 68
-76.483101 -16.888172 18.919544 66 95 63
-76.311066 -16.976536 18.848156 89 115 90
-77.355492 -16.767456 18.848265 74 115 75
-76.53492 -16.752195 18.854588 119 133 115
-74.457062 -26.712685 19.033092 113 108 91
-74.414688 -26.582207 19.110283 129 131 112
-73.932533 -26.410311 19.013157 73 87 74
-74.675522 -26.251705 19.041904 72 78 78
-74.538651 -26.259855 19.117338 83 96 88
-74.277573 -26.332682 19.067476 65 80 54
-74.053589 -26.274225 19.070866 72 89 69
-73.892326 -26.262621 19.121176 62 78 61
-73.755646 -26.280828 19.14238 100 104 89
-74.4646 -26.110584 19.090185 90 100 85
-74.289474 -26.042093 19.133165 100 107 92
-74.105042 -26.071339 19.158136 75 91 74
-73.880493 -26.157822 19.181696 87 103 83
-73.74453 -26.129128 19.142088 124 123 108
-74.842018 -25.870312 19.019989 107 126 104
-74.46312 -25.84906 19.059296 125 131 118
-74.280228 -25.892134 19.097212 103 112 99
-74.090996 -25.888138 19.089457 85 99 87
-73.921478 -25.865238 19.143698 75 91 75
-73.746796 -25.922745 19.169134 74 90 75
-75.111954 -25.721775 19.069548 41 68 40
-74.876854 -25.706921 19.086887 89 107 76
-74.664467 -25.700438 19.168915 68 87 72
-74.512611 -25.718445 19.094486 80 96 84
-74.27993 -25.696016 19.143724 80 92 84
-74.151749 -25.747263 19.175766 93 106 100
-73.959061 -25.72644 19.191904 83 103 88
-75.069633 -25.452805 19.118021 109 115 104
-74.429451 -25.598631 19.040218 106 112 116
-74.308922 -25.579149 19.083914 79 96 93
-75.293953 -25.392036 19.108536 65 89 64
-75.099556 -25.365467 19.138622 84 98 75
-74.977165 -25.376184 19.131058 148 152 138
-74.69648 -25.271894 19.044098 60 83 64
-74.482178 -25.282503 19.033602 105 105 86
-73.722229 -25.278561 19.074272 98 102 90
-73.547394 -25.347397 19.041199 61 77 67
-65.858566 -25.30098 19.086243 187 150 173
-65.653458 -25.269707 19.107216 176 148 168
-65.476616 -25.208162 19.007462 197 175 213
-74.924667 -25.182581 19.071226 60 69 68
-74.66259 -25.082945 19.103489 63 78 65
-74.515327 -25.105291 19.084066 95 101 85
-74.36969 -25.035906 19.086473 91 105 94
-73.538368 -25.140018 19.059122 77 88 72
-72.406326 -25.040541 19.00605 70 76 69
-72.307045 -25.113476 19.048906 251 239 239
-65.900879 -25.167652 19.137587 163 140 155
-65.732376 -25.117453 19.101938 164 137 159
-65.544861 -25.135187 19.060396 152 127 154
-74.438583 -24.951756 19.096897 154 158 148
-74.366394 -24.983765 19.088821 67 86 71
-72.25975 -24.934652 19.150709 88 92 88
-72.147469 -24.844198 19.132729 141 142 133
-71.989944 -24.825903 19.161543 106 108 97
-74.114822 -24.650139 19.051609 174 173 168
-72.870758 -24.72768 19.041172 65 77 65
-72.715691 -24.667027 19.087458 93 101 90
-72.533569 -24.717428 19.059082 121 116 107
-72.302773 -24.71139 19.05644 127 129 126
-72.102821 -24.701473 19.100407 144 149 138
-71.985413 -24.719574 19.165958 135 143 132
-65.506882 -24.660299 19.083797 149 127 141
-75.03373 -24.473814 19.023796 93 107 94
-74.931091 -24.4555 19.040583 122 112 120
-74.644791 -24.448898 19.128578 76 90 77
-74.522858 -24.452827 19.128359 159 165 156
-74.369812 -24.412821 19.080078 178 189 175
-74.08548 -24.517736 19.063766 112 124 113
-73.910118 -24.500368 19.076586 117 127 122
-73.715012 -24.46113 19.088787 126 128 122
-73.496696 -24.474592 19.094204 157 162 157
-73.339783 -24.42514 19.118483 138 140 133
-72.113884 -24.583811 19.169567 150 153 140
-65.852982 -24.53841 19.113548 114 102 116
-65.713943 -24.476456 19.079594 139 123 140
-65.498093 -24.474695 19.044064 157 135 150
-65.372322 -24.48432 19.06671 120 112 124
-65.184509 -24.423325 19.040094 118 113 133
-76.451736 -24.376507 19.001997 88 93 63
-75.13224 -24.355433 19.036453 55 70 51
-74.652672 -24.291412 19.094137 68 83 71
-74.502365 -24.256479 19.090767 99 113 101
-74.289284 -24.291313 19.166538 95 113 105
-74.074875 -24.353964 19.057039 158 168 160
-73.906586 -24.276268 19.112429 143 151 139
-73.667084 -24.255524 19.074968 106 118 105
-73.507149 -24.333595 19.125805 137 141 136
-73.358925 -24.308666 19.114075 156 158 148
-73.106232 -24.26228 19.058811 182 183 170
-72.220802 -24.238207 19.077885 183 193 185
-72.043312 -24.207386 19.170763 79 79 76
-65.736534 -24.33222 19.125542 151 130 145
-65.271767 -24.307463 19.096998 163 130 164
-65.119492 -24.276165 19.091883 167 146 168
-74.670395 -24.110559 19.107407 124 134 126
-74.488861 -24.104103 19.101938 89 107 95
-74.270653 -24.161119 19.109943 125 135 121
-74.09729 -24.087622 19.117182 137 148 135
-73.924973 -24.137814 19.118658 115 124 113
-73.643845 -24.04998 19.054424 111 115 107
-73.497818 -24.080654 19.087412 112 118 113
-73.30809 -24.096878 19.108316 147 150 142
-73.071228 -24.109663 19.12727 140 139 129
-72.903114 -24.053694 19.118738 190 188 177
-72.295158 -24.030176 19.037058 237 228 221
-72.166779 -24.11532 19.089624 82 95 86
-71.912781 -24.070765 19.152462 161 162 155
-65.917503 -24.107071 19.148088 147 121 134
-65.689354 -24.087145 19.046808 196 170 188
-65.491913 -24.046652 19.042315 110 90 110
-65.204689 -24.14813 19.131729 172 157 160
-74.901085 -23.872337 19.086546 76 90 79
-74.708687 -23.892241 19.117603 97 111 98
-74.503883 -23.9491 19.150318 118 126 120
-74.303261 -23.875196 19.072458 107 124 113
-74.110603 -23.862154 19.124746 107 122 111
-73.915329 -23.90661 19.092188 135 139 130
-73.685783 -23.88896 19.066067 129 136 127
-73.523064 -23.914715 19.107117 117 123 117
-73.29454 -23.926855 19.054821 153 146 141
-73.07457 -23.875847 19.095621 123 129 122
-72.905243 -23.898359 19.100618 135 136 124
-72.780518 -23.875628 19.190292 97 108 94
-72.240959 -23.955925 19.023281 136 135 126
-72.112556 -23.886992 19.099697 149 150 139
-71.956711 -23.889683 19.079493 161 163 157
-71.121353 -23.872665 19.104595 193 191 202
-65.654175 -23.991602 19.096483 181 167 180
-65.434097 -23.955841 19.10935 200 167 188
-74.835373 -23.783798 19.076519 78 90 77
-74.695534 -23.768566 19.064419 92 104 93
-74.572845 -23.73242 19.13455 118 125 118
-74.253647 -23.670372 19.083988 108 123 111
-74.10556 -23.67268 19.105844 134 146 133
-73.885887 -23.670317 19.100498 95 109 97
-73.729813 -23.697323 19.111441 116 125 113
-73.523415 -23.70686 19.118004 112 116 107
-73.325859 -23.661728 19.130596 139 144 137
-73.094307 -23.736361 19.091202 120 130 116
-72.897339 -23.696625 19.086107 142 143 132
-72.268562 -23.731457 19.003548 198 189 184
-72.155212 -23.72999 19.11132 136 145 132
-71.278687 -23.698048 19.041464 52 75 58
-71.085922 -23.682178 19.128052 73 93 80
-70.959015 -23.698566 19.176544 95 110 100
-74.466545 -23.521584 19.118399 65 84 64
-74.296013 -23.474073 19.09252 123 136 126
-74.089706 -23.498795 19.151638 118 127 111
-73.90535 -23.487207 19.125774 105 118 106
-73.709618 -23.499201 19.112814 123 128 119
-73.524933 -23.488258 19.154339 114 120 112
-73.299446 -23.473227 19.12669 136 139 127
-73.129662 -23.469761 19.083506 142 153 142
-72.903908 -23.457819 19.066376 118 126 117
-72.774529 -23.500587 19.083366 131 131 126
-72.260689 -23.572462 19.014889 124 140 134
-71.218674 -23.575397 19.055454 50 79 58
-71.097954 -23.53351 19.093788 93 108 95
-70.935379 -23.540255 19.064337 89 106 91
-74.820335 -23.221281 19.1656 186 197 201
-74.616028 -23.241631 19.095013 105 110 103
-74.490791 -23.256866 19.102732 117 122 115
-74.298782 -23.293461 19.100546 104 117 105
-74.090263 -23.287725 19.093115 109 122 111
-73.892006 -23.317327 19.114771 106 118 106
-73.724319 -23.29571 19.130623 123 130 120
-73.497696 -23.272114 19.092146 106 115 101
-73.296036 -23.287788 19.103029 108 118 106
-73.094917 -23.29364 19.094826 106 121 107
-72.870293 -23.342449 19.075918 110 126 116
-72.768425 -23.350613 19.09462 103 122 112
-72.403877 -23.205954 19.095707 70 83 76
-74.88623 -23.001894 19.113359 210 214 200
-74.638725 -23.116375 19.022598 161 169 146
-74.492897 -23.089434 19.0954 113 124 108
-74.325172 -23.09737 19.114159 127 136 124
-74.108589 -23.094164 19.096807 121 131 120
-73.94915 -23.087982 19.084631 136 141 134
-73.663528 -23.142118 19.074123 98 112 104
-73.483109 -23.125521 19.097193 109 121 112
-73.284225 -23.099543 19.122688 106 115 102
-73.103691 -23.06299 19.09375 102 121 107
-72.943771 -23.107784 19.107037 105 120 107
-72.446831 -23.192814 19.143538 66 86 77
-71.108406 -23.162994 19.048035 118 138 126
-77.106689 -22.898874 19.130144 170 169 156
-76.148094 -22.836535 19.036331 51 60 41
-75.065567 -22.922144 19.04702 101 109 85
-74.896965 -22.844477 19.126831 142 151 129
-74.698196 -22.908457 19.102133 126 139 124
-74.523552 -22.960609 19.077497 114 127 111
-74.208954 -22.883369 19.056442 126 139 123
-74.075188 -22.932901 19.088188 116 122 111
-73.952286 -22.932079 19.128504 169 170 162
-73.690254 -22.882368 19.070618 123 137 123
-73.478088 -22.933908 19.17609 85 102 93
-73.284477 -22.882715 19.089964 107 117 102
-73.124504 -22.942242 19.121433 121 133 123
-72.974014 -22.900736 19.124624 170 177 168
-77.213882 -22.690048 19.066757 113 125 112
-77.097328 -22.703749 19.118803 79 93 72
-76.931435 -22.685204 19.120583 116 126 98
-76.736008 -22.664165 19.066559 112 125 103
-76.431847 -22.645714 19.151871 123 119 104
-76.233818 -22.700809 19.091505 153 151 128
-76.100998 -22.679312 19.103745 143 142 133
-75.942223 -22.655764 19.092232 176 170 152
-75.016251 -22.724445 19.103619 47 74 43
-74.982796 -22.768261 19.09375 80 98 69
-74.722862 -22.766926 19.047407 75 62 71
-74.262939 -22.797642 19.000065 51 82 48
-73.513931 -22.711151 19.010469 116 133 111
-73.272736 -22.715397 19.058044 97 115 98
-73.119949 -22.673872 19.065046 109 126 113
-77.241905 -22.473904 19.088118 99 109 92
-77.070938 -22.494219 19.118084 124 130 112
-76.88443 -22.485455 19.126316 97 112 82
-76.735291 -22.439856 19.163696 89 108 80
-76.433952 -22.542046 19.14447 119 117 110
-76.287216 -22.50312 19.09701 135 138 116
-76.105103 -22.496704 19.135191 137 140 119
-75.931374 -22.487394 19.082748 140 143 118
-73.686996 -22.561262 19.064573 45 64 32
-73.22113 -22.510626 19.024612 138 149 135
-77.267815 -22.343363 19.111019 122 136 116
-77.068314 -22.378147 19.131035 97 103 84
-76.881676 -22.285139 19.075203 112 125 102
-76.688423 -22.276474 19.125839 114 124 97
-76.498718 -22.296778 19.113482 94 106 81
-76.281181 -22.315643 19.092302 100 113 86
-76.101738 -22.302277 19.14155 94 109 80
-75.885391 -22.302837 19.122665 120 127 101
-75.779373 -22.26619 19.118311 115 120 94
-75.474716 -22.365433 19.094559 132 141 110
-76.8694 -22.08383 19.100529 120 124 107
-76.708771 -22.143879 19.080912 131 140 115
-76.493851 -22.080477 19.123329 132 137 119
-76.248055 -22.156372 19.025768 134 137 116
-76.083458 -22.116062 19.100935 101 115 91
-75.867508 -22.102934 19.104609 106 118 89
-75.749184 -22.06423 19.114735 129 135 110
-75.480156 -22.12919 19.050406 74 87 55
-75.017693 -22.028719 19.09576 150 161 131
-78.162064 -21.840141 19.061663 153 142 136
-77.29776 -21.875832 19.14422 102 124 114
-77.097023 -21.872812 19.09874 114 126 106
-76.936592 -21.838949 19.073015 121 132 111
-76.510857 -21.935287 19.106598 117 131 110
-76.239372 -21.885 19.096569 111 126 104
-76.089783 -21.931726 19.101799 104 116 92
-75.882294 -21.907692 19.110146 100 115 82
-75.723473 -21.91713 19.093691 134 145 121
-75.488152 -21.891542 19.109289 68 89 58
-75.281471 -21.903307 19.073259 135 143 122
-75.139267 -21.850628 19.102076 102 110 88
-74.957222 -21.902868 19.04141 84 104 80
-68.415024 -21.84543 19.142597 105 103 108
-77.996361 -21.780235 19.141144 204 202 189
-77.040253 -21.723503 19.040619 115 130 112
-76.910034 -21.698282 19.066912 96 115 88
-76.662949 -21.637907 19.052368 51 74 48
-76.450333 -21.653727 19.000286 25 66 22
-76.271301 -21.68228 19.040672 70 96 63
-76.088699 -21.702015 19.102177 88 106 79
-75.870651 -21.695286 19.108252 86 105 74
-75.754074 -21.701479 19.062805 86 106 78
-75.515923 -21.70295 19.05405 110 125 97
-75.283371 -21.703321 19.109423 101 112 87
-75.074692 -21.751511 19.15296 100 108 90
-74.881996 -21.697725 19.125078 95 113 89
-74.747871 -21.64949 19.002604 60 94 69
-68.677872 -21.660702 19.094719 122 111 126
-68.455353 -21.659891 19.150618 130 114 136
-68.299026 -21.701775 19.083096 154 141 160
-76.868774 -21.484625 19.121851 42 76 43
-76.666771 -21.496727 19.074266 117 134 114
-76.071678 -21.548073 19.052553 105 121 98
-75.892616 -21.535465 19.075708 108 121 96
-75.705978 -21.550276 19.060688 93 113 81
-75.510353 -21.512583 19.079943 54 80 49
-75.295448 -21.499374 19.11422 105 117 95
-75.10511 -21.524746 19.126011 78 103 76
-74.881035 -21.517572 19.112873 87 106 82
-74.723602 -21.49844 19.09367 58 84 55
-74.489784 -21.480526 19.135023 96 109 90
-74.344398 -21.454193 19.086081 123 132 115
-74.056679 -21.407425 19.035112 67 96 67
-73.874756 -21.407679 19.087074 37 73 39
-68.831909 -21.438511 19.069111 130 119 139
-68.670898 -21.489586 19.098848 131 116 138
-68.498497 -21.509384 19.079802 136 117 142
-68.274895 -21.501667 19.15781 162 142 165
-68.113663 -21.500834 19.069382 170 152 172
-67.93232 -21.415255 19.051056 127 118 130
-77.637878 -21.23773 19.041702 163 160 147
-76.700386 -21.346512 19.065804 106 113 97
-76.5112 -21.32213 19.092266 92 111 86
-76.29847 -21.24258 19.094919 49 76 42
-76.08223 -21.269142 19.089684 106 121 99
-75.928368 -21.237095 19.09527 94 111 90
-75.667587 -21.269238 19.099871 135 144 121
-75.497772 -21.271076 19.0839 117 126 107
-75.321915 -21.325554 19.104986 89 102 77
-75.077751 -21.320358 19.132347 105 121 92
-74.892654 -21.303829 19.094084 94 111 88
-74.745483 -21.311033 19.050703 70 93 65
-74.50985 -21.296072 19.078798 85 101 78
-74.31218 -21.318405 19.090357 99 113 88
-74.148338 -21.339804 19.072819 92 106 83
-69.252701 -21.218891 19.121069 142 123 152
-69.132973 -21.266857 19.096275 152 136 162
-68.865921 -21.234989 19.12215 123 113 133
-68.672371 -21.280514 19.099575 126 115 133
-68.491371 -21.303783 19.133692 123 116 133
-68.288345 -21.352314 19.125874 145 139 156
-68.115341 -21.345806 19.090595 145 131 150
-67.92646 -21.29504 19.085922 155 141 158
-67.762733 -21.27804 19.041384 169 156 173
-77.874382 -21.09901 19.001549 212 199 190
-77.645752 -21.0443 19.181162 209 198 188
-77.330635 -21.095791 19.145655 97 113 80
-76.603546 -21.188351 19.107521 48 69 44
-76.441895 -21.119972 19.157766 55 84 49
-76.322929 -21.161524 19.119614 70 89 65
-76.108566 -21.159222 19.121975 103 117 94
-75.872963 -21.100994 19.109196 96 115 92
-75.70047 -21.072533 19.096245 79 102 77
-75.528076 -21.101934 19.072971 107 122 103
-75.258858 -21.088699 19.099155 93 107 84
-75.160034 -21.045322 19.143774 75 90 67
-74.884567 -21.119259 19.108616 93 113 87
-74.740921 -21.073507 19.103062 108 126 104
-74.283249 -21.050295 19.058338 68 94 64
-74.184662 -21.075335 19.090368 136 149 121
-73.691528 -21.110022 19.015625 51 81 62
-73.512215 -21.059423 19.086033 71 96 70
-73.376404 -21.048883 19.134731 111 112 89
-69.464638 -21.027941 19.143793 131 123 148
-69.2854 -21.104843 19.089651 153 140 162
-69.085472 -21.075443 19.117243 168 157 178
-68.908516 -21.075348 19.087389 141 135 153
-68.72084 -21.067623 19.10438 141 136 152
-68.406921 -21.175158 19.193052 157 134 150
-68.26442 -21.079292 19.1994 174 152 175
-68.069229 -21.10207 19.097172 145 141 153
-67.886826 -21.139774 19.022968 148 142 156
-67.6996 -21.000038 19.048769 186 170 183
-77.863922 -20.897678 19.124084 152 138 131
-77.520576 -20.947609 19.110821 137 140 118
-76.467796 -20.822605 19.100389 12 55 10
-75.848648 -20.948154 19.064312 56 89 59
-75.704117 -20.935232 19.110516 67 93 70
-75.504021 -20.884575 19.091623 88 106 88
-75.296326 -20.874777 19.127781 75 93 69
-75.104149 -20.888912 19.11651 75 97 73
-74.858917 -20.868504 19.105101 80 100 71
-74.754417 -20.897064 19.113317 84 104 78
-74.39785 -20.995014 19.015884 160 171 141
-73.515892 -20.984076 19.060766 79 104 73
-69.428581 -20.913536 19.128948 142 136 158
-69.301048 -20.879072 19.093729 144 142 158
-69.088905 -20.922892 19.158836 161 156 174
-68.934128 -20.931747 19.115891 136 133 150
-68.69043 -20.924761 19.120792 135 135 149
-68.484467 -20.890188 19.131784 134 129 147
-68.311523 -20.931047 19.075851 114 113 125
-68.160202 -20.857288 19.081251 107 112 122
-67.867325 -20.859838 19.106304 132 132 143
-67.711609 -20.87752 19.069057 158 152 164
-67.526184 -20.836346 19.049496 156 151 162
-67.324799 -20.807425 19.061737 150 143 154
-76.61454 -20.648924 19.125248 82 99 75
-76.50016 -20.722609 19.084066 39 71 41
-76.312721 -20.719156 19.087004 38 70 38
-76.130592 -20.651953 19.131094 59 83 54
-75.801338 -20.719105 19.033018 43 77 50
-75.479645 -20.740599 19.114864 70 98 71
-75.358124 -20.744961 19.170013 51 76 53
-75.039413 -20.708729 19.104595 64 88 69
-74.897484 -20.719898 19.099644 85 104 82
-74.724869 -20.697525 19.091377 69 92 67
-74.527122 -20.628361 19.10758 63 86 62
-73.725655 -20.618229 19.055676 53 72 53
-69.417892 -20.725407 19.180027 87 84 100
-69.314537 -20.677105 19.117033 117 116 133
-69.047859 -20.699389 19.150436 130 127 143
-68.97683 -20.691013 19.147488 156 157 171
-68.700249 -20.678724 19.131182 88 84 102
-68.220512 -20.781078 19.077549 82 86 95
-68.073036 -20.719318 19.07958 105 109 116
-67.904564 -20.667788 19.069952 124 123 137
-67.670174 -20.682041 19.080378 148 142 159
-67.50132 -20.691116 19.087709 158 148 164
-67.308327 -20.685616 19.09478 170 155 171
-67.192879 -20.666933 19.00057 126 125 131
-77.699814 -20.464745 19.102549 86 103 78
-77.089462 -20.577072 19.093729 148 162 127
-76.69603 -20.43593 19.081491 81 96 63
-76.467682 -20.489765 19.100533 106 118 98
-76.341515 -20.494255 19.098757 79 98 76
-76.119507 -20.489304 19.139374 70 92 62
-75.979416 -20.501066 19.16655 155 178 149
-75.656082 -20.567543 19.132179 27 71 25
-75.466293 -20.536045 19.153965 39 77 44
-74.898369 -20.491114 19.11656 96 119 95
-74.762405 -20.485954 19.117167 114 123 103
-74.357544 -20.458509 19.044769 94 113 88
-73.869385 -20.461296 19.08453 56 80 52
-73.683395 -20.45841 19.088276 98 109 91
-73.526833 -20.497805 19.083208 146 144 128
-69.451271 -20.514431 19.143045 116 115 137
-69.318047 -20.516451 19.102362 103 104 119
-69.124168 -20.463987 19.134485 113 109 124
-68.925323 -20.474886 19.114216 112 108 131
-68.69548 -20.438026 19.12211 135 118 139
-68.427277 -20.540493 19.089111 131 133 154
-68.304146 -20.447283 19.112782 120 116 137
-68.054222 -20.494673 19.102076 75 90 91
-67.92955 -20.479898 19.086981 97 106 115
-67.67572 -20.500181 19.081896 132 130 144
-67.504715 -20.519798 19.122772 143 137 151
-67.299133 -20.515057 19.072952 146 138 151
-67.156944 -20.542397 19.039768 108 110 118
-78.525955 -20.21287 19.150543 125 131 115
-77.695869 -20.260778 19.041508 143 143 145
-77.507339 -20.252445 19.016169 77 99 74
-77.30304 -20.218292 19.075001 85 104 69
-76.47908 -20.306448 19.178936 87 106 76
-76.291519 -20.343922 19.077692 116 127 106
-76.163994 -20.302597 19.103107 117 131 109
-75.91983 -20.223392 19.124475 39 67 42
-75.430527 -20.222429 19.020134 42 81 47
-75.265221 -20.266314 19.088148 64 95 68
-75.113037 -20.293993 19.094597 41 70 42
-74.863541 -20.297939 19.080029 89 111 89
-74.742874 -20.337286 19.111517 94 111 89
-74.534973 -20.269047 19.092957 92 112 90
-74.333763 -20.267313 19.098764 131 156 124
-73.847725 -20.256819 19.068956 36 63 33
-73.673172 -20.280245 19.106318 93 108 80
-73.480751 -20.296961 19.100351 140 141 119
-73.341248 -20.249165 19.069254 96 111 86
-69.44928 -20.311611 19.159222 132 125 146
-69.300552 -20.280926 19.111906 120 115 134
-69.107231 -20.294682 19.140198 103 104 113
-68.917801 -20.292639 19.131086 125 120 138
-68.714027 -20.274351 19.140646 127 124 146
-68.520706 -20.314516 19.157251 119 114 135
-68.260544 -20.306631 19.132126 110 106 118
-68.101707 -20.297754 19.121536 47 55 62
-67.880646 -20.345697 19.098005 76 89 95
-67.71431 -20.302744 19.111666 120 121 135
-67.508614 -20.307564 19.091969 136 130 146
-67.323402 -20.294447 19.078062 159 154 165
-67.186905 -20.201569 19.078598 183 176 186
-78.507408 -20.014851 19.175842 85 104 75
-78.319748 -20.102053 19.10154 89 110 84
-78.154137 -20.125942 19.13748 110 129 105
-77.479218 -20.098984 19.016132 129 142 114
-77.293396 -20.147558 19.10206 89 107 77
-77.199402 -20.000858 19.004366 147 157 140
-76.633736 -20.040857 19.090178 82 104 77
-76.56813 -20.19602 19.187902 66 89 58
-76.301865 -20.152262 19.068058 113 128 100
-75.900917 -20.145287 19.15686 79 99 71
-75.759293 -20.050262 19.012638 57 90 60
-75.248886 -20.119829 19.08153 66 94 70
-75.130493 -20.11273 19.089743 62 84 64
-74.92762 -20.112047 19.088652 61 85 57
-74.679321 -20.096357 19.084213 53 78 58
-74.461906 -20.171293 19.110296 92 118 98
-74.275856 -20.09037 19.077124 87 111 85
-74.120728 -20.091654 19.099279 105 123 103
-73.903702 -20.112703 19.139668 66 91 68
-73.678253 -20.101583 19.072996 103 113 90
-73.499367 -20.126192 19.113342 130 139 117
-73.308449 -20.098074 19.087677 115 126 107
-73.194687 -20.116676 19.161839 122 132 117
-69.83268 -20.039429 19.169464 130 127 142
-69.700371 -20.029636 19.11536 129 129 142
-69.486572 -20.082052 19.103275 127 128 145
-69.291634 -20.079044 19.10058 139 132 150
-69.090431 -20.104126 19.117613 117 118 129
-68.935066 -20.114655 19.121347 125 125 141
-68.688461 -20.11458 19.13088 134 126 146
-68.502007 -20.117271 19.120085 93 95 108
-68.242828 -20.107609 19.129311 76 85 88
-68.086517 -20.082232 19.12093 94 98 112
-67.910004 -20.097376 19.094282 82 88 101
-67.708961 -20.098158 19.076488 100 103 115
-67.457993 -20.149876 19.078848 123 123 136
-67.337952 -20.089025 19.102737 132 130 143
-67.140213 -20.052103 19.061146 163 151 166
-78.32235 -19.918909 19.07519 87 104 84
-78.116913 -19.86541 19.117121 117 128 107
-77.948265 -19.916796 19.054651 57 77 57
-77.702393 -19.893154 19.072292 153 158 143
-77.439636 -19.807455 19.026581 103 117 94
-77.281654 -19.931955 19.0518 88 108 81
-77.149544 -19.923002 19.10741 116 130 107
-76.972275 -19.836287 19.112991 127 139 113
-76.008102 -19.849747 19.006985 52 82 58
-75.838654 -19.856619 19.08647 40 79 41
-75.685204 -19.878668 19.085123 39 75 41
-75.488632 -19.858822 19.103333 72 99 72
-75.308922 -19.894058 19.089834 76 100 72
-75.109489 -19.90461 19.092342 64 89 63
-74.896217 -19.890722 19.058485 59 81 58
-74.734108 -19.895023 19.10088 60 82 61
-74.518311 -19.972931 19.136265 64 78 60
-74.237389 -19.956573 19.093386 70 100 75
-74.092888 -19.865828 19.075897 82 102 84
-73.891869 -19.892906 19.06459 61 87 61
-73.669083 -19.934347 19.105953 88 111 89
-73.49707 -19.923687 19.081551 100 116 93
-73.355812 -19.951488 19.098364 116 124 108
-70.046455 -19.836126 19.110073 147 144 162
-69.892807 -19.914087 19.11231 147 143 160
-69.696175 -19.920748 19.129236 139 137 152
-69.517181 -19.895947 19.084818 134 136 148
-69.29924 -19.910223 19.136612 127 129 139
-69.111427 -19.924122 19.125175 120 123 135
-68.955582 -19.930441 19.109554 119 122 134
-68.652184 -19.872019 19.145494 85 95 100
-68.502975 -19.891981 19.087158 92 100 104
-68.281921 -19.897116 19.103769 81 91 98
-68.092697 -19.899227 19.129835 89 98 105
-67.914764 -19.91074 19.104836 105 106 122
-67.722893 -19.849464 19.087614 132 127 146
-67.439377 -19.872564 19.12822 107 114 123
-67.294456 -19.894588 19.098917 127 130 141
-67.082321 -19.927197 19.048376 152 147 158
-66.985214 -19.91349 19.181694 180 178 191
-78.485802 -19.708717 19.121099 99 118 93
-78.335114 -19.686934 19.136316 77 98 68
-78.084183 -19.770039 19.121471 128 128 112
-77.627838 -19.695864 19.06015 77 98 63
-77.455765 -19.715256 19.083544 123 142 115
-77.307899 -19.739561 19.1143 103 120 94
-77.123688 -19.707052 19.131361 101 120 90
-76.917976 -19.665689 19.079124 80 97 69
-76.773186 -19.70517 19.095112 145 164 134
-76.479546 -19.701595 19.171555 146 166 141
-76.033279 -19.654318 19.075275 75 110 81
-75.896042 -19.691401 19.091961 50 82 51
-75.711807 -19.665739 19.079369 43 72 43
-75.512154 -19.726526 19.04644 69 88 64
-75.30323 -19.697033 19.120243 57 85 56
-75.088402 -19.703417 19.058092 68 94 65
-74.880417 -19.704147 19.081898 64 85 61
-74.719086 -19.655672 19.111753 52 80 50
-74.565628 -19.613651 19.12429 16 54 13
-74.312439 -19.639961 19.092241 64 93 66
-74.077637 -19.70178 19.096073 66 93 71
-73.950272 -19.742702 19.080353 75 97 77
-73.718407 -19.70944 19.084145 40 76 42
-73.49852 -19.7309 19.062801 73 90 71
-73.392044 -19.768885 19.149399 99 105 90
-70.114998 -19.689304 19.108456 150 150 166
-69.880875 -19.706024 19.11619 148 145 161
-69.705345 -19.70838 19.132832 140 136 148
-69.516144 -19.727562 19.086689 132 136 141
-69.290413 -19.719921 19.132158 118 126 133
-69.115211 -19.726215 19.108418 106 111 118
-68.993362 -19.777529 19.146309 99 97 117
-68.665253 -19.752712 19.119438 149 148 162
-68.505119 -19.724901 19.120464 108 118 120
-68.328812 -19.716784 19.124645 104 111 118
-68.121223 -19.785469 19.161119 94 102 109
-67.870514 -19.74754 19.083206 92 96 104
-67.719048 -19.69751 19.148973 95 102 111
-67.440361 -19.73728 19.114405 90 101 106
-67.336494 -19.684137 19.111105 101 109 121
-77.602524 -19.413944 19.104427 68 93 61
-77.443962 -19.447674 19.164497 79 102 69
-77.275429 -19.468376 19.164234 97 121 87
-77.152336 -19.54912 19.116787 57 84 54
-75.866325 -19.503862 19.075191 60 90 61
-75.688469 -19.475842 19.102587 61 84 58
-75.482773 -19.470421 19.093275 71 91 67
-75.291794 -19.505014 19.053593 45 73 44
-75.12764 -19.548903 19.104519 52 83 51
-74.899979 -19.482826 19.139868 82 102 77
-74.699188 -19.508095 19.098133 93 113 89
-74.494644 -19.489166 19.072933 92 108 89
-74.292938 -19.506691 19.102644 79 97 73
-74.109383 -19.532919 19.110222 81 100 77
-73.907906 -19.57609 19.000921 47 74 43
-73.580452 -19.582012 19.074814 22 59 21
-70.095909 -19.510145 19.089634 131 134 144
-69.906586 -19.56172 19.143211 135 137 150
-69.718102 -19.521786 19.122345 123 124 137
-69.486496 -19.44054 19.132277 93 99 100
-69.285309 -19.490746 19.154411 88 94 108
-69.107994 -19.517948 19.101149 187 182 207
-68.723419 -19.401085 19.10162 45 65 53
-68.43325 -19.467585 19.098328 71 86 89
-68.327301 -19.481861 19.109055 81 92 97
-68.156158 -19.410465 19.063368 63 76 81
-67.897736 -19.492863 19.065025 72 86 89
-67.714523 -19.485214 19.129505 79 90 94
-67.488792 -19.502436 19.113487 88 96 103
-67.356071 -19.570576 19.142664 79 92 98
-77.505692 -19.333809 19.078358 77 104 70
-77.344666 -19.290346 19.111996 94 118 92
-76.063118 -19.270321 19.088577 37 73 35
-75.883652 -19.271608 19.097475 48 77 48
-75.698822 -19.31002 19.09742 58 84 55
-75.515251 -19.294481 19.131926 59 81 55
-75.327271 -19.28894 19.068172 88 107 87
-75.08194 -19.319525 19.056328 100 121 97
-74.90712 -19.266911 19.073057 90 105 79
-74.704391 -19.295929 19.11388 79 101 70
-74.524582 -19.30653 19.087778 117 126 101
-74.283188 -19.299606 19.09844 111 119 95
-74.093155 -19.298206 19.085245 117 124 97
-73.904427 -19.266695 19.06216 92 110 82
-73.729141 -19.258469 19.076193 109 122 98
-73.592171 -19.392317 19.02227 78 102 70
-70.345154 -19.280767 19.162357 31 60 44
-70.101768 -19.324308 19.13019 99 104 113
-69.925186 -19.242876 19.096149 108 119 133
-69.718208 -19.306618 19.133169 109 113 128
-69.438187 -19.286434 19.197231 74 83 89
-69.370766 -19.382105 19.145645 120 129 137
-69.116867 -19.394793 19.110825 90 96 112
-68.883217 -19.301394 19.144133 98 103 118
-68.780617 -19.241898 19.04748 80 85 89
-68.493179 -19.287004 19.09318 80 95 100
-68.326912 -19.316568 19.103264 90 102 108
-68.084137 -19.264301 19.097143 104 107 116
-67.90123 -19.29999 19.092316 96 103 111
-67.689911 -19.311584 19.094412 85 96 100
-67.537178 -19.307888 19.094191 82 91 92
-77.564232 -19.007854 19.14394 25 63 29
-76.008949 -19.152729 19.102325 37 75 39
-75.85437 -19.091696 19.115475 53 80 52
-75.708153 -19.085112 19.040794 69 94 68
-75.491486 -19.104321 19.106201 50 77 49
-75.284424 -19.074333 19.051741 80 102 81
-75.093193 -19.077604 19.081722 87 107 81
-74.93943 -19.128786 19.122221 91 101 78
-74.503227 -19.089087 19.086283 95 110 88
-74.303764 -19.094881 19.121737 81 105 85
-74.070564 -19.095711 19.111301 87 109 85
-73.903847 -19.086121 19.086512 81 101 79
-73.720604 -19.116968 19.114738 106 115 92
-73.56974 -19.063248 19.057438 75 90 71
-70.343147 -19.145512 19.124361 98 115 114
-70.04158 -19.122282 19.148024 141 146 159
-69.91407 -19.09956 19.10264 88 98 110
-69.707787 -19.116589 19.189899 127 121 136
-69.590988 -19.04797 19.052673 96 92 109
-69.311211 -19.069689 19.090923 146 150 175
-68.949104 -19.083694 19.105646 96 105 103
-68.657761 -19.061224 19.107384 62 80 81
-68.514862 -19.110445 19.091316 73 88 91
-68.240868 -19.06218 19.112434 101 109 118
-68.075142 -19.12149 19.094294 91 99 104
-67.908852 -19.106794 19.096365 109 113 119
-67.728035 -19.086561 19.08345 101 104 113
-67.501839 -19.064699 19.076954 139 134 145
-67.39447 -19.005577 19.023239 162 154 162
-77.63623 -18.88341 19.16213 48 81 53
-77.486107 -18.879309 19.129847 51 87 57
-77.296379 -18.908096 19.104492 85 107 88
-77.090111 -18.902615 19.102283 103 122 101
-76.848633 -18.914536 19.139315 81 106 77
-76.725639 -18.922165 19.150042 83 105 81
-76.508911 -18.919481 19.120018 124 144 118
-75.847908 -18.907515 19.087032 63 83 58
-75.678391 -18.931767 19.101807 63 89 61
-75.504066 -18.900423 19.099169 56 80 51
-75.31633 -18.895031 19.081192 70 93 67
-75.102486 -18.893078 19.097347 73 99 73
-74.867439 -18.853474 19.059076 51 81 52
-74.697502 -18.887211 19.08391 64 90 62
-74.49157 -18.917622 19.106129 74 97 72
-74.286423 -18.938848 19.093399 64 93 68
-74.115921 -18.946276 19.092985 66 91 65
-73.888 -18.958208 19.097923 56 88 58
-73.782433 -18.976229 19.102266 64 81 60
-73.32428 -18.859247 19.023338 62 91 67
-71.010429 -18.825584 19.093746 175 148 165
-70.968079 -18.80596 19.013027 217 189 211
-70.619865 -18.879374 19.054344 137 131 149
-70.452591 -18.850739 19.092369 133 139 146
-70.26091 -18.874451 19.051739 149 148 164
-70.157768 -18.880102 19.080414 132 137 145
-69.866051 -18.896032 19.097277 88 98 107
-69.710472 -18.890244 19.088371 101 111 120
-69.460121 -18.860741 19.10111 99 107 121
-69.298843 -18.874929 19.042696 66 80 93
-68.843834 -18.839081 19.105885 52 76 72
-68.6819 -18.901556 19.092606 64 82 82
-68.502525 -18.900116 19.100546 79 90 94
-68.28537 -18.858198 19.09577 89 97 102
-68.106926 -18.858078 19.094435 82 92 97
-67.877586 -18.92934 19.067007 86 96 101
-67.697311 -18.921867 19.07357 114 116 126
-67.518707 -18.921497 19.087667 137 136 143
-78.622375 -18.664991 19.085213 27 52 23
-77.821732 -18.652466 19.147146 69 98 68
-77.667007 -18.707582 19.077751 52 86 58
-77.510422 -18.689499 19.088684 72 97 72
-77.269356 -18.688053 19.117723 75 97 74
-77.126221 -18.746851 19.109989 105 122 100
-76.711876 -18.71063 19.067799 100 121 98
-76.477715 -18.655453 19.123569 94 112 87
-76.324821 -18.642582 19.090584 69 93 64
-76.072136 -18.694464 19.112322 119 128 94
-75.819855 -18.771774 19.080616 127 118 101
-75.485641 -18.768747 19.130163 64 87 58
-75.270615 -18.702461 19.057486 40 78 43
-75.115425 -18.677643 19.109491 45 81 46
-74.89975 -18.72044 19.118227 94 102 79
-74.669754 -18.748129 19.071285 48 74 45
-74.5541 -18.78541 19.168135 9 47 5
-73.400925 -18.79425 19.002083 62 86 64
-73.37368 -18.794027 19.00486 74 98 76
-71.080986 -18.725613 19.020819 164 158 168
-70.66024 -18.672079 19.085756 148 153 165
-70.504318 -18.681347 19.075697 155 153 165
-70.304863 -18.682842 19.09193 155 148 165
-70.130684 -18.676395 19.064791 155 150 164
-69.855682 -18.707342 19.077414 90 100 107
-69.712845 -18.70034 19.094568 108 117 128
-69.527756 -18.708935 19.120857 90 101 110
-69.341293 -18.779257 19.131697 93 104 110
-69.025497 -18.63825 19.01627 48 74 64
-68.884178 -18.71789 19.104496 61 85 80
-68.742393 -18.766533 19.051567 55 75 75
-68.468109 -18.692829 19.088984 70 84 90
-68.291595 -18.712366 19.099211 81 92 98
-68.08844 -18.705931 19.111221 109 113 119
-67.953499 -18.719465 19.122604 113 114 121
-77.903488 -18.513628 19.086821 62 83 59
-77.618835 -18.545582 19.134794 61 89 66
-77.462891 -18.572588 19.026026 63 89 66
-77.393097 -18.548098 19.095263 75 85 60
-77.104134 -18.480501 19.097715 113 133 99
-76.900169 -18.43425 19.116871 89 114 81
-76.696602 -18.478073 19.111191 133 150 115
-76.507423 -18.565819 19.102507 129 144 116
-76.345406 -18.490889 19.162098 126 145 116
-76.170753 -18.487549 19.076258 55 76 48
-75.476974 -18.493092 19.133579 47 82 53
-75.307404 -18.465002 19.126844 36 72 39
-75.119125 -18.501019 19.104715 43 76 43
-74.947838 -18.530842 19.095709 40 77 38
-73.02198 -18.537226 19.041849 90 110 86
-72.992821 -18.510981 19.043926 98 113 90
-70.675949 -18.496531 19.084465 144 141 153
-70.487213 -18.490133 19.091848 155 154 168
-70.335915 -18.508032 19.074402 158 155 171
-70.135605 -18.534706 19.060186 134 135 144
-69.849556 -18.517792 19.065033 134 137 148
-69.696617 -18.507357 19.106556 118 123 133
-69.529747 -18.484694 19.116922 108 113 125
-69.34507 -18.448967 19.127451 108 108 125
-69.024353 -18.456432 19.071148 58 79 79
-68.940353 -18.483452 19.122427 68 88 84
-68.713776 -18.464699 19.090387 100 110 122
-68.466324 -18.490904 19.079256 76 90 93
-68.318886 -18.505632 19.1103 80 93 96
-68.05825 -18.482635 19.129665 110 115 122
-67.979637 -18.520525 19.103342 111 115 123
-77.044228 -18.384527 19.154045 101 126 88
-76.893562 -18.389519 19.091621 115 133 98
-76.698868 -18.327169 19.085642 68 97 67
-76.490845 -18.306927 19.107244 77 100 71
-76.299301 -18.263165 19.039654 51 77 49
-75.459137 -18.299969 19.064531 38 76 42
-75.317108 -18.306868 19.108932 45 79 48
-75.117188 -18.340937 19.117844 20 65 20
-74.904045 -18.271311 19.062065 26 68 26
-74.799202 -18.200151 19.09339 24 66 29
-70.657272 -18.315327 19.066305 129 134 137
-70.48568 -18.314537 19.094374 121 126 131
-70.328751 -18.289175 19.09877 147 147 157
-70.149216 -18.287874 19.105543 108 116 116
-69.941811 -18.270863 19.159973 131 140 133
-69.690987 -18.329239 19.089663 128 131 141
-69.504311 -18.30076 19.08518 118 119 132
-69.314125 -18.26189 19.129715 133 136 151
-69.054932 -18.278931 19.092596 70 87 89
-68.94043 -18.281523 19.113781 74 90 92
-68.696487 -18.269337 19.104431 84 95 101
-68.469742 -18.318323 19.086645 82 95 98
-68.318108 -18.307789 19.097324 91 100 104
-68.123909 -18.324404 19.076271 79 93 94
-67.990501 -18.367521 19.077312 67 84 88
-76.649155 -18.129017 19.11249 56 88 62
-76.51799 -18.117878 19.081697 60 88 60
-76.348412 -18.084152 19.127151 62 89 59
-76.1782 -18.095823 19.159937 129 148 126
-75.659554 -18.097191 19.069624 66 99 61
-75.476021 -18.080051 19.119894 59 87 58
-75.30442 -18.128578 19.1056 65 94 67
-75.087204 -18.095844 19.101048 73 97 73
-74.913811 -18.079018 19.117014 78 103 81
-74.795425 -18.057398 19.191029 122 141 126
-70.639595 -18.172421 19.032227 115 127 130
-70.471008 -18.143776 19.058956 112 118 118
-70.305031 -18.122185 19.089409 138 143 145
-70.124924 -18.079397 19.050411 156 150 158
-69.910103 -18.086193 19.155325 159 167 169
-69.669167 -18.111422 19.088226 125 128 137
-69.483795 -18.096889 19.090317 137 135 148
-69.294243 -18.083874 19.090631 110 116 125
-69.086288 -18.099983 19.100769 75 91 93
-68.910835 -18.101688 19.074696 73 89 89
-68.679893 -18.088942 19.102114 92 104 107
-68.499466 -18.088251 19.096127 99 108 113
-68.351929 -18.132725 19.063948 96 108 110
-77.366386 -17.841696 19.071121 128 143 114
-76.832184 -17.886194 19.132551 85 109 84
-76.707726 -17.916973 19.101213 87 108 78
-76.540947 -17.923384 19.132887 81 105 74
-76.33316 -17.932625 19.049009 69 101 66
-76.108994 -17.868202 19.07345 40 78 42
-75.931198 -17.823914 19.166426 111 140 113
-75.677101 -17.894703 19.112362 74 101 69
-75.479187 -17.905436 19.095549 116 136 106
-75.317421 -17.895203 19.095158 85 106 78
-75.126236 -17.897913 19.120773 71 98 74
-74.933006 -17.93206 19.104519 83 108 87
-74.785019 -17.991213 19.153246 44 84 57
-70.415123 -17.9981 19.071293 136 134 141
-70.256691 -17.916111 19.110569 168 164 167
-70.115715 -17.916 19.061607 155 152 157
-69.960289 -17.933138 19.062815 123 131 128
-69.643921 -17.905573 19.0916 151 169 171
-69.455429 -17.929028 19.07888 131 130 136
-69.306885 -17.904095 19.082739 112 118 122
-69.122986 -17.905527 19.082933 99 110 110
-68.89521 -17.934803 19.090681 71 89 86
-68.685921 -17.904425 19.099375 117 123 125
-68.514214 -17.929201 19.09968 129 133 137
-68.376396 -17.945438 19.025898 95 113 110
-77.677032 -17.767397 19.057596 156 152 139
-77.293716 -17.706415 19.0658 138 148 125
-77.120872 -17.77128 19.05427 105 119 94
-76.90863 -17.732454 19.034058 99 114 87
-76.674896 -17.692022 19.068613 158 173 152
-76.513458 -17.674799 19.13397 130 136 108
-76.299408 -17.674553 19.125963 72 102 70
-76.112633 -17.695578 19.078835 47 81 48
-75.892471 -17.695951 19.108088 78 102 73
-75.715233 -17.658033 19.111357 101 122 90
-75.494431 -17.670847 19.130056 98 122 90
-75.273125 -17.742691 19.170145 94 116 90
-75.131851 -17.721581 19.115654 88 110 87
-74.945137 -17.717264 19.110962 93 113 89
-74.719749 -17.774122 19.125401 132 155 135
-70.266548 -17.79129 19.040695 252 255 255
-70.10038 -17.745167 19.06356 156 154 153
-69.488892 -17.769821 19.038847 85 95 101
-69.297699 -17.74847 19.055958 127 133 140
-69.138023 -17.735146 19.038467 76 96 94
-68.681808 -17.787481 19.018354 118 125 132
-68.532478 -17.776649 19.059597 134 135 134
-76.5933 -17.407681 19.1556 68 98 66
-76.265968 -17.549831 19.073612 70 97 68
-76.132965 -17.532137 19.12793 85 109 80
-75.920311 -17.538502 19.101257 100 123 92
-75.715309 -17.557114 19.159822 118 138 100
-75.5196 -17.508245 19.177429 99 123 92
-75.350288 -17.482594 19.144846 96 122 96
-75.14006 -17.460442 19.093607 67 78 65
-77.485817 -17.23782 19.043266 77 105 83
-76.865898 -17.229803 19.10321 101 128 94
-76.698166 -17.23929 19.110666 66 97 63
-76.446709 -17.300068 19.131651 74 101 65
-76.281372 -17.302555 19.123285 68 95 65
-76.064774 -17.379257 19.187105 123 141 117
-75.831215 -17.232338 19.117386 77 106 77
-75.703491 -17.225687 19.123051 49 78 51
-75.479607 -17.324959 19.057243 118 136 114
-75.358513 -17.365463 19.096235 111 131 102
-76.855225 -17.117508 19.133169 41 64 28
-76.712532 -17.113024 19.090862 84 108 76
-76.497116 -17.142992 19.123138 81 108 73
-76.297173 -17.095213 19.122852 82 110 78
-76.063835 -17.074215 19.112377 76 105 76
-75.930954 -17.138971 19.136305 96 123 99
-77.090363 -16.887325 19.072018 67 96 66
-76.908554 -16.860603 19.174208 148 171 148
-76.520721 -16.847656 19.134403 98 122 95
-76.335052 -16.947922 19.075966 79 105 74
-76.725533 -16.69198 19.17284 56 89 60
-76.525604 -16.793367 19.016491 107 137 103
-74.271034 -26.500046 19.24136 103 114 95
-74.475601 -26.221811 19.210747 108 115 107
-74.288818 -26.38118 19.299887 89 98 76
-74.134491 -26.251884 19.342474 109 112 97
-73.719231 -26.243759 19.242241 126 134 124
-74.450813 -26.046366 19.25144 80 89 72
-74.273308 -26.141434 19.298595 98 105 93
-74.100815 -26.081249 19.32201 86 98 82
-73.903923 -26.053589 19.276058 75 91 73
-73.669456 -26.091404 19.26391 130 133 118
-74.603165 -25.833441 19.266613 64 80 70
-74.480667 -25.901291 19.374166 67 81 55
-74.254257 -25.916634 19.257786 95 100 83
-74.115616 -25.908636 19.298307 83 94 78
-73.868935 -25.884825 19.298319 74 90 74
-73.688629 -25.928076 19.326151 116 122 106
-74.730865 -25.604113 19.203125 95 115 78
-74.4841 -25.700081 19.309631 74 92 75
-74.267601 -25.72813 19.337551 104 114 98
-74.141533 -25.654573 19.2943 106 120 117
-73.928268 -25.744843 19.268318 83 96 83
-75.209557 -25.45429 19.241344 93 105 81
-74.433289 -25.599022 19.394966 69 88 68
-74.281685 -25.589384 19.25746 87 100 98
-74.16983 -25.553373 19.296694 84 91 99
-75.144073 -25.337111 19.275099 77 93 65
-65.637016 -25.28248 19.236029 190 157 186
-74.546577 -25.036978 19.226328 55 73 61
-72.02552 -25.046629 19.249331 106 129 113
-65.80381 -25.013796 19.255707 172 143 179
-65.709732 -25.119026 19.260273 169 145 175
-74.540054 -24.948055 19.272968 64 72 60
-72.205994 -24.93911 19.232201 65 71 61
-72.093338 -24.883625 19.334753 113 119 108
-71.850151 -24.856741 19.379709 85 96 92
-72.649384 -24.668041 19.208256 80 85 81
-72.529953 -24.6637 19.238388 200 191 186
-72.024117 -24.762764 19.292995 143 145 133
-71.926605 -24.772417 19.341908 169 173 162
-74.582344 -24.51709 19.233589 69 82 67
-73.812592 -24.491344 19.217197 63 72 69
-73.727356 -24.45738 19.291828 168 171 173
-73.491493 -24.449022 19.26025 123 129 126
-65.710625 -24.445152 19.245192 153 128 147
-65.516022 -24.431034 19.2376 122 107 124
-74.885323 -24.251717 19.249685 67 79 66
-74.787796 -24.282444 19.314095 90 102 93
-74.443306 -24.299686 19.292059 85 101 88
-74.280701 -24.302528 19.324879 97 109 100
-74.067757 -24.286613 19.289787 137 151 141
-73.874893 -24.302521 19.32416 148 156 146
-73.736267 -24.321898 19.293962 137 142 134
-73.47496 -24.322603 19.285406 134 136 131
-73.33744 -24.280214 19.301584 124 131 122
-73.101944 -24.251389 19.23451 139 138 134
-65.483513 -24.363293 19.305275 140 120 140
-65.319305 -24.279364 19.278376 171 152 170
-65.165695 -24.360794 19.39249 102 95 102
-75.002228 -24.182171 19.206234 73 93 82
-74.889992 -24.080774 19.317898 42 66 50
-74.717743 -24.122156 19.208824 216 226 218
-74.505516 -24.026302 19.257277 84 95 88
-74.321869 -24.076298 19.302849 111 119 111
-74.067604 -24.092291 19.286674 127 133 125
-73.929909 -24.122826 19.318888 125 133 121
-73.770454 -24.128584 19.263781 138 151 135
-73.447456 -24.112595 19.274471 113 121 110
-73.291481 -24.132656 19.292435 130 136 125
-73.115082 -24.083776 19.313257 150 154 145
-72.863724 -24.047071 19.295897 129 133 122
-72.786324 -24.095964 19.310726 173 161 147
-72.083939 -24.119116 19.226532 42 63 58
-71.850525 -24.062038 19.377422 147 144 137
-71.781075 -24.006086 19.310234 240 230 229
-66.033623 -24.025026 19.310852 208 185 191
-65.969414 -24.075483 19.270803 141 126 145
-65.688416 -24.079929 19.285543 163 145 153
-65.591949 -24.001572 19.248333 186 175 189
-65.332382 -24.19367 19.371971 167 146 172
-74.839256 -23.884689 19.26622 62 78 72
-74.713936 -23.903006 19.300579 98 110 98
-74.515099 -23.905745 19.294687 105 114 107
-74.299644 -23.898062 19.287941 120 132 122
-74.079559 -23.90803 19.27878 163 171 163
-73.919853 -23.893202 19.303535 147 155 146
-73.671471 -23.886341 19.297657 105 115 102
-73.492195 -23.897245 19.263407 128 133 126
-73.289139 -23.912609 19.294275 152 156 149
-73.077011 -23.93507 19.290874 116 121 116
-72.881004 -23.877802 19.280001 135 137 127
-72.777435 -23.883492 19.296846 129 133 115
-72.093559 -23.944098 19.216904 145 152 144
-71.914062 -23.865578 19.262032 137 142 132
-71.793526 -23.914495 19.293589 141 148 134
-71.13517 -23.81307 19.287071 180 196 195
-74.701233 -23.769041 19.284697 133 140 131
-74.529259 -23.677835 19.314886 109 123 107
-74.30838 -23.706543 19.33415 128 137 125
-74.090508 -23.682655 19.299801 109 123 110
-73.918297 -23.702888 19.295736 112 127 116
-73.685242 -23.678392 19.307434 106 120 108
-73.475975 -23.690939 19.262751 131 134 129
-73.311935 -23.673756 19.287483 157 160 155
-73.140472 -23.713051 19.294413 160 163 153
-72.930359 -23.692944 19.323477 161 164 158
-71.096893 -23.684898 19.310394 100 121 110
-70.934387 -23.671808 19.378576 110 128 129
-74.48394 -23.508698 19.279957 73 93 74
-74.30941 -23.473234 19.322468 101 111 99
-74.097038 -23.508268 19.296139 121 133 119
-73.910103 -23.518036 19.307823 116 126 113
-73.707642 -23.523867 19.273823 88 104 92
-73.486626 -23.494579 19.327614 119 126 116
-73.283585 -23.477039 19.306808 114 128 116
-73.12883 -23.492065 19.31566 139 145 133
-72.926102 -23.526594 19.285042 154 152 143
-72.772224 -23.450245 19.319979 130 128 116
-71.0457 -23.570393 19.239943 61 85 64
-70.905663 -23.551327 19.282972 99 118 109
-74.490265 -23.335869 19.256437 67 84 66
-74.293648 -23.291023 19.304907 114 121 111
-74.124687 -23.296396 19.28524 118 128 116
-73.863609 -23.327394 19.239075 96 110 95
-73.677788 -23.301167 19.276438 113 121 111
-73.495422 -23.27541 19.338213 150 155 142
-73.304878 -23.301849 19.321716 127 135 122
-73.090225 -23.284115 19.303295 116 127 117
-72.909111 -23.294836 19.304743 122 134 124
-72.737106 -23.289009 19.303442 125 133 124
-74.650948 -23.044899 19.273106 110 134 124
-74.475723 -23.12719 19.238695 93 106 93
-74.272133 -23.130716 19.290251 112 123 109
-74.130646 -23.117245 19.270773 136 141 135
-73.938904 -23.023108 19.29484 76 93 81
-73.635132 -23.196514 19.276625 124 133 120
-73.507446 -23.107807 19.296986 79 97 84
-73.29332 -23.100746 19.290531 116 127 115
-73.114174 -23.057768 19.293161 130 138 127
-72.872742 -23.088411 19.296534 119 131 121
-72.769127 -23.113073 19.316854 136 140 128
-77.21254 -22.857363 19.206493 113 124 107
-74.850136 -22.920864 19.244484 129 142 122
-74.682343 -22.89271 19.31365 125 135 121
-74.494148 -22.912367 19.314999 91 106 95
-74.35157 -22.999258 19.228485 165 159 157
