ply
format ascii 1.0
comment PCL generated
element vertex 1104
property float x
property float y
property float z
property uchar red
property uchar green
property uchar blue
element face 0
element camera 0
property float view_px
property float view_py
property float view_pz
property float x_axisx
property float x_axisy
property float x_axisz
property float y_axisx
property float y_axisy
property float y_axisz
property float z_axisx
property float z_axisy
property float z_axisz
property float focal
property float scalex
property float scaley
property float centerx
property float centery
property int viewportx
property int viewporty
property float k1
property float k2
end_header
-89.868164 -23.464828 17.462326 80 98 90
-87.702644 -23.468012 17.430984 147 152 151
-86.772751 -23.597267 17.458946 38 44 44
-86.104187 -23.5086 17.522486 107 114 117
-85.888756 -23.515541 17.489489 82 83 87
-85.753555 -23.480228 17.478865 66 78 70
-85.505646 -23.452084 17.519985 100 107 105
-85.24482 -23.479614 17.500479 107 111 109
-85.095779 -23.512411 17.497427 114 114 120
-84.890724 -23.503069 17.488178 89 88 87
-84.684914 -23.501085 17.485079 73 77 76
-84.481781 -23.577827 17.537399 204 202 211
-84.234962 -23.501926 17.520039 98 99 99
-84.104256 -23.508968 17.499689 118 116 119
-83.890434 -23.495157 17.509035 114 116 115
-83.697311 -23.49456 17.509262 145 139 142
-83.545052 -23.501696 17.502783 141 136 144
-83.326271 -23.54088 17.444611 192 191 197
-82.800873 -23.516487 17.435202 163 166 157
-82.718727 -23.579681 17.440027 208 200 203
-82.495338 -23.509253 17.528034 164 150 159
-82.324303 -23.516474 17.476526 132 124 125
-82.041557 -23.517071 17.484785 125 120 117
-81.915443 -23.533674 17.479624 133 128 126
-81.684418 -23.510096 17.495363 124 117 116
-81.508575 -23.512774 17.511633 131 126 123
-81.324005 -23.510141 17.497589 138 131 131
-81.1101 -23.5354 17.527473 155 144 141
-80.907005 -23.53163 17.485369 140 130 132
-80.688232 -23.517248 17.508469 155 144 148
-80.510201 -23.506126 17.508728 159 146 154
-80.296104 -23.493887 17.494469 166 149 158
-80.087921 -23.485678 17.487209 145 132 138
-79.91095 -23.47438 17.49769 166 155 156
-79.687057 -23.447042 17.468349 104 110 97
-79.132751 -23.469538 17.505943 113 115 94
-90.894516 -23.318867 17.488941 170 179 175
-90.672226 -23.271801 17.428387 174 180 186
-90.479286 -23.283884 17.49481 127 132 135
-90.324509 -23.297375 17.491993 142 148 150
-89.917244 -23.323387 17.463097 130 138 138
-89.77758 -23.335167 17.591644 75 83 78
-89.041542 -23.320086 17.512789 47 65 41
-87.81665 -23.228796 17.540501 231 224 242
-86.8675 -23.335062 17.433214 51 65 50
-86.046837 -23.371317 17.524942 71 100 77
-85.8629 -23.338524 17.459965 79 94 88
-85.69381 -23.269058 17.504992 72 86 80
-85.466446 -23.298166 17.500334 94 101 101
-85.27684 -23.286003 17.551338 114 118 118
-85.115936 -23.311176 17.489086 94 97 96
-84.898972 -23.326553 17.547575 96 106 101
-84.733772 -23.282051 17.454374 70 77 71
-84.449959 -23.258984 17.584311 169 159 170
-84.22789 -23.287554 17.50312 86 98 92
-84.075073 -23.303503 17.496355 102 111 107
-83.896545 -23.304775 17.519035 124 125 128
-83.697861 -23.303858 17.505835 147 138 145
-83.519035 -23.284615 17.514481 147 141 148
-82.674438 -23.218592 17.499493 113 106 110
-82.484039 -23.296301 17.478325 148 139 145
-82.283722 -23.260611 17.515074 135 130 127
-82.09343 -23.270494 17.499352 153 143 143
-81.927994 -23.266504 17.515011 137 129 134
-81.67337 -23.31875 17.509523 143 140 133
-81.495132 -23.326498 17.508913 138 134 133
-81.31971 -23.322388 17.505917 136 128 128
-81.068398 -23.305752 17.507923 123 116 114
-80.909698 -23.270975 17.516975 147 139 140
-80.689125 -23.279081 17.512358 135 129 129
-80.523155 -23.311325 17.500383 155 142 150
-80.300468 -23.316263 17.505632 148 133 141
-80.082237 -23.31369 17.48962 152 136 140
-79.90506 -23.306244 17.511196 157 143 146
-79.738739 -23.275627 17.499527 174 161 164
-79.503761 -23.231382 17.447512 133 121 117
-79.264984 -23.25108 17.505842 76 74 73
-79.085938 -23.226049 17.476738 55 68 52
-78.925339 -23.224522 17.498905 171 163 170
-90.864563 -23.181885 17.549097 145 154 154
-90.690598 -23.109247 17.515308 171 171 174
-90.490555 -23.101397 17.499123 131 136 137
-90.347237 -23.03002 17.430082 129 136 137
-90.059578 -23.098652 17.489101 166 168 175
-89.959419 -23.142387 17.534172 125 128 133
-88.045609 -23.051111 17.41357 129 138 137
-87.944908 -23.068851 17.48135 89 110 105
-86.720932 -23.171543 17.586609 12 32 30
-86.292839 -23.175102 17.466434 35 63 48
-86.158142 -23.181244 17.491835 49 70 61
-85.828201 -23.171055 17.587225 62 79 69
-85.659439 -23.114244 17.518465 111 114 114
-85.477356 -23.130457 17.479593 94 100 100
-85.274513 -23.097855 17.536167 112 114 117
-85.068146 -23.072805 17.541107 80 87 83
-84.920898 -23.09432 17.510927 87 95 91
-84.664146 -23.159004 17.508236 85 88 88
-84.50811 -23.073881 17.49987 87 91 91
-84.28878 -23.073416 17.494617 75 89 83
-84.093239 -23.086201 17.503246 105 112 113
-83.902779 -23.092403 17.508678 121 120 123
-83.687111 -23.101006 17.517578 143 136 141
-83.501335 -23.107054 17.493181 144 139 143
-83.377235 -23.11639 17.442989 77 80 84
-82.832092 -23.046886 17.51156 78 82 72
-82.709892 -23.094566 17.481106 145 140 142
-82.503029 -23.129778 17.49621 144 137 138
-82.297462 -23.111176 17.495958 148 136 139
-82.109833 -23.130835 17.512949 150 137 139
-81.897202 -23.115442 17.506081 145 136 140
-81.702942 -23.079056 17.495176 132 123 126
-81.528015 -23.12001 17.472582 141 134 133
-81.283546 -23.079645 17.459103 169 162 161
-81.162224 -23.055384 17.479944 152 140 146
-80.874901 -23.134932 17.511377 156 148 151
-80.681389 -23.100845 17.490919 142 135 137
-80.52607 -23.115114 17.487978 153 142 146
-80.331474 -23.105116 17.483852 148 131 142
-80.117546 -23.086563 17.485559 143 131 142
-79.876137 -23.100245 17.522423 150 135 140
-79.69944 -23.114807 17.515762 172 154 154
-79.50058 -23.096874 17.51824 153 142 140
-79.310722 -23.095406 17.498564 125 123 117
-79.100021 -23.141012 17.488295 78 84 74
-78.962761 -23.15921 17.476171 123 126 122
-90.885094 -22.923019 17.511024 159 165 171
-90.748154 -22.886375 17.525379 122 127 131
-90.491364 -22.954416 17.453602 137 140 142
-90.257469 -22.949656 17.420122 126 137 140
-90.082703 -22.920696 17.50391 156 159 164
-89.926407 -22.840897 17.56892 138 135 139
-88.099068 -22.860632 17.474762 77 96 89
-87.950348 -22.873386 17.495153 68 92 80
-86.181999 -22.953913 17.434231 67 58 59
-85.882133 -22.832802 17.482208 78 93 86
-85.703285 -22.874893 17.481617 138 132 142
-85.478516 -22.838661 17.550594 154 144 159
-85.308037 -22.923746 17.492512 84 96 93
-85.102432 -22.906557 17.516001 110 116 114
-84.870552 -22.881071 17.513193 81 92 86
-84.698395 -22.89002 17.494453 81 87 85
-84.490227 -22.890446 17.50424 76 84 85
-84.292252 -22.880995 17.487099 99 110 110
-84.090675 -22.931444 17.512524 123 128 132
-83.894836 -22.91773 17.489174 122 120 127
-83.713371 -22.923784 17.496922 137 134 143
-83.517838 -22.910881 17.490608 148 133 147
-83.372879 -22.93042 17.457832 185 171 184
-82.830574 -22.984261 17.479773 72 88 68
-82.732719 -22.957748 17.451252 94 100 92
-82.580719 -22.853582 17.488182 163 164 159
-82.288803 -22.907196 17.52054 135 124 131
-82.060692 -22.901875 17.490892 148 140 141
-81.909477 -22.880693 17.491203 127 121 119
-81.691483 -22.895788 17.493061 137 130 131
-81.485176 -22.900898 17.494413 164 150 152
-81.293564 -22.892672 17.51099 155 145 145
-81.117104 -22.901659 17.496073 138 129 130
-80.918365 -22.880997 17.502588 144 141 139
-80.712921 -22.915813 17.468904 165 156 161
-80.519592 -22.885916 17.477083 137 131 128
-80.338829 -22.917088 17.458454 173 158 162
-80.059341 -22.864691 17.504644 139 130 134
-79.908081 -22.898249 17.494352 141 130 132
-79.703888 -22.897425 17.498327 141 130 132
-79.515617 -22.922697 17.495743 154 140 141
-79.328926 -22.94837 17.455418 190 173 186
-91.084824 -22.761358 17.466722 82 91 96
-90.845718 -22.697313 17.516014 101 111 111
-90.7593 -22.713341 17.581415 97 94 103
-90.274918 -22.675749 17.462759 135 145 148
-90.078331 -22.675468 17.474548 132 144 142
-89.892677 -22.703444 17.480431 90 103 101
-89.749756 -22.706341 17.510534 80 96 91
-87.125786 -22.634464 17.464392 47 65 51
-86.801338 -22.65546 17.500097 60 67 59
-86.524689 -22.693085 17.544401 74 91 74
-85.929893 -22.694696 17.482178 141 148 151
-85.703621 -22.701408 17.516043 152 132 151
-85.488182 -22.691153 17.46419 131 120 136
-85.286095 -22.667284 17.496929 117 110 125
-85.104294 -22.686577 17.51338 97 95 100
-84.896088 -22.712078 17.52 92 98 97
-84.706848 -22.711374 17.511366 74 82 78
-84.502518 -22.674576 17.528149 97 103 101
-84.312088 -22.698944 17.495411 139 138 145
-84.069916 -22.689367 17.491671 139 123 129
-83.920822 -22.726713 17.474545 120 114 122
-83.706932 -22.761345 17.418394 146 138 150
-83.466469 -22.777355 17.447081 121 100 119
-82.770531 -22.799109 17.55727 116 125 124
-82.46051 -22.694263 17.504116 131 125 130
-82.284187 -22.735231 17.490074 150 140 147
-82.082283 -22.707005 17.478924 124 121 122
-81.891747 -22.717617 17.514547 129 125 120
-81.71965 -22.711824 17.516293 126 123 120
-81.504601 -22.708153 17.490614 144 132 132
-81.323586 -22.72884 17.519899 160 149 152
-81.107185 -22.718311 17.500277 166 148 156
-80.867241 -22.673996 17.484495 148 136 139
-80.729973 -22.688004 17.482786 166 152 155
-80.520874 -22.703556 17.559891 106 108 101
-80.295532 -22.708796 17.427769 144 144 146
-80.051033 -22.753729 17.496204 152 143 150
-79.896759 -22.702684 17.494972 158 143 148
-79.718094 -22.686357 17.503996 148 136 141
-79.477859 -22.713533 17.472589 175 161 165
-79.281937 -22.669744 17.463377 158 144 147
-79.094063 -22.62034 17.503195 89 93 83
-78.92897 -22.638367 17.45504 135 143 125
-91.089584 -22.570908 17.405212 231 235 240
-90.487381 -22.434326 17.492523 140 143 150
-90.273956 -22.498419 17.448559 166 171 180
-90.080696 -22.491381 17.476231 152 165 167
-89.940483 -22.50555 17.489235 122 133 135
-89.779518 -22.546951 17.569477 159 162 164
-88.83757 -22.406685 17.534697 100 116 116
-86.920311 -22.521978 17.513628 82 93 82
-86.687057 -22.518986 17.535534 88 105 93
-85.877106 -22.465137 17.501104 146 139 156
-85.71241 -22.46666 17.497976 145 134 152
-85.502678 -22.469187 17.518955 113 113 125
-85.289749 -22.502151 17.493561 150 139 155
-85.101059 -22.501379 17.51425 143 130 146
-84.89695 -22.486805 17.522509 120 116 124
-84.680801 -22.492161 17.502748 89 94 95
-84.499336 -22.499054 17.494175 108 114 115
-84.351013 -22.53624 17.513676 128 128 135
-84.102829 -22.478893 17.479395 114 101 110
-83.994812 -22.531958 17.469158 141 130 144
-82.617332 -22.455219 17.591299 119 108 125
-82.461319 -22.500441 17.482452 146 139 144
-82.268204 -22.495466 17.51355 128 127 120
-82.095596 -22.485138 17.483683 129 124 123
-81.939285 -22.511337 17.502939 138 131 136
-81.717667 -22.531748 17.508438 131 125 130
-81.485298 -22.528288 17.504969 146 134 143
-81.31321 -22.509094 17.500376 157 142 155
-81.076523 -22.521107 17.532871 139 126 129
-80.88636 -22.525793 17.511229 147 137 137
-80.723892 -22.513868 17.498983 177 164 164
-80.515411 -22.557257 17.502851 151 141 149
-79.881752 -22.555519 17.49016 174 158 164
-79.689278 -22.526104 17.477898 176 159 165
-79.533089 -22.524921 17.464603 143 133 136
-79.280136 -22.510157 17.492893 128 120 120
-79.085335 -22.532457 17.488035 131 126 119
-78.890236 -22.510736 17.415285 134 125 127
-91.073608 -22.314108 17.509478 132 134 139
-90.8283 -22.297188 17.464256 120 134 135
-90.673462 -22.325186 17.494255 165 173 176
-90.491844 -22.306746 17.486876 161 159 166
-90.323479 -22.298546 17.473406 165 166 171
-90.113914 -22.319368 17.506521 153 162 163
-89.952522 -22.325788 17.555204 90 101 102
-89.106697 -22.315786 17.476641 72 78 80
-87.481628 -22.345865 17.528542 40 66 41
-87.063744 -22.284662 17.446037 92 90 92
-86.719582 -22.372135 17.561962 72 89 78
-86.366264 -22.286325 17.50201 88 99 105
-85.901863 -22.336708 17.523506 116 116 129
-85.692627 -22.319529 17.503885 170 154 172
-85.497856 -22.305977 17.494089 141 139 151
-85.311607 -22.308069 17.505033 135 131 144
-85.114929 -22.294077 17.496613 126 125 133
-84.894501 -22.299112 17.502121 103 104 111
-84.687927 -22.303341 17.505341 94 98 99
-84.529785 -22.292227 17.516531 120 120 128
-84.328247 -22.278013 17.47444 159 155 167
-84.094635 -22.360458 17.513979 131 117 129
-82.645058 -22.281548 17.481304 125 121 125
-82.527107 -22.315449 17.489788 137 134 142
-82.269341 -22.324152 17.481369 143 137 138
-82.083748 -22.344984 17.487453 139 135 136
-81.938278 -22.333395 17.467342 106 103 111
-81.6241 -22.291355 17.47517 118 109 123
-81.497261 -22.3696 17.51807 187 177 186
-81.361572 -22.277237 17.506601 194 172 188
-81.09687 -22.260506 17.458487 190 174 185
-80.866982 -22.321655 17.522036 166 144 161
-80.6595 -22.300608 17.502352 170 151 166
-80.526108 -22.335896 17.504602 230 216 228
-79.697517 -22.33609 17.42959 148 141 140
-79.295471 -22.320326 17.467281 142 131 129
-79.161774 -22.298553 17.484138 101 97 96
-91.074799 -22.144915 17.562044 144 149 152
-90.879562 -22.127899 17.406258 129 139 142
-90.698982 -22.069948 17.47073 174 177 181
-90.505722 -22.101412 17.556992 161 166 171
-90.284714 -22.153011 17.518488 160 165 167
-90.141174 -22.111019 17.584747 164 170 173
-88.938087 -22.152771 17.584044 50 70 62
-87.799454 -22.109835 17.538401 60 74 74
-87.099785 -22.053833 17.521332 155 149 166
-86.616478 -22.110216 17.50197 91 106 97
-86.534447 -22.101267 17.486551 78 89 92
-86.302536 -22.113602 17.458923 53 65 63
-86.048088 -22.099442 17.495914 64 68 79
-85.894386 -22.100573 17.456985 117 110 121
-85.710098 -22.065622 17.501041 144 138 152
-85.476326 -22.128824 17.479727 110 108 118
-85.293411 -22.11759 17.498816 127 128 134
-85.08741 -22.086647 17.498425 118 122 128
-84.89959 -22.114079 17.518185 96 102 102
-84.683868 -22.091257 17.502424 123 123 126
-84.535744 -22.106802 17.509399 143 139 150
-84.294815 -22.121971 17.526117 164 159 171
-82.617126 -22.169798 17.402157 151 155 141
-82.497986 -22.134911 17.503881 70 74 80
-82.276207 -22.136536 17.5331 143 140 145
-82.078949 -22.116625 17.474678 149 135 150
-81.656555 -22.025513 17.410753 180 174 184
-81.543663 -22.120062 17.476416 191 166 190
-81.241508 -22.187521 17.510576 198 173 197
-81.133911 -22.092405 17.483362 154 132 153
-80.841156 -22.174576 17.498566 138 111 128
-80.75914 -22.180912 17.463192 165 149 151
-80.541458 -22.132263 17.516224 181 160 178
-91.23175 -21.823967 17.487577 163 154 159
-91.109856 -21.978676 17.480436 101 110 111
-90.910156 -21.93895 17.467112 149 159 163
-90.662048 -21.920073 17.509567 155 163 172
-90.519676 -21.838097 17.56072 114 119 124
-89.767548 -21.916378 17.546274 48 63 57
-86.896042 -21.817263 17.511581 216 216 226
-86.690796 -21.882771 17.513439 54 67 65
-86.563751 -21.935808 17.507462 61 75 74
-86.208824 -21.860395 17.41477 74 80 80
-86.141258 -21.816236 17.4186 58 66 64
-85.889809 -21.897518 17.4863 143 145 154
-85.722298 -21.897427 17.508402 121 121 128
-85.483124 -21.887634 17.510183 96 98 105
-85.276482 -21.915844 17.485016 78 86 87
-85.116608 -21.926006 17.501949 97 104 104
-84.902611 -21.914818 17.501295 88 94 95
-84.700684 -21.908024 17.483099 145 143 152
-84.520119 -21.886457 17.504906 135 131 144
-84.314583 -21.874573 17.491686 149 148 160
-84.195961 -21.967384 17.465279 178 166 186
-82.231155 -21.943905 17.474535 156 152 158
-82.069275 -21.903267 17.510685 180 153 182
-81.981766 -21.893385 17.507458 142 142 150
-81.694969 -21.962753 17.537024 162 153 169
-81.593964 -21.86941 17.491808 161 141 166
-81.147606 -21.935585 17.413391 205 180 208
-90.613571 -21.636461 17.419329 162 163 168
-90.47184 -21.701206 17.558798 107 117 121
-89.685303 -21.678226 17.522697 74 90 84
-89.549904 -21.63731 17.443275 80 91 89
-87.020653 -21.693239 17.539707 70 80 90
-86.897583 -21.745749 17.493889 64 75 73
-86.633453 -21.764894 17.414549 66 89 78
-86.564392 -21.753187 17.595856 64 85 80
-86.13649 -21.71439 17.428032 76 89 85
-85.664909 -21.721722 17.519819 47 58 51
-85.510002 -21.708147 17.49428 105 109 111
-85.283714 -21.672573 17.489426 68 80 73
-85.094368 -21.67675 17.515089 83 88 88
-84.874489 -21.701693 17.507524 125 123 127
-84.693161 -21.705427 17.485216 135 132 141
-84.505272 -21.690464 17.495386 148 144 155
-84.300354 -21.678196 17.51161 144 140 151
-84.161377 -21.648224 17.549194 147 143 157
-81.660789 -21.715464 17.452461 179 158 179
-81.441711 -21.685492 17.56147 255 233 255
-80.739449 -21.776716 17.403185 101 87 110
-90.484306 -21.492205 17.460999 146 153 163
-90.376434 -21.540812 17.592056 211 215 227
-89.817558 -21.435577 17.49213 174 167 184
-89.701172 -21.524384 17.517874 102 111 111
-87.013512 -21.560362 17.524393 85 74 88
-86.129639 -21.444448 17.504286 96 113 105
-85.856262 -21.493618 17.526594 121 133 129
-85.725189 -21.496933 17.466011 142 154 155
-85.468811 -21.47879 17.497734 125 123 125
-85.265541 -21.512133 17.512297 95 97 100
-85.090744 -21.500515 17.521011 125 125 132
-84.892532 -21.511936 17.502897 137 137 143
-84.69091 -21.489292 17.49646 127 122 130
-84.492104 -21.509241 17.500349 150 143 151
-84.300591 -21.493027 17.496683 159 149 157
-84.126831 -21.483889 17.517036 154 160 169
-90.530998 -21.276609 17.534706 133 136 148
-89.823448 -21.397543 17.522953 63 77 77
-86.91288 -21.389088 17.423758 92 105 95
-86.675232 -21.221819 17.529835 20 38 36
-86.499718 -21.310324 17.483376 63 82 72
-85.865814 -21.311983 17.52841 119 124 130
-85.684341 -21.295847 17.490473 80 93 94
-85.490562 -21.29019 17.495321 102 106 109
-85.298309 -21.318165 17.466587 125 122 135
-85.085037 -21.346094 17.501657 143 136 148
-84.903221 -21.289806 17.488455 134 128 142
-84.683594 -21.299841 17.493813 134 130 139
-84.503693 -21.317146 17.512032 135 132 138
-84.30336 -21.301064 17.498116 153 144 151
-84.114998 -21.326639 17.495016 144 141 152
-83.979195 -21.292953 17.488625 166 172 180
-83.773338 -21.274975 17.549259 176 186 188
-81.625183 -21.32905 17.480564 167 138 166
-81.546417 -21.258402 17.414024 136 107 129
-90.557419 -21.075611 17.549864 224 217 229
-88.679276 -21.160412 17.503731 40 59 47
-86.696877 -21.106733 17.481033 57 70 66
-86.567551 -21.121914 17.503681 63 81 76
-85.866119 -21.051666 17.470589 105 110 111
-85.692825 -21.080986 17.457781 96 98 99
-85.488525 -21.078585 17.507484 109 113 115
-85.334343 -21.068308 17.492924 95 99 95
-85.064018 -21.054134 17.499657 124 123 129
-84.902664 -21.119347 17.502501 144 137 153
-84.698456 -21.125751 17.50103 164 159 171
-84.481628 -21.096067 17.500441 106 108 116
-84.309845 -21.095074 17.507082 134 124 135
-84.130142 -21.132198 17.49441 149 148 160
-83.930717 -21.139818 17.482843 165 160 176
-81.462997 -21.081221 17.473516 183 161 186
-81.386337 -21.033192 17.472044 163 142 164
-90.568977 -20.888786 17.545237 141 142 147
-88.665977 -20.92182 17.500566 79 93 90
-87.433853 -20.849144 17.471395 37 64 55
-86.848259 -20.860189 17.494776 140 149 157
-86.717316 -20.902227 17.547283 78 92 91
-86.540398 -20.899576 17.499065 58 80 72
-85.895897 -20.867252 17.545582 118 120 131
-85.672455 -20.895819 17.498211 95 98 99
-85.517876 -20.897505 17.519831 100 103 107
-85.298531 -20.913641 17.51923 98 101 101
-85.11409 -20.86698 17.511114 88 92 91
-84.908401 -20.879152 17.51873 85 91 90
-84.705101 -20.875166 17.573845 129 130 133
-84.484436 -20.895252 17.492153 130 129 136
-84.286407 -20.910231 17.487715 148 136 152
-84.124901 -20.895973 17.500685 160 149 164
-83.851089 -20.887512 17.46114 199 197 212
-81.424171 -20.916748 17.506485 164 146 168
-81.367821 -20.862698 17.434532 114 105 122
-90.466522 -20.682398 17.511856 166 163 171
-90.294014 -20.67753 17.514194 127 133 141
-90.093201 -20.677069 17.48476 70 84 84
-89.974586 -20.667067 17.578701 139 153 152
-89.457283 -20.668365 17.532873 169 171 181
-89.318161 -20.683523 17.542122 114 128 130
-89.146996 -20.720907 17.573298 126 134 139
-88.826309 -20.618973 17.484426 125 133 133
-88.69268 -20.66464 17.491512 68 86 80
-87.889503 -20.665686 17.481613 39 60 52
-86.83638 -20.772045 17.530052 102 125 125
-86.728676 -20.734894 17.502422 85 91 101
-86.495239 -20.682163 17.454386 126 128 133
-86.281273 -20.653379 17.485542 110 109 114
-86.102715 -20.682816 17.503305 126 128 129
-85.913887 -20.655628 17.502264 132 132 139
-85.689445 -20.703846 17.484137 100 103 107
-85.523346 -20.688696 17.510845 115 112 116
-85.259697 -20.705566 17.550076 91 94 93
-85.11953 -20.699915 17.492149 87 92 90
-84.908928 -20.697094 17.513865 109 114 114
-84.662766 -20.674692 17.51779 122 120 125
-84.501732 -20.682009 17.494696 154 144 152
-84.306442 -20.69487 17.484236 160 153 166
-84.132957 -20.70149 17.482109 153 151 160
-83.958336 -20.60688 17.417145 149 152 159
-81.425095 -20.790958 17.478651 159 154 163
-81.393661 -20.772552 17.433243 117 107 120
-90.492668 -20.48661 17.499929 130 134 136
-90.252663 -20.510794 17.545195 152 148 158
-90.061989 -20.519192 17.52865 155 152 162
-89.943291 -20.470058 17.505325 159 154 169
-89.713951 -20.495243 17.509914 115 119 126
-89.519035 -20.528479 17.45294 157 158 170
-89.250122 -20.484491 17.511873 97 106 109
-89.186493 -20.415348 17.534832 194 199 202
-88.824844 -20.498791 17.461708 136 138 140
-88.684975 -20.504646 17.497013 87 96 98
-88.554749 -20.471712 17.486088 41 54 55
-88.018288 -20.410946 17.568693 41 65 55
-87.968658 -20.469107 17.531719 29 56 46
-87.037125 -20.517921 17.401793 75 81 81
-86.903076 -20.476391 17.459166 117 126 129
-86.647285 -20.541214 17.436361 162 155 165
-86.470963 -20.50563 17.46735 123 122 128
-86.319962 -20.502657 17.514244 131 131 137
-86.064621 -20.497133 17.51285 149 149 148
-85.93885 -20.524508 17.477837 116 115 121
-85.693459 -20.529778 17.479439 111 110 114
-85.494362 -20.485514 17.520733 111 108 113
-85.2976 -20.482225 17.500221 138 131 137
-85.090836 -20.499414 17.515373 139 135 145
-84.914108 -20.513237 17.483355 137 131 143
-84.681404 -20.498177 17.481764 152 145 156
-84.503571 -20.500153 17.485039 179 167 179
-84.313103 -20.533783 17.475231 164 159 171
-84.127121 -20.56155 17.470469 150 155 160
-90.503944 -20.353693 17.465818 140 146 147
-90.330727 -20.349239 17.500626 171 159 171
-90.124718 -20.372784 17.435272 171 179 192
-89.862106 -20.369558 17.430994 151 149 162
-89.694847 -20.33882 17.424341 184 174 188
-89.283134 -20.364351 17.50581 93 96 108
-89.138184 -20.271164 17.53104 136 132 139
-88.974167 -20.216782 17.579897 177 180 189
-88.699715 -20.306915 17.501377 127 128 135
-88.48085 -20.284861 17.497347 83 91 94
-88.343819 -20.236712 17.560848 93 94 100
-88.056168 -20.281174 17.476818 66 90 80
-87.904579 -20.280613 17.526232 89 103 100
-87.524422 -20.271524 17.574364 167 178 180
-87.209297 -20.211397 17.589989 171 164 174
-87.082558 -20.294765 17.493206 125 130 139
-86.893379 -20.384254 17.457779 155 157 170
-86.462715 -20.308941 17.473759 161 154 164
-86.313736 -20.313608 17.525284 161 156 165
-86.115608 -20.269327 17.496004 151 145 160
-85.942787 -20.298536 17.487919 127 119 131
-85.655212 -20.294672 17.488791 156 146 158
-85.502419 -20.305325 17.500784 162 150 164
-85.310959 -20.294752 17.495316 162 151 167
-85.113518 -20.324549 17.489321 162 153 166
-84.937172 -20.319502 17.492985 137 134 144
-84.691544 -20.310989 17.45125 155 147 157
-84.526688 -20.304316 17.461653 167 158 167
-84.304375 -20.381721 17.453074 144 142 153
-90.4645 -20.164484 17.449127 140 146 160
-89.279846 -20.169279 17.488783 178 186 188
-89.108063 -20.131592 17.482023 152 152 157
-88.924202 -20.099804 17.517872 117 122 127
-88.760956 -20.126202 17.52166 102 106 109
-88.491547 -20.13356 17.496241 147 147 153
-88.315353 -20.143288 17.588886 120 127 128
-88.104988 -20.093302 17.525118 131 130 135
-87.920425 -20.085882 17.509621 146 143 153
-87.711624 -20.065889 17.482557 135 130 139
-87.476204 -20.045237 17.486343 152 140 158
-87.267685 -20.107931 17.483095 167 158 171
-87.173904 -20.178318 17.575792 121 103 119
-86.606277 -20.168682 17.442389 170 157 175
-86.519424 -20.183416 17.404289 178 160 174
-86.323662 -20.131346 17.455513 153 147 158
-86.166656 -20.097908 17.448858 99 102 114
-85.881714 -20.106722 17.437527 138 120 137
-85.644028 -20.041109 17.539209 110 110 122
-85.488953 -20.111656 17.47386 107 101 108
-85.294556 -20.095398 17.502342 146 130 145
-85.101898 -20.10487 17.471378 149 136 151
-84.89872 -20.108643 17.460857 129 134 139
-84.700943 -20.107527 17.47447 138 142 147
-84.491142 -20.179148 17.455008 159 157 158
-84.398941 -20.192465 17.455614 105 110 116
-89.044197 -19.904387 17.45223 165 148 165
-88.848885 -19.93005 17.494785 133 134 147
-88.756706 -19.85557 17.543791 126 122 136
-88.342857 -19.895493 17.580311 197 199 199
-88.066795 -19.878851 17.501177 135 138 144
-87.873772 -19.896465 17.543776 128 125 134
-87.698296 -19.899023 17.480024 166 156 166
-87.497627 -19.902681 17.491734 155 155 163
-87.376869 -19.866198 17.450418 127 126 131
-86.275711 -19.986584 17.420012 142 140 143
-85.864616 -19.92354 17.422081 113 104 116
-85.700874 -19.885363 17.474665 126 117 131
-85.492348 -19.856455 17.465078 141 134 146
-85.285667 -19.922068 17.48229 150 132 146
-85.094383 -19.880789 17.4814 138 122 140
-84.882217 -19.881248 17.491194 157 150 162
-84.725212 -19.88529 17.482838 149 147 157
-84.583992 -19.968027 17.413225 236 218 244
-83.886993 -19.914576 17.40065 153 139 156
-88.704872 -19.710165 17.490637 140 138 152
-88.558029 -19.722935 17.507378 124 119 134
-88.223671 -19.640818 17.479721 130 137 140
-88.114807 -19.686504 17.511038 155 156 165
-87.895767 -19.714867 17.517483 158 146 160
-87.706955 -19.706192 17.464458 177 162 177
-87.480621 -19.690855 17.496479 165 158 171
-85.835541 -19.67452 17.473463 120 112 119
-85.716354 -19.709291 17.50589 127 118 130
-85.512726 -19.66839 17.483265 145 141 150
-85.325676 -19.691872 17.510122 166 163 173
-85.071884 -19.749062 17.45752 150 144 154
-84.891495 -19.759615 17.465231 147 139 153
-84.798119 -19.772532 17.556118 252 224 246
-88.6661 -19.559961 17.528807 173 171 185
-88.512459 -19.522783 17.525715 160 150 166
-88.297516 -19.531427 17.494085 135 132 145
-88.128014 -19.561932 17.506432 141 137 149
-87.927345 -19.547749 17.470369 141 135 146
-87.797218 -19.596743 17.537041 197 186 194
-85.846832 -19.540592 17.472759 112 112 116
-85.684441 -19.496881 17.482327 132 126 135
-85.502655 -19.526278 17.468128 153 144 158
-85.35376 -19.517002 17.462843 228 215 234
-88.617821 -19.305655 17.40201 203 184 206
-88.43898 -19.21505 17.484444 194 180 206
-88.341492 -19.351555 17.522278 126 121 147
-85.746002 -19.390636 17.400743 175 167 172
-83.448845 -19.258223 17.429253 177 183 197
-83.359962 -19.332676 17.449409 168 164 177
-80.699379 -18.256599 17.511435 103 87 114
-89.134674 -17.813931 17.578426 169 167 180
-88.785561 -17.844532 17.428789 103 114 116
-89.5513 -17.752686 17.40889 145 152 164
-89.267479 -17.682558 17.493773 164 178 186
-89.15937 -17.693283 17.513565 176 178 189
-88.914604 -17.669479 17.480711 155 157 169
-89.438118 -17.480333 17.448458 172 176 187
-89.331902 -17.512545 17.532219 177 172 184
-89.068817 -17.526213 17.495365 166 170 182
-88.983276 -17.541534 17.593462 160 169 172
-79.220795 -17.555941 17.43239 198 175 201
-89.441406 -17.321306 17.462263 171 170 184
-89.312805 -17.309362 17.554909 191 184 198
-89.111137 -17.270826 17.511715 188 191 203
-88.818687 -17.209785 17.50267 185 192 198
-88.732056 -17.237131 17.499163 172 179 183
-88.251404 -17.222092 17.482433 137 135 149
-88.186874 -17.206244 17.481205 115 112 129
-89.647003 -17.163345 17.521914 123 131 134
-89.551514 -17.136473 17.407393 196 194 206
-89.286621 -17.085091 17.466864 208 207 218
-89.099297 -17.157524 17.493525 159 159 173
-88.848419 -17.105267 17.472813 171 175 184
-88.693565 -17.115225 17.487906 179 182 189
-88.541 -17.06893 17.459969 169 172 184
-88.202553 -17.052023 17.43222 148 142 157
-88.111504 -17.059179 17.456663 174 173 186
-80.62648 -17.109177 17.448078 136 123 147
-89.250839 -16.958866 17.518345 165 167 180
-89.102982 -16.86591 17.483387 189 193 200
-88.904716 -16.90527 17.483429 150 153 159
-88.735756 -16.904961 17.465651 127 131 139
-88.49231 -16.901833 17.52684 179 175 188
-88.090759 -16.95215 17.413836 224 223 229
-80.614693 -16.814909 17.431564 192 161 199
-80.563774 -16.90864 17.456482 201 166 200
-89.107719 -16.65885 17.41259 175 179 191
-88.676064 -16.71847 17.49441 197 195 209
-88.511436 -16.747095 17.525116 169 171 184
-80.588882 -16.684586 17.401953 178 148 172
-88.612701 -16.44487 17.458591 158 152 162
-88.516975 -16.596022 17.426317 148 150 161
-88.733101 -16.334879 17.407269 213 226 232
-85.252815 -33.517162 17.645798 100 109 97
-85.084824 -33.474873 17.673004 99 107 94
-84.860252 -33.451591 17.602861 127 136 112
-85.704384 -33.213215 17.656746 225 213 199
-85.406807 -33.376938 17.681839 132 132 142
-85.27713 -33.336643 17.726841 83 89 86
-85.034042 -33.314144 17.648743 79 88 72
-84.917999 -33.330391 17.632795 88 95 75
-83.680679 -33.221966 17.631197 130 125 106
-85.516136 -33.105591 17.774223 121 130 109
-85.336815 -33.102203 17.72006 110 113 103
-85.142693 -33.087582 17.681509 119 121 105
-84.947784 -33.14159 17.606987 47 58 42
-85.417709 -32.832432 17.617313 107 108 89
-85.257172 -32.950394 17.721706 118 121 106
-85.11834 -32.917 17.679928 92 104 83
-85.683449 -32.702702 17.695477 101 103 91
-85.517418 -32.656582 17.700821 120 118 111
-85.303131 -32.771618 17.67948 114 115 95
-85.096443 -32.683998 17.695616 102 109 91
-85.846977 -32.463444 17.621096 110 120 112
-85.676949 -32.502968 17.660852 113 119 107
-85.551437 -32.472633 17.718313 110 114 107
-85.28418 -32.501621 17.656389 98 105 93
-85.124626 -32.537178 17.711082 99 106 85
-85.802361 -32.2924 17.62809 93 111 99
-85.672264 -32.302395 17.680265 90 99 85
-85.484177 -32.305569 17.65575 106 109 100
-85.337357 -32.343796 17.673285 97 105 97
-83.943512 -32.20435 17.607784 135 137 126
-83.096733 -32.2048 17.637306 64 77 51
-85.656136 -32.059711 17.660358 87 102 80
-85.544533 -32.151691 17.674316 94 103 88
-85.380814 -32.183315 17.766212 82 89 87
-83.850868 -32.108479 17.69495 133 129 111
-83.779762 -32.162605 17.64957 168 174 153
-83.253555 -32.106617 17.629923 148 142 124
-83.140053 -32.123791 17.716879 122 120 98
-81.28624 -32.037399 17.628511 105 102 81
-85.802284 -31.828018 17.625225 63 81 57
-85.707153 -31.896585 17.661039 73 85 64
-83.843384 -31.865574 17.614159 119 113 101
-83.797592 -31.863295 17.640285 144 137 129
-83.328163 -31.933962 17.634472 144 135 114
-82.747261 -31.837904 17.622042 96 100 74
-82.210693 -31.840368 17.600332 192 176 160
-81.44194 -31.872923 17.654671 191 183 164
-81.285072 -31.885576 17.69171 131 129 115
-81.132309 -31.959204 17.605116 87 98 84
-83.813293 -31.695194 17.679029 116 124 105
-83.709084 -31.673079 17.697371 168 157 142
-82.087723 -31.700396 17.649897 158 143 128
-81.512741 -31.659863 17.679047 128 125 108
-81.310181 -31.713755 17.731371 115 112 95
-81.132301 -31.733271 17.620617 62 62 46
-83.751221 -31.58234 17.704565 167 166 147
-83.169838 -31.416924 17.605564 80 99 77
-82.092491 -31.480307 17.647758 131 131 113
-81.980896 -31.461994 17.627762 117 111 92
-81.61541 -31.423843 17.648489 101 95 79
-81.466248 -31.46196 17.695398 150 145 129
-81.286247 -31.489214 17.698809 127 122 102
-81.166824 -31.462309 17.687654 84 88 64
-83.075577 -31.391409 17.616512 107 113 90
-82.08947 -31.321199 17.664759 111 115 95
-81.871376 -31.308004 17.661045 112 122 107
-81.698807 -31.293255 17.672613 132 136 124
-81.483849 -31.277847 17.663448 105 102 91
-81.286194 -31.281944 17.708427 139 131 113
-81.16996 -31.326424 17.693123 129 125 104
-82.081863 -31.069874 17.690571 100 108 86
-81.859383 -31.122725 17.71698 71 81 59
-81.693619 -31.086363 17.713619 99 104 86
-81.496185 -31.105297 17.686577 118 117 105
-81.300079 -31.090864 17.691492 140 133 118
-81.122185 -31.132029 17.654577 111 101 77
-87.927574 -30.803463 17.756639 127 117 105
-87.675606 -30.835508 17.672878 99 101 88
-87.407394 -30.891235 17.744007 45 67 28
-87.255363 -30.863249 17.624361 34 71 26
-82.063171 -30.925047 17.661596 96 101 89
-81.888115 -30.887506 17.710899 123 119 101
-81.681183 -30.879129 17.667667 116 114 101
-81.495628 -30.910383 17.692129 123 120 105
-81.307777 -30.900137 17.698277 131 128 110
-81.156181 -30.935001 17.657022 144 134 116
-87.615875 -30.67362 17.766247 99 104 81
-87.565491 -30.754787 17.776117 85 85 57
-87.240585 -30.670902 17.713852 55 76 43
-87.076675 -30.672169 17.685577 98 106 87
-82.031548 -30.675892 17.622265 76 85 66
-81.891045 -30.662249 17.736137 117 117 101
-81.691544 -30.677597 17.70953 119 120 106
-81.503876 -30.685019 17.70314 118 116 101
-81.292358 -30.758986 17.708544 129 124 105
-88.223625 -30.486618 17.741287 100 114 81
-87.933075 -30.59391 17.772415 92 102 77
-87.62117 -30.455393 17.798565 105 111 77
-87.264343 -30.439457 17.69669 131 135 113
-87.08699 -30.490633 17.683722 122 126 112
-86.90329 -30.400728 17.61289 76 93 77
-82.019768 -30.532234 17.694902 68 82 56
-81.872894 -30.528915 17.708485 101 108 94
-81.704262 -30.514265 17.711222 112 113 105
-81.5401 -30.549866 17.704075 123 122 105
-87.227791 -30.323345 17.723507 92 103 80
-87.078888 -30.296623 17.709232 98 106 89
-86.94249 -30.340084 17.756371 80 90 69
-81.89312 -30.386757 17.734369 66 85 66
-81.716797 -30.376278 17.763639 106 106 97
-87.621452 -30.13884 17.644405 91 108 76
-87.531235 -30.108067 17.743099 91 108 79
-87.31469 -30.066925 17.743412 97 110 87
-87.128487 -30.104986 17.718876 121 126 106
-89.088615 -29.837391 17.605501 114 137 117
-87.651573 -29.871023 17.738077 100 109 88
-87.494972 -29.937225 17.690655 70 94 64
-87.30703 -29.918304 17.726824 81 94 70
-86.69458 -29.869104 17.645067 88 101 80
-89.202881 -29.658833 17.64699 88 105 86
-89.103035 -29.679401 17.666759 70 87 69
-88.966682 -29.71081 17.631994 105 117 95
-88.029404 -29.659946 17.743347 84 99 85
-87.969604 -29.701469 17.709818 82 100 74
-87.656456 -29.707235 17.768835 90 99 77
-87.471535 -29.676855 17.665062 52 75 49
-87.314857 -29.675905 17.674364 68 86 67
-87.15657 -29.654634 17.642685 62 78 59
-86.770073 -29.675245 17.737288 134 148 138
-89.265945 -29.464035 17.716618 121 127 122
-89.170593 -29.493362 17.666151 70 83 60
-88.931458 -29.479572 17.672417 68 88 65
-88.65657 -29.48852 17.629866 84 99 78
-88.245041 -29.505131 17.732933 138 146 135
-88.185577 -29.505444 17.752449 134 136 124
-87.997795 -29.473169 17.773533 104 120 107
-87.648674 -29.5179 17.695305 104 111 102
-87.501923 -29.492172 17.70998 77 91 73
-87.305496 -29.513416 17.687181 95 105 89
-87.167023 -29.53179 17.697104 70 88 68
-89.48661 -29.358816 17.681948 89 100 86
-89.275009 -29.314453 17.712433 57 77 56
-89.126198 -29.261911 17.704329 107 114 100
-88.812775 -29.284206 17.770878 72 87 66
-88.72522 -29.350552 17.680439 78 91 68
-88.440414 -29.324425 17.681957 67 81 62
-87.517792 -29.302366 17.711756 106 114 98
-87.33007 -29.289762 17.731554 127 131 117
-86.902626 -29.320608 17.605917 126 130 107
-89.443649 -29.178965 17.666475 136 154 128
-89.334351 -29.161057 17.732771 76 92 73
-89.135559 -29.143217 17.763504 97 107 94
-88.682823 -29.061548 17.706272 75 87 69
-88.451172 -29.084248 17.709925 83 95 81
-88.333717 -29.074183 17.679798 89 102 87
-87.644287 -29.124058 17.765678 108 116 97
-87.529152 -29.089863 17.702452 93 103 88
-87.36351 -29.151779 17.632141 79 89 75
-87.024834 -29.055857 17.664095 97 99 98
-86.959351 -29.067898 17.66124 125 127 123
-89.679741 -28.939838 17.604918 42 73 59
-89.057281 -28.848757 17.734461 90 107 94
-88.994133 -28.892918 17.601948 37 64 44
-88.654831 -28.933865 17.654438 59 83 58
-88.510132 -28.882347 17.675459 79 96 83
-88.324203 -28.896048 17.735813 92 104 95
-88.063187 -28.868572 17.632227 76 93 76
-87.916977 -28.883751 17.708576 73 90 70
-87.731247 -28.85104 17.724321 75 88 67
-87.485123 -28.879398 17.712482 92 102 90
-87.384064 -28.85803 17.676033 114 118 113
-87.020279 -28.950565 17.678524 132 128 125
-86.962166 -28.966341 17.69672 140 137 132
-89.107605 -28.683119 17.664852 61 81 59
-88.910957 -28.663767 17.667765 51 75 52
-88.690636 -28.692051 17.718739 65 83 61
-88.585297 -28.681381 17.742619 68 91 68
-88.201698 -28.74049 17.774963 90 108 96
-88.076454 -28.717928 17.709068 65 83 67
-87.92363 -28.754972 17.761292 82 98 81
-87.698021 -28.680819 17.713633 87 95 79
-87.50264 -28.666719 17.716803 113 117 105
-87.394867 -28.67959 17.782497 96 101 97
-89.082092 -28.474062 17.658937 83 103 91
-88.88089 -28.509434 17.700352 53 78 58
-88.703865 -28.505695 17.711218 70 90 70
-88.558472 -28.514786 17.70068 58 74 59
-87.644257 -28.543438 17.745687 97 104 94
-87.547852 -28.560043 17.760164 123 123 120
-87.236694 -28.415863 17.66577 98 97 102
-87.081863 -28.451218 17.610363 117 124 124
-89.25621 -28.371634 17.620251 94 83 81
-89.093071 -28.297991 17.720598 126 137 129
-88.881142 -28.297758 17.719143 78 94 77
-88.734207 -28.286474 17.724302 62 81 63
-88.531967 -28.264303 17.652027 25 56 33
-87.249153 -28.206863 17.63607 123 126 115
-86.670532 -28.295025 17.664822 79 86 72
-86.549644 -28.243832 17.700256 92 102 85
-89.107056 -28.118958 17.716148 99 109 101
-88.892181 -28.081898 17.708607 77 91 75
-88.720703 -28.112047 17.690344 40 65 43
-88.40036 -28.124222 17.685047 109 120 126
-87.262711 -28.127783 17.638401 105 108 90
-86.838951 -28.105484 17.633818 111 115 104
-86.692314 -28.102905 17.718176 108 112 102
-86.522423 -28.069796 17.692394 126 126 117
-86.336472 -28.080379 17.690371 97 106 90
-89.051331 -27.950354 17.730516 91 111 99
-88.91777 -27.948183 17.718258 102 109 96
-88.736382 -27.895851 17.698185 78 88 74
-88.519958 -27.85281 17.702118 96 110 88
-88.394279 -27.826649 17.709347 60 68 55
-88.073952 -27.861204 17.684706 92 108 88
-87.432022 -27.8873 17.756678 180 193 186
-87.219849 -27.888336 17.724953 134 128 112
-87.095314 -27.90995 17.671228 84 98 73
-86.853935 -27.885117 17.691254 112 115 109
-86.738968 -27.914358 17.74111 104 107 101
-86.50988 -27.934675 17.711874 149 145 136
-86.291969 -27.903625 17.698996 111 116 103
-86.188347 -27.939697 17.672689 52 72 44
-76.254555 -27.94932 17.791794 14 57 5
-76.104042 -27.888716 17.695147 146 157 136
-88.851463 -27.626791 17.622309 78 99 82
-88.712265 -27.681591 17.732588 69 87 71
-88.488899 -27.741983 17.699686 83 88 79
-88.320831 -27.657419 17.668131 93 98 96
-88.052689 -27.669891 17.632927 85 95 87
-87.864944 -27.673235 17.62656 127 131 125
-87.728508 -27.665173 17.656975 150 149 146
-87.582954 -27.612728 17.659693 156 150 152
-87.217445 -27.680149 17.666794 99 111 101
-87.086288 -27.695478 17.686636 71 81 70
-86.920494 -27.742037 17.730946 133 133 128
-86.636925 -27.681213 17.725618 135 139 130
-86.459122 -27.661327 17.693743 136 132 126
-86.294998 -27.711607 17.680775 131 131 123
-86.158279 -27.68499 17.719547 77 96 68
-85.906006 -27.679865 17.648386 34 58 26
-76.277481 -27.720005 17.643864 83 96 61
-76.168747 -27.788832 17.784433 101 106 85
-88.717232 -27.592085 17.718197 33 60 40
-88.439064 -27.518311 17.690079 102 103 96
-88.293228 -27.528389 17.726421 113 116 112
-88.100197 -27.483255 17.708759 124 129 120
-87.902313 -27.496569 17.664434 132 134 130
-87.7416 -27.546087 17.668354 113 118 112
-87.571556 -27.521276 17.685579 141 146 142
-87.296875 -27.475685 17.681692 137 143 133
-87.176498 -27.545326 17.762794 138 144 136
-86.853989 -27.558887 17.711555 93 99 95
-86.651291 -27.47456 17.675215 142 150 139
-86.4842 -27.482519 17.693123 113 110 108
-86.312454 -27.508068 17.69002 150 143 140
-86.113663 -27.475002 17.688879 130 129 125
-85.962585 -27.571373 17.661835 102 92 84
-85.795219 -27.5133 17.701973 37 45 21
-85.497017 -27.51582 17.786404 40 68 28
-82.467773 -27.413832 17.678749 68 77 56
-75.899925 -27.436256 17.638334 20 53 8
-88.854568 -27.253649 17.682474 30 58 35
-88.758507 -27.379555 17.781473 104 122 110
-88.418556 -27.37195 17.758385 134 139 129
-88.044601 -27.294025 17.684048 134 138 127
-87.958015 -27.333349 17.693056 134 138 131
-87.793633 -27.349331 17.629152 111 110 108
-87.34079 -27.299906 17.637909 106 111 111
-86.636887 -27.365551 17.63134 60 71 65
-86.505318 -27.305433 17.731703 132 136 132
-86.063942 -27.326853 17.716541 140 144 136
-85.871201 -27.315098 17.697666 159 157 156
-85.744461 -27.251717 17.697632 152 147 141
-85.584885 -27.260544 17.615149 195 160 156
-82.451965 -27.348034 17.656836 56 75 49
-75.989357 -27.296345 17.737339 35 63 25
-88.878899 -27.109669 17.675684 50 71 53
-88.719032 -27.075214 17.710474 82 94 77
-88.438683 -27.088213 17.714945 115 121 106
-88.282166 -27.028799 17.751955 107 111 100
-88.086945 -27.094767 17.707817 112 121 110
-87.894951 -27.081245 17.666004 128 133 128
-87.714172 -27.095953 17.691652 133 136 132
-87.420479 -27.015663 17.672043 64 61 46
-87.373672 -27.056093 17.692614 135 118 124
-86.444809 -27.02327 17.624664 70 75 71
-86.259377 -27.031897 17.719084 107 108 100
-86.125412 -27.142422 17.719213 124 127 116
-85.866829 -27.064274 17.697737 124 125 118
-85.685417 -27.071875 17.687086 139 135 132
-85.519066 -27.07822 17.671194 115 117 110
-85.305511 -27.077272 17.667547 72 83 61
-85.179924 -27.187706 17.60829 49 64 45
-81.45295 -27.1297 17.613605 105 105 109
-79.279747 -27.052418 17.637703 54 87 60
-76.024704 -27.150938 17.675617 146 143 113
-75.94548 -27.129303 17.67959 108 108 85
-89.457199 -26.850008 17.70422 89 107 97
-89.272156 -26.809187 17.614565 106 116 107
-88.864685 -26.930105 17.665216 72 85 75
-88.644753 -26.908529 17.710716 88 102 87
-88.483139 -26.906834 17.697851 74 88 72
-88.305557 -26.878017 17.694704 89 101 90
-88.089081 -26.897257 17.717833 147 149 147
-87.911026 -26.950066 17.729927 110 115 107
-87.728485 -26.945608 17.728546 144 138 143
-87.481438 -26.893297 17.663523 98 92 100
-87.315941 -26.938046 17.681566 95 95 91
-86.477463 -26.940472 17.690453 83 91 83
-86.276733 -26.912901 17.702671 114 120 115
-86.082451 -26.925468 17.694115 115 121 116
-85.890411 -26.912066 17.681936 131 130 128
-85.702332 -26.900278 17.682041 131 130 127
-85.475548 -26.924509 17.670057 143 136 133
-85.292793 -26.909973 17.683302 138 127 119
-85.188316 -26.887062 17.691759 109 106 100
-82.193848 -26.809561 17.610439 41 58 39
-81.687706 -26.988142 17.601353 120 117 110
-79.43322 -26.843439 17.686113 84 93 79
-79.336884 -26.865259 17.705416 92 102 86
-89.510345 -26.732841 17.718906 149 149 147
-89.286133 -26.768152 17.683403 89 99 89
-89.124664 -26.671967 17.68401 119 125 118
-88.861481 -26.715313 17.666855 119 131 118
-88.693031 -26.72296 17.678421 56 76 57
-88.486092 -26.681587 17.679188 67 84 71
-88.304565 -26.715593 17.718252 87 99 89
-88.120674 -26.700207 17.705687 145 146 147
-87.894844 -26.659227 17.718836 120 122 120
-87.653473 -26.753784 17.748888 98 100 101
-86.242577 -26.798798 17.629314 61 75 78
-86.11673 -26.708277 17.702929 92 94 92
-85.85862 -26.731445 17.674355 128 128 125
-85.712311 -26.67404 17.687958 144 142 141
-85.487984 -26.669161 17.66699 151 147 148
-85.307716 -26.704384 17.652685 139 136 133
-85.132645 -26.655777 17.656895 181 176 177
-82.598618 -26.606777 17.605694 102 122 90
-82.253357 -26.669609 17.638617 132 136 121
-82.118263 -26.65646 17.663118 129 128 119
-81.998779 -26.64749 17.623802 166 139 134
-79.457527 -26.723364 17.691605 66 80 59
-79.369057 -26.74733 17.6996 124 124 118
-89.447823 -26.490875 17.711338 98 102 96
-89.073128 -26.495239 17.691998 125 131 124
-88.922791 -26.534304 17.678654 114 123 116
-88.713821 -26.502834 17.678848 84 97 87
-88.52256 -26.530916 17.722303 72 86 73
-88.302841 -26.559139 17.734152 106 113 107
-88.120529 -26.545708 17.679989 110 113 109
-87.931534 -26.498234 17.795383 125 124 125
-86.282013 -26.481527 17.670496 119 132 115
-86.023827 -26.493177 17.739779 141 146 143
-85.878288 -26.512262 17.668015 117 117 113
-85.718132 -26.489801 17.653708 127 124 124
-85.499138 -26.506685 17.676857 156 152 152
-85.335007 -26.506887 17.684923 157 149 151
-85.191093 -26.525446 17.703094 134 134 128
-82.860748 -26.421207 17.614441 135 129 117
-82.510803 -26.521833 17.649834 144 142 133
-82.250282 -26.503941 17.694687 150 147 137
-82.115578 -26.51343 17.698311 169 164 158
-81.91523 -26.498146 17.673639 185 175 164
-81.423828 -26.495895 17.613844 63 69 57
-79.880791 -26.502655 17.624414 73 90 64
-79.668976 -26.444584 17.655067 94 105 84
-79.547424 -26.501621 17.670256 93 103 86
-79.217545 -26.450314 17.62652 54 71 47
-79.074982 -26.455902 17.690172 47 73 37
-78.958153 -26.447165 17.705095 101 104 88
-89.4505 -26.387955 17.619629 120 128 115
-89.300728 -26.263859 17.692736 83 99 87
-89.117737 -26.313692 17.702564 103 112 105
-88.928772 -26.3508 17.691732 96 104 100
-88.654129 -26.357349 17.682045 94 105 97
-88.50798 -26.29954 17.714327 103 110 102
-88.291977 -26.238613 17.702198 108 113 108
-88.148033 -26.265192 17.712793 71 71 69
-86.219627 -26.362816 17.708271 87 99 85
-86.116623 -26.302956 17.696098 129 133 131
-85.856789 -26.281088 17.683771 148 146 151
-85.696037 -26.290045 17.680281 143 142 141
-85.483788 -26.302418 17.674358 144 138 141
-85.336479 -26.328983 17.690924 147 144 144
-85.101463 -26.232426 17.63221 133 133 130
-83.233658 -26.256224 17.660259 104 115 95
-83.097931 -26.246271 17.69474 113 119 103
-82.977165 -26.292807 17.697128 102 103 91
-81.719627 -26.277607 17.659147 127 126 114
-81.5205 -26.253307 17.65181 147 150 138
-81.367455 -26.221291 17.635853 147 147 134
-80.786278 -26.321062 17.633781 65 69 46
-79.816879 -26.31863 17.688873 126 129 108
-79.719528 -26.318426 17.66441 109 114 98
-79.510536 -26.302467 17.656471 21 50 19
-79.253494 -26.281162 17.696138 91 103 79
-79.135277 -26.310402 17.687653 94 107 83
-78.93219 -26.3587 17.621574 124 129 109
-89.467163 -26.062065 17.692764 105 116 109
-89.304863 -26.138252 17.698151 69 88 73
-89.098701 -26.103649 17.70529 111 117 114
-88.891083 -26.098553 17.683592 131 134 133
-88.667633 -26.048294 17.689171 110 115 111
-88.488693 -26.102577 17.702894 103 106 98
-88.341751 -26.131531 17.736736 125 133 125
-88.16172 -26.042908 17.7969 100 100 103
-86.474304 -26.044638 17.642466 122 138 131
-86.262093 -26.07612 17.677193 118 128 129
-86.088997 -26.109335 17.694613 137 135 139
-85.912956 -26.128157 17.674904 156 154 159
-85.637711 -26.148048 17.718784 143 140 140
-85.490318 -26.121353 17.681889 142 138 139
-85.325676 -26.078695 17.691086 144 143 143
-85.114845 -26.09684 17.713346 150 142 143
-84.926292 -26.055069 17.651316 179 167 174
-84.648743 -26.198538 17.788668 24 57 10
-84.578835 -26.083418 17.607544 103 103 97
-83.233055 -26.155325 17.701559 138 144 134
-83.125816 -26.121473 17.719669 159 155 149
-82.936295 -26.136234 17.72263 118 117 108
-81.841728 -26.053583 17.63405 157 147 139
-81.719872 -26.097998 17.679937 151 144 133
-81.5215 -26.1019 17.696493 142 137 131
-81.328346 -26.079134 17.672499 134 125 120
-80.910019 -26.121721 17.62879 233 219 208
-79.429665 -26.165949 17.648018 88 92 69
-79.27092 -26.156933 17.720417 98 103 85
-79.164238 -26.153641 17.674463 56 73 48
-89.485847 -25.960672 17.70492 71 75 63
-89.350136 -25.982243 17.764174 62 79 69
-88.655396 -25.981655 17.718098 132 137 132
-88.494705 -25.933075 17.685324 113 122 114
-88.308319 -25.899895 17.675884 67 78 71
-86.430679 -25.931021 17.688488 72 80 80
-86.295845 -25.918123 17.691532 111 121 121
-86.106651 -25.932722 17.681013 152 153 157
-85.968269 -25.954254 17.723711 134 138 141
-85.635849 -25.865208 17.613359 83 89 89
-85.449265 -25.964096 17.684376 135 133 134
-85.267952 -25.970537 17.705872 151 144 151
-85.072731 -25.925833 17.673098 165 160 160
-84.884773 -25.904036 17.704454 156 151 154
-84.755043 -25.854527 17.684158 163 158 160
-82.278069 -25.811684 17.684965 131 132 123
-81.835251 -25.954575 17.695375 153 147 136
-81.76622 -25.983868 17.740067 184 168 155
-81.479225 -25.938374 17.700401 160 151 150
-81.319267 -25.88275 17.645027 149 140 133
-81.120033 -25.93701 17.677549 155 128 143
-80.756638 -25.803507 17.623144 179 176 169
-80.502502 -25.916563 17.676367 118 118 111
-80.297356 -25.85931 17.635973 112 110 101
-79.431107 -25.809483 17.711576 25 52 17
-79.271523 -25.842611 17.659876 56 73 45
-79.182869 -25.83271 17.606379 65 91 54
-88.487762 -25.775909 17.697371 152 158 152
-88.39904 -25.754353 17.606163 47 63 52
-88.114571 -25.689047 17.628323 29 43 30
-86.303711 -25.615208 17.651184 121 128 135
-85.269386 -25.698915 17.755917 111 117 110
-85.004494 -25.794697 17.707764 147 148 147
-84.892212 -25.707716 17.687622 162 159 160
