ply
format ascii 1.0
comment PCL generated
element vertex 1073
property float x
property float y
property float z
property uchar red
property uchar green
property uchar blue
element face 0
element camera 0
property float view_px
property float view_py
property float view_pz
property float x_axisx
property float x_axisy
property float x_axisz
property float y_axisx
property float y_axisy
property float y_axisz
property float z_axisx
property float z_axisy
property float z_axisz
property float focal
property float scalex
property float scaley
property float centerx
property float centery
property int viewportx
property int viewporty
property float k1
property float k2
end_header
-9.7048626 5.8753743 0.48313692 109 121 97
-9.485013 5.8895183 0.48348215 107 119 95
-9.3152437 5.9059758 0.51404756 128 130 118
-9.1141338 5.8951941 0.52525347 125 128 118
-8.9048195 5.8653007 0.54203224 119 124 111
-8.693449 5.8864331 0.52944529 115 119 106
-8.5130253 5.9461212 0.5765686 110 116 102
-8.2728052 5.9041433 0.57698429 113 115 105
-8.0275221 5.8473144 0.58226699 109 115 104
-7.9393487 5.9044476 0.58313346 116 117 109
-7.7184911 5.8967628 0.58812624 125 122 117
-7.5055885 5.849308 0.58471596 135 129 133
-7.2729464 5.8581181 0.59060287 141 127 138
-7.100996 5.8912778 0.59207076 152 144 151
-6.9148421 5.8810034 0.58712506 131 125 130
-5.9102368 5.933476 0.57224989 111 113 102
-5.7491236 5.9444456 0.59106684 106 110 97
-5.5829172 5.8726101 0.59658957 113 117 103
-5.3077316 5.8708105 0.59062076 116 114 108
-5.0548911 5.8421998 0.59082156 113 112 107
-4.9296169 5.911468 0.59087396 108 112 104
-4.7312083 5.8648229 0.57551908 110 112 102
-4.486011 5.8950658 0.57533276 118 117 113
-4.3119659 5.9205027 0.57456338 128 125 121
-4.1162901 5.8871875 0.56349951 131 123 124
-3.8966918 5.8889403 0.55519801 136 128 132
-3.6955464 5.9152484 0.55832285 136 127 136
-3.5003459 5.9003863 0.55162954 124 120 123
-3.3066494 5.8838382 0.55358565 120 117 117
-3.0872319 5.9038138 0.53506458 130 123 129
-2.8892863 5.9412193 0.53658628 117 115 113
-2.695529 5.8912168 0.53535748 132 125 132
-2.4914517 5.8869133 0.54566056 135 127 136
-2.316427 5.9096236 0.5539428 134 127 137
-2.1197865 5.913815 0.55187154 123 122 127
-1.9049224 5.9031358 0.55416131 139 133 147
-1.7034938 5.9145226 0.55176085 127 126 135
-1.5178515 5.916398 0.55007273 126 126 135
-1.2968272 5.8908553 0.5395692 130 128 143
-1.0891016 5.8835788 0.52989876 118 116 130
-0.90607953 5.9212399 0.53297508 129 125 143
-0.72441125 5.8878956 0.53338218 132 132 148
-0.49808884 5.8852944 0.52995759 129 125 146
-0.29422268 5.9232826 0.52504671 119 122 133
-0.11670849 5.9035897 0.51651186 126 127 143
0.11058215 5.8739977 0.53415745 138 130 158
0.32003811 5.9031105 0.5496698 139 128 160
0.49484655 5.9196305 0.52363515 145 132 168
0.69149876 5.8706069 0.52417392 141 128 167
0.91192675 5.8884044 0.5430063 131 116 155
1.0638064 5.9868083 0.49103212 118 121 136
-9.8326321 6.021678 0.48158073 106 115 97
-9.7768087 6.0612912 0.43511534 118 127 108
-9.484868 6.1105781 0.51775628 117 125 108
-9.2790394 6.0728168 0.52618867 124 129 115
-9.1087685 6.1081924 0.52824193 123 129 117
-8.9042406 6.087842 0.54480803 121 127 117
-8.6771917 6.0807486 0.56439596 115 123 107
-8.4865303 6.1068525 0.57703447 108 117 99
-8.3147392 6.1154923 0.58398265 116 121 108
-8.0836382 6.0957475 0.59101981 113 117 105
-7.9212689 6.0987916 0.57935405 122 126 114
-7.6795616 6.118546 0.58506536 131 125 123
-7.5309472 6.1166878 0.58047199 136 128 130
-7.2977667 6.0510631 0.58903408 125 125 123
-7.0171514 6.0526252 0.58068848 123 121 121
-6.9647713 6.1618052 0.59869957 116 118 114
-6.4710512 6.1074696 0.59644866 120 118 111
-6.0386596 6.0753436 0.59791803 111 113 101
-5.7671647 6.0673747 0.58059311 153 143 151
-5.5654359 6.1240425 0.5932157 104 108 93
-5.1213617 6.0739942 0.58832884 102 105 98
-4.8431783 6.0925956 0.58041108 109 114 104
-4.6980243 6.0830092 0.570979 110 116 105
-4.4686356 6.1236496 0.56044269 124 123 122
-4.3174071 6.0704484 0.56234843 124 120 119
-4.1353483 6.1234436 0.55889732 128 123 124
-3.8825254 6.1007633 0.55456841 123 117 120
-3.6680872 6.0798969 0.54399347 132 123 131
-3.5048785 6.1010027 0.54835874 135 127 136
-3.3113558 6.1203594 0.55966133 130 123 131
-3.0797875 6.102901 0.54244769 126 124 124
-2.892112 6.1343699 0.55778003 122 123 122
-2.6977584 6.1044345 0.54993224 127 125 126
-2.4983904 6.1073308 0.54226887 140 132 144
-2.2941191 6.0975366 0.54556549 128 128 131
-2.1074154 6.0791483 0.56187665 134 132 140
-1.8967896 6.1157193 0.54591399 126 126 135
-1.6885183 6.0861835 0.54318976 137 131 148
-1.5051078 6.0884213 0.54806173 133 128 145
-1.2918137 6.1014767 0.54473156 127 121 140
-1.0864224 6.1115041 0.53843856 122 121 134
-0.91862631 6.0954061 0.53462666 128 126 143
-0.71391696 6.1079783 0.52356225 132 129 150
-0.5054273 6.1159558 0.52911109 124 124 138
-0.3083756 6.0942135 0.52831352 125 126 141
-0.097888142 6.1009479 0.54549962 127 126 144
0.10291323 6.1074276 0.54692322 135 127 155
0.31362057 6.0945892 0.528678 138 131 160
0.47606149 6.0752954 0.54754424 134 128 158
0.65274084 6.0967574 0.53066289 135 123 160
0.81579757 6.0217323 0.48395014 144 129 169
-9.4316483 6.236495 0.53717351 118 124 111
-9.3098383 6.2696223 0.54858208 119 127 113
-9.0856743 6.2780089 0.5394628 117 123 109
-8.9280252 6.3189964 0.54815251 110 117 102
-8.7318392 6.2970371 0.57338876 113 120 107
-8.4979048 6.2601767 0.58205193 112 118 104
-8.2738571 6.3059874 0.59741282 124 126 116
-8.1384487 6.3001065 0.58375293 118 124 111
-7.8911834 6.2916441 0.58283412 118 122 113
-7.7312322 6.2644877 0.5941596 125 122 124
-7.5806761 6.3275595 0.58584929 126 122 119
-7.293036 6.3450804 0.59204578 112 113 106
-7.0792828 6.2831888 0.58609056 120 120 116
-6.8653154 6.2130208 0.59081078 126 123 119
-6.7322936 6.3742409 0.59751129 123 122 116
-6.2535143 6.3075705 0.58742952 118 116 106
-6.0337009 6.351769 0.58325911 120 119 113
-5.3085208 6.272892 0.59323835 111 109 104
-5.0737109 6.298811 0.58994585 119 118 118
-4.872056 6.2806768 0.56848657 122 122 121
-4.6960239 6.3033381 0.56880766 126 124 123
-4.5114694 6.3255286 0.56034791 130 125 130
-4.3079896 6.2696185 0.56873387 131 127 129
-4.086844 6.2984028 0.55888361 123 119 121
-3.9162076 6.3163419 0.55243051 114 115 113
-3.7055809 6.2857709 0.54025692 130 124 130
-3.4849551 6.311676 0.55600953 127 124 126
-3.2924449 6.3012419 0.55529869 127 123 127
-3.0955806 6.3092422 0.55437493 121 123 120
-2.8920536 6.3155918 0.54583585 126 125 132
-2.6829476 6.3023005 0.54690945 132 129 138
-2.5063775 6.3072329 0.53517044 133 130 137
-2.3038132 6.3016262 0.55367041 128 128 133
-2.0943964 6.2860718 0.549393 130 130 138
-1.8934692 6.3149338 0.5528239 120 124 127
-1.7242092 6.2796922 0.54492426 128 127 139
-1.4990436 6.305881 0.53879738 125 122 135
-1.3103458 6.280107 0.53128916 126 124 138
-1.1120059 6.318819 0.51622254 127 126 143
-0.88925099 6.2873864 0.52317673 120 123 134
-0.68765718 6.2961159 0.51625353 128 126 145
-0.52156693 6.3045392 0.53516996 115 121 126
-0.30452532 6.30585 0.54320204 128 126 143
-0.080114417 6.2983913 0.54618609 138 130 157
0.079786263 6.3354235 0.5551694 128 123 146
0.27180061 6.309226 0.53959781 135 124 160
0.48112124 6.2410307 0.52576411 128 121 153
0.78026295 6.2718692 0.50357771 124 132 140
-9.0924339 6.4845648 0.55446756 112 120 102
-8.9059925 6.4605179 0.56440568 113 121 107
-8.6960726 6.5064054 0.57924873 107 117 102
-8.5029278 6.5197892 0.57758027 114 121 107
-8.2764282 6.4745226 0.58692294 125 126 120
-8.0969334 6.5265455 0.57895434 128 131 124
-7.9974923 6.4546227 0.58070755 125 128 119
-7.7102771 6.4554853 0.59333897 119 117 112
-6.8810964 6.5179691 0.58537149 131 129 125
-6.5210433 6.5977387 0.59832144 113 116 108
-6.3886385 6.4549971 0.57916498 128 125 119
-6.1148138 6.4679141 0.58196926 132 126 123
-5.8567781 6.475399 0.59446692 115 117 108
-5.4598827 6.4958358 0.59054387 129 122 122
-5.2789073 6.4512038 0.59158689 123 118 117
-5.1238894 6.5069642 0.59265649 129 123 128
-4.8992128 6.4963593 0.5691067 131 125 126
-4.6873813 6.5015869 0.56219327 124 121 121
-4.4935064 6.4869246 0.56348431 123 121 122
-4.3039112 6.5186777 0.56562263 113 113 113
-4.0921779 6.4923034 0.56083202 121 121 122
-3.9049289 6.4891343 0.55521816 116 117 116
-3.6949093 6.5124283 0.54948813 116 118 116
-3.4884624 6.5132327 0.55795896 125 127 126
-3.3079734 6.4887285 0.56357849 119 122 117
-3.1030536 6.504324 0.54660428 124 123 124
-2.8717582 6.5024204 0.55212837 117 118 122
-2.6780083 6.4801292 0.5470928 134 131 142
-2.5029321 6.5093818 0.54093528 134 132 142
-2.2948329 6.4862256 0.54099882 128 128 134
-2.09285 6.5001621 0.54330951 122 123 131
-1.9100409 6.4901147 0.53323966 129 126 141
-1.6894339 6.503778 0.54275 115 116 124
-1.5072011 6.5334096 0.53704536 113 115 124
-1.3061781 6.4810805 0.5263961 128 125 141
-1.1006182 6.5058384 0.52997488 129 127 144
-0.89505625 6.5208473 0.54099745 116 118 131
-0.69554973 6.4991293 0.52318943 120 122 134
-0.49417347 6.5034022 0.54300433 118 120 132
-0.28360331 6.4890041 0.54830682 134 129 153
-0.11661963 6.4951363 0.56002802 128 128 145
0.09908504 6.4740396 0.55314624 125 119 147
0.3208971 6.4734464 0.53066021 138 133 166
-8.9011812 6.6718159 0.57826179 107 117 102
-8.6759729 6.6882119 0.57638967 116 126 113
-8.5335903 6.7446246 0.59355688 142 151 140
-8.3324289 6.6802826 0.57512587 112 116 105
-7.8524475 6.6070738 0.59896302 130 129 127
-7.7145901 6.7621617 0.59478617 124 123 118
-7.5947547 6.6171436 0.59041739 117 112 112
-6.5072136 6.7252164 0.5776217 126 123 121
-6.0578842 6.7750492 0.58601999 128 126 124
-5.8160853 6.7457237 0.59319687 114 113 104
-5.7149291 6.7779679 0.58848834 121 118 114
-5.4728632 6.6895056 0.58677697 130 124 128
-5.3106017 6.6778984 0.57562751 130 125 128
-5.1051521 6.7033348 0.57394034 131 126 130
-4.8935513 6.6764998 0.55768669 119 120 115
-4.6946778 6.7064767 0.55397081 128 124 126
-4.49862 6.702394 0.55348659 119 117 118
-4.2968354 6.6957369 0.54916424 114 114 114
-4.1127658 6.6952224 0.54751444 129 125 132
-3.8959787 6.7141457 0.55045813 119 119 115
-3.6757185 6.6896496 0.55856884 124 125 124
-3.5119927 6.6793995 0.55756587 117 122 119
-3.3025177 6.6987457 0.53942186 113 116 114
-3.097446 6.6971955 0.53691411 123 124 125
-2.8946328 6.694809 0.52956992 123 123 128
-2.7040017 6.6901312 0.53404528 136 130 146
-2.4916658 6.7063975 0.53746498 137 134 148
-2.283534 6.6868219 0.54271817 134 132 145
-2.1084833 6.6938581 0.53442699 125 125 135
-1.9027867 6.6889663 0.54649884 120 119 132
-1.6736284 6.6952548 0.53679037 122 122 134
-1.4927081 6.6844387 0.52275193 120 121 131
-1.315518 6.7038393 0.52821642 117 118 128
-1.0848579 6.7243834 0.51790178 122 122 135
-0.91001087 6.7282877 0.53875184 110 117 121
-0.71423006 6.6982284 0.52811408 119 123 130
-0.49633184 6.6869502 0.53776401 121 122 138
-0.31713471 6.668232 0.55715603 137 129 160
-0.11128817 6.6817589 0.54531473 137 130 159
0.098230064 6.7171392 0.53528816 120 120 137
0.24732822 6.7931242 0.53752995 115 129 114
-8.734973 6.8774781 0.57161081 121 128 121
-8.1210785 6.853301 0.58250809 141 139 141
-7.5693521 6.9048071 0.59732485 118 116 115
-6.9318876 6.8684435 0.59492946 115 114 109
-6.7300291 6.9291039 0.56409168 131 130 125
-6.2732353 6.8487005 0.58417916 127 126 122
-6.1467118 6.9219866 0.57799578 129 123 123
-5.8577924 6.9189329 0.58357811 121 115 113
-5.6686115 6.8838449 0.59644842 116 115 104
-5.5378003 6.9111238 0.57691121 121 118 114
-5.3273873 6.9258637 0.56330502 136 128 134
-5.1011353 6.8969584 0.55110919 133 126 129
-4.8519993 6.8401093 0.5536769 126 124 124
-4.701014 6.897975 0.55836171 118 120 117
-4.4985247 6.9125676 0.55556703 119 117 117
-4.2972469 6.8877168 0.56077069 119 119 120
-4.1097064 6.8774619 0.54642844 119 120 122
-3.9229825 6.928174 0.55390036 126 122 127
-3.7145026 6.9060473 0.5461393 122 122 122
-3.4753268 6.8776045 0.54090112 121 122 123
-3.2838042 6.9053855 0.548994 121 122 125
-3.1037588 6.9134235 0.53372622 124 124 132
-2.9124613 6.8916302 0.53663707 127 127 135
-2.7117274 6.9103041 0.53914911 130 130 144
-2.5030077 6.9057684 0.54752612 136 132 151
-2.31266 6.8693924 0.53102404 132 130 145
-2.0853643 6.8816991 0.53025705 124 125 139
-1.8875802 6.9193664 0.54720682 129 131 142
-1.6955934 6.8911209 0.54504752 123 124 135
-1.5093724 6.8922248 0.52432233 126 124 141
-1.3073654 6.8981528 0.52508372 115 117 125
-1.0997125 6.890677 0.51404643 115 116 126
-0.92296439 6.8836241 0.53442502 117 121 130
-0.70857048 6.8863668 0.54506946 114 119 128
-0.49862862 6.9191689 0.55383378 118 123 132
-0.33590105 6.8674741 0.52246559 129 126 151
-0.080583997 6.898221 0.54538751 117 122 136
-7.9986887 7.034874 0.59853363 134 134 134
-7.5691204 7.1884208 0.59664917 127 124 120
-6.8752861 7.0878048 0.56419992 117 117 110
-6.7088332 7.1893497 0.58695364 121 119 117
-6.5044765 7.1342649 0.58283567 123 119 118
-6.2998295 7.0864935 0.56815529 111 109 107
-6.081852 7.099215 0.57804203 117 116 111
-5.9098434 7.1364217 0.57204121 121 116 116
-5.7204394 7.0660782 0.56943738 125 121 120
-5.4776864 7.079289 0.57041901 132 126 129
-5.3004785 7.1233077 0.56957531 125 123 123
-5.1122141 7.0938015 0.55681658 131 126 130
-4.8999038 7.0899186 0.54543489 123 121 120
-4.6877351 7.0451245 0.55409431 121 122 122
-4.500103 7.1102066 0.55470216 114 117 113
-4.3011723 7.0896001 0.55019283 123 123 126
-4.0897708 7.089756 0.54503238 123 122 123
-3.8975792 7.0763803 0.53974044 120 120 119
-3.7416165 7.1136971 0.55258685 132 128 136
-3.4983821 7.1105576 0.54806948 122 122 124
-3.2855699 7.0959702 0.52562106 116 121 120
-3.115227 7.0856314 0.52753115 120 125 125
-2.9004686 7.1058135 0.532794 123 124 131
-2.6868689 7.088316 0.53676605 136 134 152
-2.52685 7.0794916 0.53321326 135 136 150
-2.3012683 7.1145244 0.55567622 128 126 142
-2.0888321 7.0841112 0.54500657 123 123 138
-1.8805349 7.0942373 0.50847638 132 132 147
-1.6980051 7.0973144 0.5278728 127 127 140
-1.4978638 7.126091 0.51643503 127 127 143
-1.2790377 7.0844769 0.5209108 118 119 131
-1.1133505 7.0905914 0.53429908 113 116 124
-0.88454807 7.1049237 0.54960752 112 118 123
-0.70149028 7.1065931 0.5366345 129 128 145
-0.52254117 7.0816422 0.55424845 131 129 152
-0.35475832 7.1057463 0.54594243 119 118 140
-0.17486137 7.0187168 0.54515314 112 119 125
-7.4890275 7.2941952 0.58865261 125 124 116
-7.3006535 7.2016153 0.59671974 123 123 115
-6.8629899 7.3322983 0.58547163 122 120 117
-6.7237124 7.2215524 0.58651352 123 125 116
-6.5811386 7.3419266 0.58844775 117 116 114
-6.3002257 7.3402028 0.58147746 115 114 113
-6.0723982 7.2892485 0.57248557 116 114 111
-5.8548584 7.262516 0.56535411 117 119 107
-5.7329545 7.3312888 0.56452972 137 133 130
-5.5019813 7.2954736 0.56606025 129 125 129
-5.2803507 7.2586479 0.54653311 123 121 120
-5.1109228 7.2905054 0.5547657 130 124 133
-4.9244447 7.3365707 0.55108893 131 126 131
-4.7217565 7.2673283 0.55733228 126 122 126
-4.4699836 7.2728333 0.5419808 130 129 132
-4.3216085 7.315908 0.55843109 133 132 139
-4.1250954 7.2973866 0.5524143 129 128 133
-3.8848164 7.3110342 0.55932719 121 124 123
-3.6984236 7.3181095 0.54036182 123 123 130
-3.5333929 7.2921486 0.55743957 129 128 135
-3.2879097 7.297441 0.54516983 126 128 133
-3.07849 7.2986617 0.56566316 124 127 134
-2.8932996 7.3060989 0.52800256 130 129 142
-2.7236624 7.28651 0.56205189 134 129 152
-2.4959645 7.3022103 0.55092543 122 124 136
-2.2948732 7.3382902 0.56753111 126 125 140
-2.0999751 7.3031206 0.55206788 121 126 133
-1.8914469 7.2783718 0.54233259 135 134 151
-1.6898078 7.3141055 0.54362601 126 125 141
-1.5103662 7.3210602 0.52098674 114 117 125
-1.294538 7.2944083 0.50879967 114 116 128
-1.0957057 7.2927532 0.52427471 113 118 125
-0.93359345 7.2993631 0.54627156 113 115 124
-0.75230128 7.2855244 0.54145294 135 132 153
-0.5176633 7.2858109 0.54419875 118 122 134
-7.5197635 7.5426831 0.59402251 122 126 114
-7.2978983 7.4858937 0.598423 126 128 118
-6.7364373 7.4769149 0.57929629 123 121 119
-6.4952278 7.5034256 0.58278102 120 118 121
-6.3153124 7.585875 0.56855869 124 123 128
-6.1309633 7.5011358 0.57611465 122 119 121
-5.9089432 7.4644141 0.56424505 123 127 117
-5.6495132 7.4475231 0.57018614 124 127 118
-5.5009036 7.5245819 0.56368601 122 125 119
-5.2948961 7.4955654 0.54877949 129 126 132
-5.0537586 7.4710736 0.55830181 126 123 127
-4.906323 7.4790177 0.54291916 109 113 105
-4.7189574 7.4870057 0.53546685 124 125 123
-4.4839859 7.5029931 0.5587728 134 133 141
-4.298389 7.4884582 0.53642368 130 129 133
-4.1308122 7.5258355 0.53623682 124 125 127
-3.9111483 7.5076513 0.53847969 127 126 133
-3.6882863 7.4874969 0.55144346 119 123 127
-3.4797649 7.4746923 0.53420782 128 130 137
-3.3256488 7.516624 0.53419358 118 123 126
-3.0934725 7.5177703 0.55622631 127 127 139
-2.8766806 7.4794302 0.56656098 112 120 120
-2.7184393 7.4926262 0.56103146 116 121 130
-2.4887977 7.5284352 0.56026244 131 128 148
-2.2953696 7.4773288 0.56611866 127 127 142
-2.1034844 7.4921494 0.55672562 125 129 137
-1.8862597 7.5295291 0.55455786 122 129 135
-1.7072384 7.4941621 0.53701705 119 123 132
-1.5217246 7.475204 0.51735359 114 120 126
-1.3171422 7.5247903 0.53479326 115 119 128
-1.0881159 7.5038991 0.54777795 121 124 136
-0.89592075 7.4594898 0.55738503 125 124 141
-0.69232064 7.4916348 0.52942467 107 117 115
-0.57825464 7.470365 0.59389544 93 108 86
-7.6006389 7.7211885 0.599195 124 127 115
-7.4465504 7.6258426 0.58244228 123 125 116
-7.0291491 7.7355499 0.58992529 121 122 114
-6.8698912 7.6148944 0.59253263 118 116 111
-6.699264 7.6978168 0.58810633 118 119 117
-6.513401 7.7086358 0.57894021 120 123 121
-6.3196201 7.6164007 0.57307172 120 119 121
-6.1201634 7.7137337 0.5661459 121 122 119
-5.8862915 7.7553806 0.55373639 127 128 122
-5.6952305 7.6789794 0.55730951 122 129 116
-5.49824 7.6958418 0.56024277 120 122 120
-5.3118887 7.7575703 0.56227368 123 123 126
-5.1065984 7.6994619 0.55613464 124 126 126
-4.9073396 7.6366997 0.54560852 128 129 129
-4.6962581 7.7100625 0.56064725 127 131 129
-4.5038629 7.7212696 0.54595095 130 133 133
-4.2986336 7.7086673 0.55280608 130 131 138
-4.0708346 7.7112975 0.5386892 129 132 137
-3.9109104 7.7045879 0.5488252 133 136 144
-3.7100728 7.7097554 0.53976375 134 133 146
-3.4789016 7.6865439 0.5212115 126 126 140
-3.2731936 7.7032995 0.53982586 136 134 153
-3.1120508 7.6886425 0.55658984 131 133 145
-2.8947988 7.6745191 0.56164509 118 120 129
-2.7042122 7.7240944 0.56919283 133 134 149
-2.5220075 7.6842408 0.5667206 133 134 149
-2.3258209 7.6996856 0.56395197 133 133 147
-2.0714769 7.7259402 0.5450936 121 125 136
-1.9031134 7.6644993 0.56296998 115 125 127
-1.7086377 7.6979465 0.54283231 119 125 133
-1.4822564 7.6870165 0.54997581 119 126 134
-1.277873 7.6156578 0.54645532 109 117 116
-1.1333834 7.7058535 0.55155277 119 124 132
-0.90391397 7.6649303 0.54125571 117 120 132
-0.52804613 7.6163664 0.540658 86 98 76
-7.1882143 7.8829126 0.59509373 128 130 126
-6.8919873 7.8729649 0.58716178 112 115 110
-6.6112599 7.8745275 0.57277393 120 123 122
-6.3277407 7.8877859 0.56959009 123 126 122
-6.0374799 7.9055581 0.56495571 112 115 113
-5.7583733 7.9076133 0.54146481 119 116 118
-5.5036478 7.86659 0.56180227 121 123 126
-5.2736297 7.8390012 0.56480169 112 117 112
-5.1592875 7.9355764 0.55545807 125 127 127
-4.9051027 7.9225898 0.56105167 141 142 146
-4.6565466 7.8953795 0.54877937 122 127 125
-4.5138645 7.936348 0.55580902 112 122 113
-4.3396206 7.8976154 0.55381984 117 124 122
-4.0882468 7.9256182 0.54107034 129 131 136
-3.908067 7.871027 0.5344761 120 127 124
-3.7142177 7.9091191 0.5212369 129 131 138
-3.4971833 7.9050226 0.54220742 132 131 140
-3.2966657 7.8859057 0.52648097 148 147 170
-3.0898061 7.8911233 0.56355298 129 131 146
-2.8926473 7.9292321 0.56267524 121 126 134
-2.6839731 7.9082961 0.55037969 132 132 149
-2.4788628 7.9030681 0.56170046 127 133 134
-2.2866373 7.9150696 0.55833787 116 124 126
-2.0871372 7.8940005 0.53607088 115 120 124
-1.9180951 7.8897595 0.54204011 114 122 125
-1.6691313 7.8770361 0.55457771 119 126 132
-1.5187919 7.9206085 0.55444074 121 128 132
-1.2869419 7.8503799 0.5494262 115 122 126
-1.1217935 7.9168854 0.51870865 113 123 124
-7.3125963 8.0040493 0.59767294 115 119 113
-7.1270385 8.1065073 0.58488148 115 120 114
-6.8868475 8.1592484 0.58278632 127 132 132
-6.6821747 8.0900354 0.5697211 123 125 124
-6.4782023 8.0252905 0.55834818 128 130 130
-6.336164 8.1723967 0.54313898 116 118 113
-6.094718 8.1164055 0.55611354 117 121 119
-5.8946953 8.0321026 0.5409205 119 120 121
-5.718297 8.1402512 0.53639364 116 119 120
-5.5262127 8.1115122 0.57474959 125 128 136
-5.3131857 8.0180807 0.56427765 136 135 142
-5.0973573 8.1033878 0.54829055 130 132 135
-4.9293251 8.1596718 0.54661536 122 126 124
-4.7500639 8.0778151 0.54354727 121 124 123
-4.4654627 8.0857906 0.55088747 119 127 127
-4.2505655 8.0738659 0.55312878 120 126 123
-4.0787749 8.0951738 0.54254401 116 125 119
-3.8724563 8.105978 0.53132534 123 128 129
-3.6941032 8.1002235 0.52740777 134 134 145
-3.5015121 8.1065054 0.54664898 130 134 141
-3.3282554 8.0847483 0.55520463 132 133 149
-3.0689077 8.0930462 0.56871992 129 130 146
-2.8907237 8.0899525 0.57120198 119 125 131
-2.7285204 8.0948782 0.5627979 129 132 143
-2.4869368 8.1440229 0.54314864 120 127 135
-2.2921522 8.0828915 0.52551317 101 116 107
-2.1516092 8.104435 0.54693788 115 121 125
-1.8952925 8.0907764 0.55389178 117 123 131
-1.6664462 8.0907869 0.55947113 117 125 129
-1.5252327 8.0802212 0.54102737 118 126 130
-1.3507808 8.0998316 0.53259063 106 120 112
-7.0207558 8.2888079 0.58917713 115 121 115
-6.753026 8.298748 0.57560277 128 131 129
-6.1918845 8.3090792 0.55129242 116 121 117
-5.8862338 8.2998009 0.55724764 120 123 121
-5.6431637 8.2914991 0.56515789 119 125 127
-5.4907746 8.3138676 0.59467411 120 128 133
-5.3281918 8.3304806 0.54124212 123 125 128
-5.0888672 8.2962446 0.5392909 117 121 121
-4.8757644 8.2356043 0.53239727 115 120 116
-4.7080841 8.3117399 0.55838031 119 127 122
-4.504673 8.335803 0.54473972 117 125 125
-4.293551 8.288146 0.55813754 115 123 120
-4.097991 8.312151 0.53579909 120 127 126
-3.9269612 8.3353567 0.53888112 126 130 133
-3.6859062 8.3263655 0.52472717 131 131 141
-3.4936957 8.2568855 0.54943705 130 133 142
-3.2735443 8.29667 0.56905675 133 131 149
-3.0876343 8.3315039 0.55405122 138 136 157
-2.8870533 8.2666216 0.55700839 134 132 152
-2.6817536 8.2922983 0.53768933 125 130 139
-2.5251546 8.3134661 0.53631097 122 124 138
-2.3103073 8.3084927 0.54302919 116 124 129
-2.0792181 8.2682886 0.53819096 117 123 129
-1.9635677 8.3165359 0.54538369 113 119 123
-1.7370237 8.2714367 0.54591382 125 126 139
-1.463473 8.2699556 0.52190542 101 116 109
-6.9045076 8.4575882 0.57225084 117 125 119
-6.6611104 8.4915266 0.56740493 113 123 114
-6.4652734 8.5952129 0.5691843 111 118 114
-6.3063154 8.4540682 0.57120752 111 118 114
-6.1087785 8.516983 0.55611062 110 117 115
-5.9039755 8.5954952 0.55355263 116 123 124
-5.6932917 8.5102062 0.5546217 118 122 123
-5.4736495 8.4552488 0.55331725 118 121 124
-5.2921243 8.5613756 0.55240983 117 123 123
-5.1636796 8.5221081 0.56670761 109 118 107
-4.9134121 8.486269 0.53612822 109 120 109
-4.6350241 8.4929562 0.55065274 114 123 120
-4.5237112 8.5095844 0.55165434 110 120 112
-4.3203759 8.5209942 0.54029894 118 125 127
-4.0903897 8.466466 0.53663903 127 134 137
-3.9419935 8.4895678 0.52479601 109 118 112
-3.7399242 8.505991 0.53652197 122 126 128
-3.5112443 8.480629 0.55130076 123 127 134
-3.285635 8.5233536 0.55364567 129 132 144
-3.095453 8.4812489 0.51862264 138 141 158
-2.90992 8.5389633 0.50237197 132 134 151
-2.6918807 8.4850235 0.53390425 121 127 137
-2.5002294 8.464469 0.53206432 111 121 122
-2.2787797 8.5184107 0.52917957 126 131 146
-2.0890572 8.5225401 0.5542478 121 124 138
-1.8834124 8.4540634 0.53132039 122 119 134
-1.7825174 8.5057077 0.57008767 131 127 147
-1.5896038 8.4115152 0.49173689 102 111 106
-6.6127148 8.7292318 0.57635927 101 111 101
-6.3149047 8.7303677 0.56157303 112 118 115
-6.0490584 8.733882 0.54550028 109 116 113
-5.8701267 8.6428223 0.58007574 111 119 121
-5.6855302 8.6980448 0.53952432 110 117 116
-5.5110183 8.7260017 0.55592889 106 114 113
-5.2780061 8.7040825 0.54296082 108 119 113
-5.0986843 8.6852875 0.53988123 104 116 105
-4.8976026 8.7729235 0.54320639 112 128 117
-4.7051153 8.6994629 0.54056168 113 124 119
-4.4638767 8.6660328 0.54419649 116 126 122
-4.286016 8.7177219 0.54070163 120 129 129
-4.0814338 8.7573223 0.5271647 118 127 132
-3.8925202 8.6677485 0.54299235 122 131 135
-3.7209158 8.7302465 0.56727356 124 130 136
-3.5080101 8.7129612 0.56238037 122 128 132
-3.3094418 8.6746073 0.54656249 126 129 141
-3.0917177 8.701334 0.51332343 126 132 146
-2.94414 8.7178364 0.51770645 122 128 140
-2.7331283 8.7248726 0.53680766 119 127 132
-2.4658484 8.6923008 0.53849602 115 121 131
-2.2910519 8.6915751 0.53885257 120 125 138
-2.1243422 8.7501612 0.53520745 126 129 145
-1.9238888 8.6503382 0.57099342 125 127 146
-6.4724874 8.8780823 0.55135012 106 117 109
-6.315475 8.9940424 0.57819366 106 117 108
-6.1693516 8.8961582 0.57127923 111 122 115
-5.9189124 8.8803053 0.55746317 111 117 117
-5.6689591 8.8400097 0.56776762 111 119 119
-5.497798 8.8816252 0.58206558 104 117 113
-5.3210483 8.8833523 0.52982998 107 119 112
-5.0474195 8.9148769 0.53117561 107 122 111
-4.8807421 8.830617 0.58559132 113 128 122
-4.739078 8.932292 0.5512045 110 123 113
-4.4765282 8.9166842 0.54101884 110 123 115
-4.2398663 8.8905792 0.54064643 116 129 124
-4.0902591 8.9029922 0.54025626 113 125 121
-3.891129 8.9051723 0.56929117 122 128 135
-3.6590338 8.9058142 0.55857998 140 144 161
-3.4988377 8.9109869 0.55245394 121 130 134
-3.3199537 8.8916368 0.55084068 127 132 142
-3.1097815 8.8946886 0.53046161 114 125 129
-2.8982892 8.8705759 0.54646915 107 122 119
-2.7131164 8.9165449 0.55657881 116 125 129
-2.5031881 8.8995304 0.54100263 116 123 129
-2.2857442 8.8808165 0.54476291 118 126 132
-2.1306024 8.9282999 0.45014143 134 138 152
-6.3332367 9.0086517 0.56110477 109 119 111
-6.0919294 9.0837965 0.55941743 112 120 117
-5.9079547 9.1624794 0.56017685 103 112 107
-5.6699886 9.1294365 0.56802773 102 113 106
-5.4436131 9.0607252 0.56273699 104 117 109
-5.327282 9.1543884 0.54704475 111 124 117
-5.1357822 9.1117554 0.53828424 109 122 113
-4.9170775 9.0560961 0.5285123 107 122 111
-4.6916099 9.1238661 0.54612631 109 122 114
-4.4909472 9.1582594 0.5292064 111 124 120
-4.3021049 9.0973148 0.54926205 115 127 125
-4.0849533 9.0796719 0.57472926 117 125 131
-3.9327633 9.1346874 0.55187863 122 130 137
-3.7555702 9.0736694 0.56428921 129 133 145
-3.4408638 9.1113653 0.54452562 113 122 123
-3.3010406 9.1174603 0.54878628 118 123 136
-3.1197071 9.0832167 0.50884759 113 123 126
-2.8968458 9.1158552 0.54079515 111 122 124
-2.6787283 9.0713387 0.55678266 112 121 124
-2.4923823 9.0984602 0.51723826 123 132 139
-2.3661022 9.1181812 0.53498864 127 128 141
-6.2081261 9.331665 0.59264803 95 109 93
-6.0356288 9.2966766 0.56466961 107 116 110
-5.9071198 9.2588158 0.55257559 78 96 80
-5.7559338 9.3256083 0.56031227 105 121 109
-5.5257893 9.2770815 0.57463902 102 116 103
-5.2578125 9.2797127 0.53769422 108 121 111
-5.1101484 9.2874594 0.56391323 106 119 109
-4.8917046 9.3185444 0.52786297 109 122 110
-4.6422944 9.3478889 0.54709309 113 125 121
-4.4910965 9.2543602 0.57024455 113 125 121
-4.2936683 9.2757473 0.55108535 121 130 136
-4.0749345 9.3104763 0.56863338 117 125 134
-3.8652613 9.2586098 0.5595423 123 131 136
-3.6955245 9.2978582 0.54769951 129 136 146
-3.5149779 9.3046169 0.55243218 114 128 128
-3.2656868 9.2780352 0.54910886 109 119 121
-3.0605922 9.2052145 0.53185821 113 128 128
-2.9593301 9.3125992 0.56422842 109 123 121
-2.7091401 9.3001738 0.55323267 103 118 115
-2.4713929 9.2163782 0.55923748 118 123 131
-5.6188393 9.4524546 0.55054855 112 127 115
-5.5258169 9.5520897 0.5655055 104 120 106
-5.2886505 9.5076485 0.55798376 102 117 102
-5.0411239 9.4736137 0.54162598 109 121 111
-4.8655248 9.5405207 0.50578499 109 122 111
-4.7780261 9.4701281 0.54056233 110 124 118
-4.4930992 9.4796572 0.56600881 109 123 120
-4.2818465 9.493597 0.58076096 115 126 133
-4.1068206 9.4985609 0.55088574 126 134 143
-3.8934419 9.5070353 0.56838614 124 132 142
-3.6673222 9.4462337 0.56441003 136 144 157
-3.4975219 9.4543781 0.54478729 110 124 121
-3.3224089 9.5348396 0.55088997 105 123 113
-3.1038504 9.461174 0.57573056 104 121 115
-2.8721001 9.4635134 0.54184103 105 118 112
-2.7629762 9.5059948 0.5652771 101 117 111
-5.7106643 9.7151985 0.58680665 92 110 90
-5.497756 9.6182261 0.54166365 105 119 107
-5.3049788 9.6945114 0.54498655 99 114 100
-5.0535793 9.7415771 0.54931402 102 118 107
-4.9286284 9.6140833 0.52090836 106 124 117
-4.6825919 9.6810331 0.55219311 104 119 113
-4.5165505 9.7326088 0.5582726 108 123 121
-4.3072152 9.6808195 0.56092918 111 127 125
-4.1486793 9.723527 0.58389229 113 125 128
-3.8886378 9.6684017 0.56559211 129 138 139
-3.7042069 9.6777697 0.55282402 107 123 118
-3.4469202 9.7111206 0.55165505 104 119 113
-3.3620746 9.769166 0.5801208 111 124 122
-3.0991967 9.7423277 0.53265166 99 117 104
-2.8696659 9.6281404 0.55576253 118 128 129
-5.2686238 9.9488201 0.53541088 98 114 97
-5.1948738 9.8835373 0.54577446 99 114 101
-4.9271493 9.8981085 0.54107875 105 123 111
-4.6573477 9.92694 0.56918347 110 126 119
-4.3861489 9.8607635 0.54384089 123 135 137
-4.0858393 9.8770285 0.56711221 108 122 124
-3.7716875 9.9163284 0.58195257 101 118 107
-3.5304751 9.8807144 0.56310618 96 112 102
-3.3141654 9.8976021 0.51999187 103 116 107
-3.0083249 9.8066168 0.48755169 102 124 108
-5.3063259 10.098001 0.54793024 98 116 96
-5.0669684 10.078 0.56497598 99 118 103
-4.9340129 10.134482 0.56437355 114 130 120
-4.7102242 10.101067 0.5632242 112 126 123
-4.4907193 10.022832 0.56064671 114 129 128
-4.3992591 10.1667 0.52856731 114 129 127
-3.9146633 10.052678 0.57210374 105 122 109
-5.415194 10.200259 0.52910709 85 102 76
-5.3257189 10.256207 0.53964162 111 134 105
-5.0843062 10.292627 0.55743349 106 122 106
-4.6965666 10.340235 0.54563332 105 123 118
-4.5414062 10.280979 0.57464504 105 123 116
-5.1018744 10.449728 0.5394547 108 123 109
-4.9182863 10.451646 0.5296464 109 124 114
-4.6848288 10.455715 0.51243258 103 121 113
-4.0663462 -1.7284006 0.63009667 120 122 114
-6.4979286 -1.4889024 0.6012187 140 138 139
-6.1327987 -1.58713 0.60765886 112 117 106
-5.9735904 -1.4261024 0.64359784 109 117 103
-3.6104505 -1.4064931 0.61539078 139 137 133
-3.5168972 -1.4847331 0.61241317 133 132 125
-3.3117025 -1.4461645 0.61773354 147 140 138
-3.1366575 -1.4531714 0.6267578 149 138 147
-2.8477216 -1.5999992 0.60697222 116 128 106
-6.2364855 -1.2182937 0.60201645 130 131 122
-6.0757251 -1.375118 0.64022613 118 121 111
-5.890605 -1.2661775 0.65601575 119 125 114
-5.74575 -1.2006235 0.62199736 95 101 93
-3.492373 -1.3383133 0.62188834 148 144 138
-3.2726729 -1.2765789 0.6235745 139 134 130
-3.1132102 -1.3091087 0.63047099 135 134 126
-2.9247642 -1.2661984 0.63499069 134 131 126
-2.6410489 -1.28881 0.60310078 121 123 108
-6.1130605 -1.0939428 0.61861992 122 129 115
-5.8378811 -1.05424 0.67800713 103 113 101
-5.6784348 -1.0857368 0.64637774 120 127 118
-5.5881019 -1.0258993 0.63700676 113 125 111
-3.6939578 -1.0617472 0.61023688 134 131 124
-3.5127382 -1.122964 0.62338251 128 127 117
-3.319402 -1.0793475 0.61764234 137 133 130
-3.1133955 -1.1099373 0.62677324 136 130 131
-2.9055676 -1.0903112 0.65586102 144 134 143
-2.7157145 -1.0451733 0.63995564 154 140 152
-6.5416622 -0.93606192 0.60721016 116 120 111
-6.2452664 -0.91239637 0.62090635 120 133 116
-6.0891633 -0.86266893 0.65900564 110 122 104
-5.9578824 -0.92802477 0.62431622 112 117 102
-5.6725035 -0.93006337 0.61309576 109 118 105
-5.448544 -0.84665835 0.68263078 123 135 118
-4.1830435 -0.94929552 0.60184431 107 111 97
-3.6451588 -0.97302878 0.6107583 149 149 139
-3.4715135 -0.87047529 0.61154246 137 130 131
-3.3154743 -0.89952505 0.6297766 133 130 125
-3.1164436 -0.88229144 0.63176638 141 132 137
-2.8991225 -0.9032858 0.63634324 146 135 144
-2.7311792 -0.91494083 0.66651535 148 130 152
-2.5675702 -0.85224783 0.66810828 144 126 145
-6.4989033 -0.68112963 0.64369917 120 126 115
-6.2435217 -0.63016415 0.64260793 109 120 104
-5.8971643 -0.7137841 0.61608028 115 119 110
-5.7081261 -0.67862362 0.65567446 112 115 106
-5.4608083 -0.70966202 0.6542713 135 136 127
-5.3027601 -0.70115763 0.63354778 132 136 127
-3.8636925 -0.73333645 0.61446047 136 137 125
-3.6747909 -0.68789274 0.61499101 130 131 125
-3.4845219 -0.69188052 0.61151522 132 130 127
-3.3022988 -0.69366282 0.62310535 142 132 140
-3.1062677 -0.71332604 0.62561911 145 132 142
-2.9102254 -0.69107234 0.63842905 145 132 143
-2.7139068 -0.71167803 0.68040276 150 132 155
-2.4949176 -0.66477036 0.67454678 160 140 168
-2.3098793 -0.64801705 0.69151568 153 137 155
-6.6643667 -0.54138631 0.61440563 116 128 114
-6.3981476 -0.52221453 0.60986996 114 123 108
-6.1103392 -0.50434315 0.63515306 103 111 100
-5.8477664 -0.50560325 0.6167326 108 113 102
-5.7574015 -0.52528161 0.63526201 103 108 97
-5.5352449 -0.52170539 0.64069772 129 128 117
-5.2634783 -0.49355638 0.67523277 105 116 102
-5.0569139 -0.46429107 0.65187263 98 116 101
-4.3447127 -0.44847178 0.62409163 135 132 123
-3.8729548 -0.52618659 0.61737251 148 139 141
-3.7156713 -0.47081518 0.6108284 126 123 118
-3.5188594 -0.50721228 0.6217199 129 126 127
-3.2998576 -0.48384735 0.62339032 143 132 141
-3.1173615 -0.49553171 0.63391364 142 129 141
-2.9002917 -0.49928147 0.63932693 142 130 139
-2.7022953 -0.48828977 0.66243768 150 133 153
-2.4991012 -0.48979467 0.66930062 151 135 154
-2.3152337 -0.48018011 0.71099412 148 132 157
-2.1061349 -0.43790752 0.72185707 143 131 147
-1.8091779 -0.43792272 0.67585278 136 131 123
-6.8675127 -0.30775416 0.61046743 116 124 113
-6.6676211 -0.23232403 0.63947868 108 117 107
-6.5133505 -0.39401034 0.64260459 101 112 100
-6.3337264 -0.28904417 0.62823135 110 118 107
-6.1497912 -0.24555396 0.62197304 105 112 102
-5.8958559 -0.29852 0.63755643 113 119 109
-5.6797757 -0.34468183 0.64271146 115 120 105
-5.5495129 -0.2515474 0.6622507 116 125 106
-5.2959762 -0.28559431 0.66828489 111 120 107
-5.0913086 -0.3299979 0.71313453 102 114 100
-4.9392371 -0.27077666 0.69467479 100 111 101
-4.7848883 -0.20841247 0.61772394 114 119 113
-4.3347535 -0.22970167 0.61705017 115 122 104
-4.0616751 -0.32628471 0.6032002 129 123 125
-3.8970103 -0.27515644 0.60924691 131 126 119
-3.6832423 -0.30461472 0.61955488 125 124 122
-3.5048726 -0.29277116 0.61968702 133 129 129
-3.2902119 -0.28792644 0.63221335 137 132 133
-3.0872543 -0.29342052 0.64169842 137 129 138
-2.8868515 -0.29135215 0.64823133 150 135 152
-2.7115686 -0.29578611 0.66178876 159 139 162
-2.491538 -0.29052284 0.68157667 149 133 154
-2.2941823 -0.31297457 0.71314704 142 130 147
-2.115469 -0.27421886 0.70831829 148 134 155
-1.9335259 -0.26016593 0.70884955 148 138 152
-1.6707821 -0.31240723 0.6523242 138 136 128
-6.8236399 -0.090826906 0.64047241 114 125 111
-6.5284758 -0.11074224 0.62378883 114 118 110
-6.2429767 -0.061768156 0.60815811 117 117 110
-6.1653986 -0.081492983 0.65169907 117 120 112
-5.8759408 -0.11799443 0.66551781 119 118 113
-5.6974792 -0.075512514 0.64221621 118 123 107
-5.4211369 -0.073325142 0.6250844 109 119 102
-5.3629942 -0.10520606 0.64267874 111 122 106
-5.1350093 -0.090403676 0.67032087 110 119 108
-4.8759403 -0.090156518 0.66633588 112 117 109
-4.7270002 -0.084553473 0.6696021 111 121 108
-4.4226508 -0.094100609 0.60809326 122 125 113
-4.1219769 -0.11013526 0.61849499 139 131 138
-3.9036505 -0.074749678 0.62045097 147 131 153
-3.6980855 -0.06920892 0.63859338 136 128 137
-3.4991691 -0.091564566 0.6297552 129 126 126
-3.2861819 -0.093523502 0.64899355 132 127 132
-3.0999908 -0.088921599 0.66269237 135 128 138
-2.8989041 -0.10575986 0.65087348 147 134 149
-2.6940014 -0.10491008 0.67861801 147 135 149
-2.4994872 -0.091312885 0.67706484 138 128 139
-2.3014579 -0.11063065 0.70056278 140 127 143
-2.0863895 -0.10171103 0.71343732 144 132 144
-1.9292152 -0.067809418 0.73490411 154 134 168
-1.7041407 -0.075233191 0.69367242 151 139 149
-1.4876829 -0.095209539 0.69876987 153 142 142
-1.3578497 -0.024293512 0.66708899 146 136 141
-7.4048142 0.17904001 0.60968256 115 121 112
-6.897779 0.12446392 0.60996485 105 115 103
-6.6834517 0.04301725 0.61486912 108 119 105
-6.4430385 0.077910297 0.67409819 112 115 106
-6.3841982 0.037105143 0.65506554 116 117 111
-6.096611 0.03745845 0.64354372 121 118 110
-5.920063 0.12445042 0.6324051 115 118 109
-5.7148318 0.13625635 0.65283281 115 123 110
-5.518836 0.097568631 0.6348083 108 117 104
-5.2747331 0.071319431 0.64998734 114 120 108
-5.0687757 0.13534135 0.65126574 119 120 112
-4.8767796 0.16640791 0.68718785 122 122 116
-4.6660476 0.043051843 0.64460117 116 120 108
-4.5322061 0.11072966 0.64397496 118 123 115
-4.250082 0.048740428 0.60673445 145 137 144
-4.0722976 0.10991248 0.62980723 136 129 138
-3.8818278 0.11925432 0.62612247 123 122 118
-3.6972032 0.12117019 0.63020456 126 126 123
-3.5062871 0.10279054 0.65185314 127 124 125
-3.306742 0.10537072 0.6568892 128 124 126
-3.105345 0.094851196 0.65677816 141 131 142
-2.9087472 0.10204128 0.66227061 151 135 153
-2.6893389 0.094732001 0.67716455 145 133 147
-2.501044 0.092153251 0.68597019 135 126 135
-2.3158743 0.10744702 0.6866889 135 128 135
-2.0966146 0.1105755 0.70308626 143 130 150
-1.9237857 0.071786053 0.70848864 148 133 157
-1.7350265 0.15349978 0.71295941 155 140 164
-1.4826918 0.12955293 0.69936341 144 134 152
-1.313097 0.14464159 0.68695623 139 133 136
-7.5390429 0.31582385 0.63412285 126 126 121
-7.0043659 0.35893542 0.67938519 110 113 104
-6.9864345 0.35093793 0.61946344 102 109 96
-6.7949157 0.2539773 0.6701045 96 108 94
-6.537324 0.20253821 0.60890245 108 117 106
-6.3562622 0.30997968 0.62554789 123 124 116
-6.0620041 0.35825598 0.63814688 125 125 117
-5.8409152 0.26691839 0.65534621 108 117 105
-5.6443686 0.20271903 0.61346817 112 122 108
-5.5117593 0.34103623 0.6366874 118 121 114
-5.2853065 0.31775558 0.6479755 118 121 113
-5.0847883 0.28832358 0.66035944 128 126 122
-4.927804 0.31650707 0.6624034 128 123 123
-4.6855888 0.33066216 0.63962388 130 122 130
-4.5191112 0.32745099 0.64603335 136 130 132
-4.3004346 0.31202698 0.62501603 129 127 124
-4.0920963 0.30516329 0.6200068 130 127 130
-3.922188 0.30353388 0.64673769 129 124 129
-3.6928966 0.29477644 0.64019424 129 126 128
-3.4991665 0.29202175 0.65491951 133 127 134
-3.3124752 0.30594167 0.6537652 137 127 138
-3.0956528 0.29232654 0.67142916 149 135 154
-2.9145424 0.292851 0.66933018 144 134 145
-2.6964965 0.30876237 0.68326509 143 132 143
-2.4984641 0.29857549 0.70221591 141 130 145
-2.2919984 0.29134068 0.70502239 132 126 137
-2.1295819 0.30384639 0.69204187 138 131 140
-1.8990711 0.29799873 0.69194323 159 144 163
-1.6878358 0.30181026 0.70785785 157 143 162
-1.5386895 0.32730436 0.71225423 150 137 157
-1.2896005 0.33250675 0.71309024 139 128 144
-1.1517196 0.32978868 0.67879581 136 126 135
-0.99154323 0.39834535 0.66370821 145 137 143
-7.6539063 0.4645212 0.61872911 108 108 101
-7.4796562 0.52713716 0.61189389 106 116 104
-6.8319449 0.4822022 0.60590601 107 116 104
-6.2971869 0.49095717 0.65175247 115 109 104
-5.9265542 0.49616975 0.61888945 107 116 103
-5.6731062 0.47876152 0.61377001 115 120 111
-5.4764352 0.49780175 0.62552124 125 125 120
-5.3308396 0.46994376 0.62548178 131 128 127
-5.1113009 0.51022762 0.65190345 133 127 133
-4.8694015 0.51086229 0.64768046 143 132 143
-4.7136002 0.50083929 0.62674206 154 136 160
-4.503334 0.5092997 0.64929825 147 134 147
-4.2874265 0.54555982 0.62817848 138 130 138
-4.089591 0.50552619 0.63239765 128 128 128
-3.8993468 0.52762258 0.64262831 130 125 132
-3.7029586 0.50255251 0.653117 130 125 135
-3.4907217 0.48874915 0.64740175 133 127 134
-3.3011875 0.50482273 0.65021729 148 135 150
-3.1096723 0.50785816 0.66682285 143 132 145
-2.8937068 0.48942885 0.6815564 141 134 142
-2.7026749 0.51704878 0.69155955 134 127 135
-2.5093811 0.49787274 0.68774956 135 128 137
-2.2988741 0.48860016 0.69843119 138 130 144
-2.083797 0.48940298 0.69689715 148 136 153
-1.8946319 0.50651127 0.67882961 148 138 152
-1.6915157 0.49363443 0.68728614 153 140 162
-1.510299 0.49611685 0.70552778 148 135 160
-1.3278282 0.5383265 0.72941029 150 134 162
-1.0614982 0.51898777 0.6774106 141 133 137
-0.89366502 0.49432439 0.68235779 134 129 129
-7.8056784 0.61306173 0.61833382 103 115 103
-7.2537346 0.61716968 0.60911894 93 109 92
-6.2715287 0.6728282 0.64765835 130 129 120
-6.0686507 0.6195631 0.61809254 104 116 101
-5.8846183 0.66178101 0.64012951 108 117 105
-5.7018237 0.74572158 0.62200326 114 115 108
-5.4916449 0.64576232 0.62581986 128 128 125
-5.3144445 0.6833685 0.63532323 128 124 122
-5.0840855 0.72423434 0.63783103 144 134 144
-4.8949313 0.70375544 0.64596117 146 136 147
-4.7019076 0.70005625 0.63467556 151 136 150
-4.5111303 0.72147888 0.65478206 138 128 138
-4.3121862 0.71843767 0.63497138 131 126 129
-4.0978165 0.7177844 0.64220816 129 129 129
-3.876106 0.70229822 0.6527971 129 128 132
-3.7094162 0.71231186 0.65653694 134 129 136
-3.5054424 0.70291507 0.67053157 141 131 144
-3.3029578 0.69280666 0.66749865 144 132 148
-3.1026518 0.69970655 0.6658057 141 132 144
-2.8994792 0.70191616 0.67353755 130 126 130
-2.7036526 0.68915391 0.69824243 139 131 145
-2.5124288 0.70387131 0.68656343 139 131 144
-2.2976456 0.71004629 0.68300867 147 138 152
-2.1006684 0.68872553 0.70276308 149 138 159
-1.9010854 0.68267268 0.68974334 143 136 149
-1.7087802 0.70841622 0.67842549 138 128 147
-1.4874038 0.70156509 0.69943172 145 132 156
-1.2790624 0.6894744 0.69355226 142 131 149
-1.126336 0.72679096 0.69906807 138 127 145
-0.88425738 0.71618557 0.65942508 126 118 121
-0.69649673 0.67635173 0.65065747 136 131 133
-7.2293472 0.89299148 0.60714102 105 115 101
-5.830842 0.92039704 0.63450336 111 114 105
-5.6918721 0.8858214 0.61319351 115 119 108
-5.4925604 0.89647841 0.63520491 127 126 125
-5.2795329 0.94397664 0.62758285 140 130 139
-5.1012754 0.89786601 0.63080603 142 131 143
-4.9160333 0.87973237 0.63664466 147 134 149
-4.691875 0.92822319 0.64391333 141 130 144
-4.4909725 0.90167403 0.64173377 133 128 136
-4.2909741 0.90322864 0.6431396 132 129 132
-4.0995793 0.91970038 0.66351247 135 129 140
-3.9106677 0.89270282 0.65965176 135 130 140
-3.7033286 0.89703703 0.6650784 145 135 149
-3.5021956 0.9037714 0.66329104 148 137 151
-3.3101518 0.89106196 0.65885669 141 133 144
-3.0948722 0.88571042 0.6828658 137 128 144
-2.9014361 0.9105674 0.68269742 134 130 137
-2.7044413 0.89354849 0.68163997 131 127 134
-2.4985254 0.90968245 0.69175059 137 132 139
-2.2980173 0.91758943 0.67340899 146 138 144
-2.1042509 0.8926779 0.68105662 145 137 146
-1.9013861 0.89753568 0.6724121 145 136 150
-1.705282 0.93270904 0.66216534 143 134 151
-1.5155693 0.90312493 0.66385961 144 131 153
-1.3036444 0.88753462 0.68371445 147 133 159
-1.1106961 0.90104234 0.67190409 145 133 152
-0.9000755 0.92948633 0.68345487 150 134 160
-0.68994844 0.93225074 0.65938127 138 126 144
-0.48276314 0.88058692 0.63289499 141 131 138
-0.3997921 0.96192193 0.64784622 128 118 127
-5.8897648 1.0979739 0.60610867 118 113 108
-5.699913 1.0964856 0.63418841 126 119 119
-5.4976997 1.1040466 0.63559151 137 129 138
-5.295105 1.1149864 0.6160351 134 127 132
-5.112308 1.0824504 0.6396572 145 134 147
-4.8826666 1.1080568 0.6342392 138 131 140
-4.7237906 1.1176828 0.6424461 134 128 135
-4.5055709 1.10891 0.6501283 130 125 132
-4.2785439 1.1041522 0.65463066 131 127 135
-4.1054974 1.0804865 0.66507053 134 128 139
-3.8988819 1.1013541 0.66053081 137 129 141
-3.6933727 1.1034305 0.66236019 146 135 148
-3.5044353 1.0880924 0.67631882 145 135 149
-3.3047993 1.0988494 0.66931409 133 128 137
-3.12167 1.1043559 0.68927974 136 129 142
-2.9061656 1.0929981 0.67403066 130 127 131
-2.7058427 1.1169323 0.67388314 130 128 129
-2.4881608 1.1183232 0.68014622 139 133 142
-2.297241 1.0937499 0.68614835 149 141 148
-2.1086655 1.1121249 0.68052191 143 136 143
-1.9113157 1.1133946 0.68989825 138 131 140
-1.7018455 1.0886028 0.68983811 147 134 162
-1.5174807 1.0852057 0.67251444 145 133 157
-1.2942438 1.0942087 0.66889495 147 136 156
-1.0797046 1.0914733 0.67617673 150 136 160
-0.90683919 1.0976218 0.68449032 147 135 156
-0.7195031 1.1173711 0.70020854 148 134 163
-0.54250842 1.1251047 0.69161755 142 129 153
-0.30315802 1.1305912 0.62940741 130 119 129
-6.4248748 1.2089529 0.61881828 117 116 110
-5.8993921 1.3209418 0.63266647 129 120 131
-5.6813135 1.310932 0.62567037 140 131 141
-5.4801154 1.308593 0.6347639 134 128 132
-5.3056083 1.2842977 0.64023411 143 133 148
-5.1078486 1.3116432 0.63502485 140 133 143
-4.8914366 1.2897987 0.63682252 130 126 132
-4.6859159 1.2889893 0.65083861 129 125 129
-4.5001526 1.3011407 0.66964245 131 127 132
-4.3212595 1.3055542 0.65515846 135 129 137
-4.1033359 1.2892507 0.67131585 142 132 147
-3.8977151 1.3006402 0.66382921 146 135 149
-3.7050977 1.2893381 0.68131274 141 132 146
-3.4951591 1.3024554 0.68570262 136 129 140
-3.2858348 1.2992165 0.68977398 134 126 139
-3.0982139 1.3041809 0.678581 132 128 135
-2.9037821 1.3037201 0.66089094 129 125 126
-2.6870377 1.282086 0.67337102 138 133 139
-2.5194788 1.2921209 0.66935879 143 137 143
-2.2911696 1.2978482 0.67190981 144 138 141
-2.0919898 1.2974015 0.6596545 135 131 132
-1.9104391 1.3365984 0.65211004 134 130 134
-1.7165476 1.2791671 0.67697239 139 130 148
-1.4813397 1.2961854 0.66723764 140 130 147
-1.2909925 1.3051561 0.67842478 149 137 160
-1.0980096 1.2978388 0.67339784 155 139 165
-0.890652 1.2853558 0.68738496 143 131 152
-0.70166814 1.3071463 0.69461632 142 127 156
-0.49987248 1.31322 0.71138704 139 123 155
-0.29312301 1.2872047 0.61600399 124 116 122
-0.12228894 1.2396805 0.62459207 132 127 132
0.036260903 1.3859711 0.61646318 130 124 133
-7.9803286 1.5907973 0.6219883 107 115 100
-6.2554369 1.5690697 0.62597847 128 122 130
-6.1059484 1.4905583 0.62701499 119 123 117
-5.8794918 1.5384128 0.63772172 137 127 138
-5.6956348 1.4904813 0.64099574 130 123 134
-5.4965696 1.5011325 0.63822621 129 126 133
-5.2842426 1.5138528 0.64578754 135 131 138
-5.0888643 1.4936351 0.64305884 134 128 137
-4.9063087 1.5086809 0.65352702 125 123 129
-4.7113719 1.49914 0.65395069 130 126 133
-4.5053043 1.4905696 0.66777986 133 130 135
-4.3129282 1.4978822 0.65626812 136 131 137
-4.0991936 1.5070057 0.67095655 136 130 139
-3.8912525 1.4934582 0.67140263 142 134 146
-3.6971343 1.5040889 0.67460632 133 127 138
-3.506546 1.5170692 0.6837672 126 122 131
-3.3010862 1.5001961 0.67035627 131 126 132
-3.0944638 1.4939108 0.6675989 132 127 130
-2.9154723 1.4968673 0.66950393 139 131 139
-2.7029405 1.5072815 0.66003382 144 138 141
-2.499572 1.4821115 0.65791255 141 135 141
-2.3037233 1.5183958 0.6537894 136 130 140
-2.1066058 1.5010362 0.66963011 135 129 143
-1.9144439 1.4782679 0.69305968 132 127 141
-1.7127659 1.497774 0.66265571 144 134 154
-1.494716 1.5079653 0.66670406 141 132 146
-1.3102076 1.4641476 0.66018689 146 138 152
-1.0859628 1.5070169 0.68184108 150 137 163
-0.88102055 1.496213 0.69166851 145 131 157
-0.68003756 1.503353 0.67339826 137 124 148
-0.52451187 1.5032879 0.70066082 143 129 156
-0.32079414 1.5097013 0.70913315 143 127 159
-0.11896123 1.5251861 0.68383443 141 125 153
0.18037283 1.5389695 0.6170063 148 137 151
-6.4646025 1.7554055 0.6331495 127 126 128
-6.2897043 1.7286203 0.61778951 151 141 157
-6.120894 1.7066828 0.6299094 145 137 152
-5.9020643 1.7176915 0.62679404 126 126 126
-5.6853385 1.704254 0.64311278 128 123 132
-5.483356 1.7003719 0.63822544 129 124 130
-5.3020525 1.7192993 0.64332688 127 124 127
-5.1111116 1.6891969 0.66178238 123 121 127
-4.901547 1.6947517 0.66533625 124 120 129
-4.689364 1.7116958 0.65468556 129 124 129
-4.5062251 1.7040608 0.67639899 136 132 137
-4.2942829 1.6964961 0.67209244 136 130 138
-4.1161518 1.6998444 0.68214017 146 136 150
-3.9135342 1.6993541 0.69257951 137 130 140
-3.6892443 1.6997383 0.68794918 130 124 132
-3.4865983 1.7098565 0.68114817 123 118 125
-3.3013136 1.7100809 0.68741935 127 122 129
-3.1018753 1.7030467 0.67731184 128 124 130
-2.9154544 1.687637 0.67171603 139 133 141
-2.7078736 1.7004133 0.65906787 135 130 134
-2.4978611 1.6892544 0.67438811 135 130 142
-2.2792768 1.6634355 0.68146586 140 135 151
-2.1070688 1.7152057 0.65799165 134 129 140
-1.8982902 1.706337 0.68259782 133 127 141
