ply
format ascii 1.0
comment PCL generated
element vertex 1113
property float x
property float y
property float z
property uchar red
property uchar green
property uchar blue
element face 0
element camera 0
property float view_px
property float view_py
property float view_pz
property float x_axisx
property float x_axisy
property float x_axisz
property float y_axisx
property float y_axisy
property float y_axisz
property float z_axisx
property float z_axisy
property float z_axisz
property float focal
property float scalex
property float scaley
property float centerx
property float centery
property int viewportx
property int viewporty
property float k1
property float k2
end_header
-72.936272 45.725945 -2.3787122 134 135 86
-77.819702 45.922256 -2.241961 124 127 123
-77.672485 45.879673 -2.2661133 118 118 124
-77.508591 45.89608 -2.3136137 118 119 128
-77.312904 45.899345 -2.3444672 134 127 132
-77.113426 45.895363 -2.3459973 102 101 103
-76.921204 45.915165 -2.321547 110 111 115
-76.751785 45.915131 -2.3685439 113 117 125
-76.583992 45.930645 -2.3747935 127 133 141
-76.245125 45.975464 -2.3410122 137 140 142
-76.139557 45.979717 -2.3587027 153 142 177
-74.444534 45.87606 -2.3189242 154 151 127
-74.297157 45.871902 -2.3112769 145 148 113
-74.1409 45.858494 -2.3049181 132 142 104
-78.001656 46.127312 -2.204138 131 125 137
-77.858215 46.083965 -2.2056086 133 126 136
-77.668533 46.101574 -2.2643592 135 133 142
-77.498619 46.101723 -2.3362296 125 130 142
-77.304916 46.116199 -2.3254912 125 126 132
-77.135216 46.103607 -2.313834 124 122 126
-76.891884 46.106705 -2.3476911 121 120 124
-76.736801 46.070965 -2.3696969 107 110 117
-76.528984 46.079063 -2.3510795 153 157 170
-76.321228 46.074242 -2.3790417 118 122 128
-75.692474 46.189816 -2.3782082 82 92 91
-74.481529 46.02914 -2.3574004 134 133 110
-74.299576 46.056198 -2.3596179 144 144 108
-74.158424 46.027081 -2.371665 144 147 108
-73.655838 46.126923 -2.3939385 112 117 68
-73.596848 46.003769 -2.3552725 113 117 70
-72.510712 46.048496 -2.3994806 103 114 71
-77.875458 46.331257 -2.2146833 126 124 135
-77.695168 46.298981 -2.2551532 118 117 126
-77.497238 46.279488 -2.3155975 125 128 140
-77.310867 46.287121 -2.2955718 137 137 150
-77.125732 46.293663 -2.3327494 165 158 168
-76.911919 46.316444 -2.3362832 123 120 129
-76.747269 46.316959 -2.3410523 113 116 120
-76.515663 46.300636 -2.3502049 97 99 103
-76.377625 46.273087 -2.3397846 110 109 129
-72.108559 46.381844 -2.3809211 125 126 95
-78.288116 46.506493 -2.2091959 105 105 121
-78.13752 46.52956 -2.2046888 116 108 114
-77.995804 46.582226 -2.2013011 119 110 119
-77.694481 46.495316 -2.2458642 126 127 137
-77.523239 46.491035 -2.2642138 128 130 143
-77.327911 46.486465 -2.2768233 146 147 161
-77.125656 46.492954 -2.2988846 146 140 151
-76.906929 46.500557 -2.3238828 143 139 148
-76.749001 46.535473 -2.3419907 145 145 155
-76.527328 46.517902 -2.3332665 106 109 117
-76.32312 46.509392 -2.3473687 116 118 129
-76.153816 46.540119 -2.3905873 120 127 138
-75.933861 46.542671 -2.3868504 107 111 115
-75.481163 46.572617 -2.39189 152 149 170
-72.124336 46.471493 -2.318917 114 118 88
-78.893875 46.782921 -2.2092834 78 72 79
-78.519882 46.671669 -2.2144351 113 110 119
-78.368118 46.710682 -2.2161493 125 117 121
-78.129341 46.667995 -2.2177694 119 118 127
-77.83931 46.722824 -2.2511225 114 114 128
-77.688446 46.702095 -2.2419918 117 119 131
-77.502235 46.686954 -2.2499239 126 130 143
-77.297859 46.687206 -2.2561071 141 143 155
-77.096481 46.702831 -2.2717636 144 143 153
-76.901848 46.692024 -2.34203 138 136 146
-76.698677 46.706043 -2.3476734 158 154 168
-76.521446 46.716118 -2.3312497 136 135 148
-76.288841 46.688496 -2.3303392 104 105 122
-76.129517 46.724129 -2.3669724 127 131 145
-75.917473 46.677345 -2.3663297 102 105 108
-75.514687 46.624825 -2.3510711 146 144 165
-79.038666 46.971901 -2.2021537 150 141 142
-78.95816 46.939606 -2.2072423 76 76 77
-78.480843 46.922562 -2.2145283 144 141 153
-78.306526 46.834553 -2.2011364 208 195 205
-78.072777 46.907852 -2.2231443 169 156 167
-77.910774 46.892277 -2.2104752 129 120 130
-77.692627 46.92305 -2.2290752 143 142 157
-77.483261 46.891872 -2.2525086 115 121 134
-77.287926 46.898705 -2.2462039 127 129 143
-77.082901 46.91082 -2.2685463 141 144 158
-76.896286 46.918167 -2.320056 133 132 143
-76.677216 46.895432 -2.3100028 153 152 164
-76.543236 46.883896 -2.3170958 179 178 190
-76.271385 46.916866 -2.3805206 147 147 157
-75.509636 46.943901 -2.3805809 167 160 187
-75.105553 46.894405 -2.3750288 108 125 87
-74.907333 46.921211 -2.3789449 109 130 80
-74.791519 46.973862 -2.3950393 115 133 88
-70.211853 46.894821 -2.3483529 123 125 102
-79.334488 47.144642 -2.2001102 118 116 119
-78.511307 47.056026 -2.2500806 131 136 148
-78.391487 47.130573 -2.2088187 244 240 255
-77.843414 47.081604 -2.2016919 95 94 108
-77.672653 47.084782 -2.2377877 148 143 159
-77.464859 47.090382 -2.2719388 115 117 128
-77.28846 47.090786 -2.2444365 130 131 145
-77.1007 47.082966 -2.2449322 149 148 167
-76.893181 47.122238 -2.2777557 134 133 147
-76.700294 47.09626 -2.2896523 144 146 161
-76.516068 47.101234 -2.3699853 129 132 144
-76.301117 47.085938 -2.3592243 154 157 172
-76.189362 47.021976 -2.3987637 142 149 178
-75.772552 47.108166 -2.3955288 141 132 161
-75.482513 47.146133 -2.391413 121 117 119
-75.289513 47.116734 -2.3177376 116 130 98
-75.07193 47.105915 -2.3210189 119 140 99
-74.953957 47.106762 -2.3103452 122 149 96
-74.794075 47.192684 -2.381397 105 118 75
-79.434288 47.212753 -2.2143476 78 78 78
-79.346909 47.227936 -2.2182117 121 124 125
-78.281685 47.317909 -2.2239087 95 97 110
-77.878441 47.280891 -2.255758 107 104 117
-77.675529 47.30703 -2.248558 126 121 136
-77.507736 47.270821 -2.248255 97 98 105
-77.302666 47.269539 -2.236865 121 129 141
-77.107185 47.295784 -2.2575328 143 142 158
-76.903465 47.298985 -2.2627981 130 130 142
-76.682014 47.29475 -2.2626755 159 162 178
-76.500473 47.326336 -2.3213499 150 155 171
-76.277702 47.311203 -2.3538067 137 142 164
-76.14444 47.321495 -2.3602254 146 153 176
-75.923737 47.322739 -2.3912172 129 128 149
-75.462967 47.325001 -2.3173828 116 127 105
-75.306221 47.274731 -2.2637095 124 149 102
-75.08783 47.280819 -2.2869899 116 146 95
-74.91861 47.312233 -2.3323143 117 143 89
-74.773064 47.32196 -2.3647468 125 142 84
-71.771622 47.364391 -2.3324618 109 130 73
-77.852539 47.52784 -2.2405767 123 119 127
-77.674637 47.489418 -2.2626936 137 139 157
-77.511559 47.48962 -2.243367 130 130 140
-77.302177 47.515892 -2.2646551 149 142 161
-77.097397 47.519325 -2.2554612 114 118 128
-76.893295 47.506802 -2.2662909 117 119 132
-76.707314 47.496159 -2.2845426 130 133 146
-76.491013 47.496941 -2.3066843 143 147 165
-76.301239 47.515137 -2.3250163 134 140 156
-76.118584 47.488342 -2.3509383 128 136 151
-75.880539 47.568981 -2.3215883 120 125 154
-75.672768 47.539925 -2.3283207 101 115 91
-75.499092 47.515438 -2.3048594 104 119 87
-75.31517 47.500401 -2.319365 100 124 78
-75.061958 47.490688 -2.2799897 120 149 100
-74.912094 47.500454 -2.2979689 126 154 98
-74.78952 47.585381 -2.3944705 119 148 94
-72.570206 47.452282 -2.3370168 111 130 66
-71.9608 47.533813 -2.3211672 111 129 75
-78.108414 47.745415 -2.2360244 184 177 184
-77.923843 47.672485 -2.2233181 140 130 145
-77.695564 47.721313 -2.2507219 188 188 201
-77.510612 47.686234 -2.2507811 149 149 167
-77.285706 47.67326 -2.2558191 142 138 158
-77.11808 47.690617 -2.2661872 122 126 141
-76.905098 47.710506 -2.2626765 135 138 149
-76.689903 47.711308 -2.2806354 143 148 163
-76.499054 47.713181 -2.3094904 118 123 135
-76.291542 47.694805 -2.3230839 122 128 142
-76.115295 47.706211 -2.3288915 130 129 138
-75.903336 47.723984 -2.3090227 115 122 105
-75.702019 47.717766 -2.3087103 96 115 79
-75.52243 47.694771 -2.3010683 93 116 72
-75.310066 47.69511 -2.2956483 106 131 79
-75.110664 47.684235 -2.2827659 120 147 90
-74.896675 47.700062 -2.3104088 130 154 101
-74.735245 47.688343 -2.3348737 132 153 94
-72.485611 47.741467 -2.3329298 112 131 72
-72.353271 47.708672 -2.3157868 104 122 66
-71.877846 47.727169 -2.2809489 114 131 101
-71.716034 47.769745 -2.3585258 120 140 89
-77.448334 47.845402 -2.2553167 148 144 164
-77.283813 47.838219 -2.2482321 134 133 150
-77.096146 47.892406 -2.2351339 152 154 168
-76.900108 47.892731 -2.2635834 144 146 162
-76.709885 47.906158 -2.2748024 160 163 180
-76.499138 47.89473 -2.2931659 115 123 133
-76.313332 47.893105 -2.2982149 117 122 128
-76.127151 47.890503 -2.2771168 124 129 120
-75.924446 47.863461 -2.257355 105 117 89
-75.708359 47.88739 -2.2645197 98 116 76
-75.494164 47.892529 -2.281209 102 123 77
-75.294571 47.891766 -2.2877786 112 134 82
-75.105392 47.903267 -2.2943411 113 134 79
-74.926498 47.881306 -2.3344073 115 133 78
-74.741692 47.859478 -2.3627141 122 136 81
-74.568108 47.9119 -2.3644745 130 142 86
-72.545464 47.901081 -2.2809212 116 127 84
-71.721832 47.80994 -2.3349063 91 110 75
-71.545876 47.842976 -2.3695102 93 110 78
-77.28157 48.043205 -2.2415972 117 118 134
-77.090141 48.07962 -2.2613585 132 130 141
-76.875748 48.095379 -2.237366 154 153 168
-76.694939 48.106472 -2.2774012 132 136 143
-76.506882 48.102398 -2.301044 118 124 128
-76.307404 48.090157 -2.2650812 101 107 97
-76.13353 48.043968 -2.2702792 94 106 81
-75.910156 48.066521 -2.2216403 86 105 59
-75.652641 48.09948 -2.2495704 103 125 77
-75.458946 48.101795 -2.2554297 116 138 86
-75.28434 48.109051 -2.2903659 118 139 82
-75.103271 48.081478 -2.2948027 118 138 79
-74.908844 48.118065 -2.3425658 114 131 77
-74.670914 48.101036 -2.352752 122 130 87
-74.531662 48.117729 -2.3915453 140 151 102
-72.572266 48.028866 -2.3245215 91 106 67
-77.270767 48.251976 -2.2290571 137 143 149
-77.072754 48.254131 -2.2358482 129 130 140
-76.874786 48.309013 -2.2498317 122 121 131
-76.690994 48.290836 -2.2484012 107 111 114
-76.512856 48.275108 -2.2472908 107 120 109
-76.304306 48.279907 -2.2309551 77 96 65
-75.610809 48.311726 -2.2154047 110 130 72
-75.44651 48.3111 -2.2716708 130 141 93
-75.280975 48.286888 -2.307554 126 137 89
-75.074532 48.280952 -2.3209622 115 129 84
-74.883827 48.291691 -2.3273056 115 130 80
-74.672798 48.297054 -2.3306043 130 140 95
-74.501945 48.282898 -2.3119223 136 146 96
-74.259895 48.312042 -2.3676736 147 155 105
-74.142815 48.259068 -2.3474772 149 152 104
-73.258453 48.24205 -2.3892133 128 145 93
-72.761688 48.312897 -2.366466 98 118 65
-77.601555 48.538712 -2.2412395 96 110 110
-77.577095 48.567898 -2.2017398 90 103 111
-77.026688 48.453518 -2.2113745 219 230 236
-76.909828 48.466881 -2.2084985 121 129 133
-76.646881 48.498962 -2.2146184 94 105 93
-76.566422 48.446548 -2.2125638 90 96 89
-76.309303 48.430668 -2.2437706 63 92 43
-75.649483 48.553074 -2.2348721 116 131 85
-75.510551 48.52256 -2.2713635 116 131 80
-75.296173 48.504089 -2.3082645 133 140 95
-75.110283 48.483341 -2.3198538 117 128 82
-74.887062 48.501896 -2.3071675 123 138 92
-74.732452 48.480103 -2.3218753 124 136 95
-74.541428 48.515598 -2.3258595 128 134 96
-74.356094 48.529594 -2.3438504 131 142 95
-74.141876 48.49189 -2.3468556 138 146 98
-73.954781 48.481812 -2.3632383 132 139 97
-73.75547 48.552147 -2.3999047 123 130 89
-73.297264 48.56448 -2.3852713 117 129 83
-73.100044 48.413528 -2.3777001 95 111 63
-72.645958 48.477028 -2.3880217 81 105 50
-72.507736 48.549034 -2.3561463 93 109 62
-71.124092 48.466694 -2.306633 121 131 104
-70.594398 48.536186 -2.3067415 99 101 76
-75.648415 48.738552 -2.2309816 105 122 77
-75.492111 48.706535 -2.2672215 118 132 85
-75.31633 48.696083 -2.323282 120 130 83
-75.14325 48.692799 -2.3359342 123 129 87
-74.902969 48.702667 -2.3192718 123 133 92
-74.703712 48.695019 -2.3233716 127 133 99
-74.508041 48.709789 -2.3022714 134 136 110
-74.313347 48.709824 -2.3416688 130 133 101
-74.126984 48.660088 -2.3531532 128 137 94
-73.899483 48.643803 -2.3290377 135 138 101
-73.654709 48.744949 -2.393158 117 126 84
-73.469299 48.789169 -2.3989499 123 127 86
-73.304192 48.742203 -2.3591175 113 120 79
-73.000534 48.675842 -2.3665419 108 122 71
-72.934067 48.659718 -2.3662944 101 113 63
-71.048546 48.619221 -2.3121786 116 127 113
-70.984711 48.650787 -2.3269017 120 127 118
-75.459877 48.915474 -2.2443759 108 125 79
-75.304321 48.883343 -2.3025608 118 129 87
-75.107079 48.888378 -2.3342936 132 137 97
-74.931465 48.878975 -2.3489089 124 131 93
-74.710281 48.946125 -2.3504589 137 137 108
-74.503616 48.881523 -2.3770328 128 124 112
-74.27459 48.887306 -2.3802004 125 127 106
-74.137634 48.885509 -2.235182 116 122 93
-73.921799 48.840355 -2.35324 115 123 88
-73.752716 48.933662 -2.2523468 135 144 109
-75.43821 49.131702 -2.2191255 124 128 88
-75.284897 49.124886 -2.2769449 119 125 96
-75.078827 49.080841 -2.3167949 131 130 104
-74.883102 49.081486 -2.3329141 134 137 107
-74.715775 49.10569 -2.3209534 143 147 111
-74.33725 49.076916 -2.2866535 108 113 91
-74.122894 49.101913 -2.246228 106 115 86
-73.866051 49.14769 -2.2349086 121 131 96
-73.771652 49.10371 -2.2211971 138 144 112
-72.799454 49.182285 -2.2563386 131 137 101
-72.078842 49.005394 -2.2349732 109 127 67
-71.162033 49.150768 -2.3353813 108 122 87
-75.255798 49.325024 -2.253998 139 136 117
-75.072739 49.287006 -2.3053465 133 135 113
-74.881783 49.270649 -2.341423 135 140 111
-74.686455 49.334473 -2.3287115 137 139 108
-74.395859 49.378723 -2.3751028 116 114 99
-74.078964 49.297966 -2.2028341 115 126 90
-73.654808 49.277962 -2.2740598 125 129 99
-73.429825 49.281822 -2.2527962 119 132 93
-75.428596 49.423836 -2.2196512 135 130 103
-75.293373 49.477509 -2.2275381 138 133 109
-75.095993 49.496246 -2.2792017 131 131 106
-74.882828 49.479717 -2.3230977 132 137 103
-74.720787 49.49107 -2.3207557 131 134 100
-74.488754 49.495625 -2.3451684 132 132 103
-74.303398 49.476463 -2.3830285 134 131 107
-74.194374 49.484955 -2.3131199 130 127 106
-73.876411 49.473465 -2.3937292 162 177 146
-75.430817 49.745262 -2.2359061 139 140 113
-75.329269 49.722359 -2.2205374 127 128 98
-75.079521 49.711784 -2.2425504 130 131 106
-74.926125 49.687729 -2.27618 125 129 100
-74.702034 49.685879 -2.3055913 123 126 97
-74.503693 49.697208 -2.3503344 138 138 111
-74.313103 49.720203 -2.3777685 131 130 103
-74.189041 49.799011 -2.3869781 110 113 77
-73.901405 49.675617 -2.3682415 128 137 106
-75.473595 49.850967 -2.2000675 108 108 82
-75.228706 49.915344 -2.2194424 122 123 99
-75.081871 49.902775 -2.2322602 130 132 102
-74.943863 49.834011 -2.2677126 129 130 101
-74.713203 49.881859 -2.2690523 118 123 95
-74.526794 49.903702 -2.2709761 123 125 101
-74.320663 49.901428 -2.3621848 128 129 104
-74.142143 49.957462 -2.3729606 125 130 104
-75.279892 50.036224 -2.2106748 127 126 92
-75.066566 50.056183 -2.2299557 128 133 99
-74.938675 50.063778 -2.2391143 129 134 103
-74.772255 50.085052 -2.2351575 117 119 91
-74.514656 50.062199 -2.2428961 122 127 95
-74.30304 50.097221 -2.2962272 131 136 107
-74.1129 50.129982 -2.3601265 134 136 106
-73.876045 50.154594 -2.3787315 127 132 102
-73.659401 50.125259 -2.3866529 123 132 108
-73.585747 50.10902 -2.3985577 132 145 112
-73.393127 50.130009 -2.3928781 139 143 116
-75.171799 50.322006 -2.2314949 122 126 93
-74.88131 50.268917 -2.2256653 130 134 107
-74.680161 50.280991 -2.2508457 129 131 103
-74.479347 50.336246 -2.2517982 126 129 97
-74.271828 50.332378 -2.2317665 129 134 100
-74.084129 50.331341 -2.2965739 130 134 104
-73.891716 50.326988 -2.3357246 127 134 101
-73.696571 50.318516 -2.3557351 124 131 98
-74.862091 50.46767 -2.2239993 137 141 110
-74.688301 50.454315 -2.2434258 135 139 112
-74.512138 50.454731 -2.2632663 136 137 113
-74.313866 50.545918 -2.2819836 118 122 91
-74.09462 50.518353 -2.2752349 128 134 102
-73.938828 50.449993 -2.248544 133 141 106
-73.691666 50.50444 -2.2993832 127 132 100
-73.511513 50.466648 -2.3331277 129 132 104
-73.227829 50.594872 -2.3867908 113 119 89
-73.055099 50.510536 -2.3709664 109 125 87
-72.899353 50.520798 -2.331986 120 138 96
-74.68882 50.654301 -2.2152569 139 146 117
-74.461517 50.625755 -2.219667 134 136 113
-74.304489 50.692223 -2.2481246 134 138 108
-74.096382 50.725086 -2.2435772 132 136 108
-73.900581 50.711277 -2.2606816 125 132 98
-73.705627 50.67625 -2.2827663 114 119 93
-73.477798 50.691673 -2.323348 120 122 90
-73.360435 50.709419 -2.3311837 120 124 95
-73.118156 50.742607 -2.369823 109 119 84
-74.124496 50.909843 -2.220829 124 131 96
-73.907928 50.875309 -2.2633464 121 126 95
-73.671211 50.856052 -2.2864208 116 124 88
-73.507439 50.959743 -2.2548232 114 120 74
-73.292542 50.819443 -2.2659373 110 116 79
-73.115158 50.89743 -2.2997158 118 130 88
-73.913986 51.091114 -2.2321677 128 138 97
-73.70002 51.030708 -2.2708089 148 158 120
-73.52021 51.189922 -2.2613883 117 122 90
-73.66172 51.21384 -2.2257891 118 123 89
-74.295189 35.900684 -2.1622322 95 110 53
-74.394135 36.036774 -2.1682725 92 109 55
-77.617699 36.287785 -2.1928232 114 127 65
-74.487541 36.303871 -2.0426545 94 112 57
-74.234451 36.278084 -2.1500225 103 119 63
-79.539703 36.527637 -2.1617031 87 101 48
-77.635818 36.465233 -2.125586 124 136 80
-77.592896 36.451038 -2.1579437 110 125 64
-74.465935 36.506638 -2.1083236 102 118 61
-74.365639 36.442249 -2.0747039 98 114 58
-73.992035 36.453308 -2.1795053 105 125 66
-79.151894 36.772324 -2.1970544 99 107 48
-77.830414 36.725697 -2.1787944 80 90 37
-77.785583 36.751892 -2.1721067 106 115 61
-74.561554 36.691143 -2.0675802 105 122 63
-74.397217 36.720623 -2.0130153 122 142 81
-74.081299 36.619694 -2.0831096 91 111 54
-73.894699 36.758274 -2.1013434 96 114 60
-73.591805 36.758392 -2.0618591 92 113 60
-79.612892 36.85743 -2.1868963 108 131 75
-78.149353 36.938717 -2.1383853 113 129 68
-77.954216 36.874847 -2.1929026 102 115 59
-76.774582 36.994919 -2.1835225 105 115 54
-75.937943 36.932762 -2.1505065 121 132 69
-74.65284 36.901306 -2.0919147 109 126 68
-74.580734 36.873394 -2.111047 99 118 60
-74.309891 36.919746 -2.095309 104 127 72
-74.110802 36.89077 -2.1181409 96 114 59
-73.973969 36.921284 -2.1610718 117 138 76
-73.618263 36.800037 -2.1705306 97 122 68
-73.509056 36.90118 -2.1148038 76 102 44
-78.332359 37.047333 -2.1459851 123 134 65
-77.950714 37.174416 -2.1091497 92 108 48
-77.269409 37.106392 -2.1932702 85 103 45
-76.646988 37.086063 -2.0016859 97 111 51
-76.377747 37.115219 -2.1750362 102 120 65
-76.021889 37.187012 -2.0310183 90 108 49
-75.928596 37.133194 -2.1863863 94 114 56
-74.6287 37.031593 -2.0767286 103 122 63
-74.505905 37.115562 -2.0944855 105 128 70
-74.286224 37.143295 -2.1003079 97 118 61
-74.063049 37.133041 -2.1690035 110 125 71
-73.909348 37.115597 -2.1259785 96 117 62
-73.768555 37.033794 -2.0423114 102 123 70
-73.504181 37.137383 -2.0441427 82 104 52
-73.366989 37.188885 -2.1663678 86 105 53
-79.125465 37.295292 -2.1120234 95 113 51
-78.670753 37.315861 -2.1287472 115 126 67
-78.405968 37.267708 -2.1915436 101 118 64
-78.00032 37.334175 -2.1735556 90 103 47
-77.931229 37.378647 -2.1453393 98 116 61
-77.793068 37.344776 -2.1290085 89 114 57
-77.494583 37.315727 -2.1237061 96 117 59
-77.312317 37.323906 -2.1349516 107 133 76
-77.18396 37.368088 -2.0911536 99 118 59
-76.964859 37.266144 -2.1475971 120 130 69
-76.729668 37.324707 -2.132236 105 124 65
-76.487541 37.329857 -2.0827065 100 118 59
-76.298782 37.332584 -2.1153898 118 130 70
-76.105835 37.361835 -2.0864315 106 120 61
-75.854836 37.244789 -2.1078067 139 159 98
-74.635323 37.219311 -2.1555591 107 129 72
-74.51329 37.363182 -2.150223 98 123 65
-74.324875 37.274513 -2.0952168 108 129 72
-74.106415 37.308479 -2.1077693 114 129 73
-73.904953 37.239471 -2.0303094 98 120 66
-73.651421 37.223354 -2.0461299 118 126 79
-73.448692 37.25946 -2.1025946 123 141 93
-78.959915 37.542252 -2.1863503 136 150 91
-78.743179 37.475563 -2.1054802 97 109 49
-78.572571 37.471317 -2.1773834 102 116 55
-78.070808 37.496189 -2.1358125 104 121 64
-77.917046 37.531708 -2.1079149 84 108 51
-77.684471 37.475479 -2.1337533 72 90 38
-77.419952 37.511154 -2.1218576 99 115 59
-77.243851 37.562466 -2.0586171 88 106 48
-77.165237 37.50666 -2.0007067 94 112 55
-76.881882 37.533821 -2.1603403 126 144 83
-76.703857 37.500237 -2.1182899 102 123 63
-76.493477 37.509739 -2.08198 97 115 56
-76.302643 37.554054 -2.1162696 112 132 70
-76.117325 37.4827 -2.109221 99 117 55
-75.885696 37.45705 -2.1228516 96 113 56
-74.733856 37.424835 -2.1207376 79 103 45
-74.254303 37.481312 -2.0333414 128 145 100
-74.18222 37.547424 -2.039444 119 138 79
-73.943024 37.511028 -2.0717282 96 113 67
-73.735466 37.508263 -2.0788355 89 108 60
-73.486961 37.54427 -2.0935442 88 110 61
-73.359016 37.474701 -2.1117156 100 122 75
-73.127899 37.558018 -2.0741863 104 120 84
-78.700531 37.669838 -2.1559222 119 129 67
-78.495667 37.729805 -2.1160293 111 132 73
-78.282516 37.711708 -2.0726361 111 131 69
-78.108543 37.746857 -2.112443 110 132 69
-77.92598 37.697666 -2.1532383 84 105 49
-77.703339 37.7001 -2.0597069 70 92 37
-77.490662 37.688755 -2.133852 86 105 48
-77.352112 37.756004 -2.0860636 99 119 61
-77.030975 37.689877 -2.1624277 116 134 73
-76.870995 37.702984 -2.1332002 107 129 68
-76.722351 37.678898 -2.1230412 106 128 67
-76.514915 37.717381 -2.1164963 88 109 52
-76.311127 37.65696 -2.0892954 114 132 69
-76.172516 37.759617 -2.129353 112 133 68
-75.925827 37.723476 -2.0561628 83 105 51
-75.758865 37.740807 -2.1291828 72 89 37
-74.52726 37.750977 -2.1134582 95 110 58
-74.092987 37.64397 -2.1149042 107 121 77
-73.876106 37.715313 -2.1066215 90 110 61
-73.519577 37.644241 -2.0438561 90 111 65
-73.355316 37.760727 -2.0489981 90 108 58
-79.392395 37.97448 -2.1206546 96 112 54
-78.469376 37.92297 -2.120075 127 144 76
-78.30748 37.94561 -2.099431 118 141 75
-78.063515 37.88192 -2.1175079 109 131 67
-77.908585 37.897213 -2.1037471 111 131 70
-77.715393 37.886066 -2.0583086 97 120 60
-77.255089 37.924244 -2.1185586 111 130 77
-77.088272 37.87149 -2.0974429 107 124 68
-76.871826 37.887962 -2.1326141 113 136 74
-76.671761 37.914295 -2.1199996 104 127 66
-76.518723 37.903683 -2.1185765 92 114 55
-76.268356 37.908619 -2.1251869 109 127 62
-76.156639 37.85741 -2.0872867 105 122 58
-75.880249 37.81382 -2.1852763 82 101 48
-74.851891 37.935822 -2.1098437 126 142 88
-74.708366 37.930748 -2.0255306 111 119 73
-74.442139 37.919266 -2.0943959 134 146 100
-74.234512 37.874069 -2.0862927 103 119 74
-74.078796 37.987209 -2.0805013 118 136 88
-73.877373 37.953625 -2.1172683 85 103 55
-73.664497 37.912785 -2.0549355 83 106 58
-81.519577 38.100365 -2.1065516 92 111 57
-79.87738 38.047905 -2.1945639 111 125 50
-78.690536 38.017349 -2.1698799 102 116 54
-78.454269 38.020935 -2.092979 107 117 52
-78.27372 38.065136 -2.1286354 128 150 83
-78.103386 38.143963 -2.096457 118 140 78
-77.885864 38.100502 -2.1241896 109 130 71
-77.6754 38.180088 -2.1316178 114 132 75
-77.566383 38.189228 -2.0970616 114 134 85
-77.09613 38.106586 -2.1092508 100 119 63
-76.91674 38.081524 -2.1400254 110 129 73
-76.652336 38.124638 -2.1342843 112 132 70
-76.511261 38.102821 -2.1037059 96 116 58
-76.249802 38.120499 -2.1538813 121 140 76
-76.107819 38.090843 -2.1409545 108 123 70
-75.219345 38.069656 -2.1268468 89 107 67
-74.912384 38.088287 -2.1324167 94 112 61
-74.68441 38.118057 -2.1387062 120 131 84
-74.548477 38.100986 -2.1584258 104 117 70
-74.35083 38.085503 -2.0612266 124 135 100
-74.071991 38.152645 -2.1616623 98 114 70
-73.868484 38.101692 -2.1322663 97 114 67
-73.782028 38.12793 -2.0437229 105 125 74
-79.821175 38.223244 -2.1653056 70 86 22
-79.43914 38.383492 -2.1240571 111 130 68
-79.028694 38.264843 -2.1454923 108 129 70
-78.83036 38.280834 -2.175503 75 91 30
-78.091057 38.292278 -2.0883939 131 151 88
-77.961784 38.289677 -2.0845988 101 117 66
-77.684364 38.26141 -2.1071339 113 131 77
-77.530479 38.307583 -2.089793 109 129 75
-77.119614 38.255093 -2.1173043 111 126 70
-76.927956 38.270805 -2.107312 124 147 90
-76.726395 38.319973 -2.141125 126 146 86
-76.480698 38.282764 -2.1132677 101 117 57
-76.270302 38.323372 -2.09179 104 120 66
-76.186699 38.248768 -2.0989611 120 134 79
-75.911728 38.343575 -2.1944458 110 124 74
-75.018044 38.337021 -2.069149 83 101 57
-74.860092 38.328552 -2.0782955 112 131 81
-74.697083 38.292473 -2.0988774 110 118 70
-74.533028 38.356697 -2.137042 99 111 68
-74.281776 38.332748 -2.1631036 108 130 71
-74.111595 38.331264 -2.0952373 109 124 80
-73.873512 38.284088 -2.0490952 99 121 70
-73.725426 38.288143 -2.1202376 77 95 51
-79.671333 38.512848 -2.1934299 116 132 67
-79.461243 38.470215 -2.1140437 116 133 72
-79.088776 38.566803 -2.1284695 103 120 56
-78.076759 38.536427 -2.1638494 120 132 80
-77.407425 38.510983 -2.0378869 98 118 72
-77.171021 38.443695 -2.0810449 115 118 75
-76.810005 38.414402 -2.0579178 130 146 101
-76.699585 38.535233 -2.0725014 109 125 74
-76.49231 38.485786 -2.076544 103 118 63
-76.338966 38.511292 -2.0862443 96 106 59
-76.036057 38.580482 -2.1518877 119 129 83
-75.992294 38.508194 -2.1792197 118 131 74
-75.066002 38.46159 -2.0774543 98 117 72
-74.885445 38.467373 -2.0704591 105 126 73
-74.704529 38.519745 -2.0664775 106 125 80
-74.532761 38.484684 -2.1009319 91 102 61
-74.263481 38.514011 -2.137059 101 125 74
-74.134506 38.481998 -2.0756025 103 128 75
-73.957245 38.441715 -2.1236184 109 129 80
-73.758034 38.420795 -2.0288854 88 104 61
-82.260605 38.709671 -2.1073685 91 110 54
-81.811134 38.646889 -2.116502 75 97 45
-81.712067 38.771828 -2.1034157 86 108 57
-80.872643 38.725239 -2.1465006 98 117 57
-80.744629 38.730595 -2.1379433 95 112 54
-79.47084 38.62339 -2.0461776 114 135 67
-79.105476 38.699776 -2.1132224 101 120 58
-78.951111 38.740917 -2.1468723 102 124 61
-78.146584 38.672569 -2.1620893 85 98 48
-77.708412 38.769642 -2.1762178 87 93 55
-77.30883 38.673183 -2.1805689 90 108 62
-76.864899 38.678642 -2.0501246 133 144 97
-76.728355 38.692703 -2.1193361 119 135 85
-75.236649 38.673187 -2.1314802 73 98 50
-75.058044 38.633354 -2.1038518 78 107 57
-74.859665 38.644981 -2.02386 89 124 70
-74.651611 38.669125 -2.1080728 102 116 75
-74.487907 38.71994 -2.0975242 82 98 52
-74.297523 38.693142 -2.0834215 88 109 62
-74.087837 38.657639 -2.0509014 74 93 47
-73.896957 38.702194 -2.080616 80 94 54
-72.728264 38.722309 -2.0596006 81 96 67
-81.8741 38.816971 -2.1428633 78 95 41
-80.66098 38.898346 -2.1382899 104 119 65
-80.531303 38.895016 -2.1516025 100 112 65
-79.897827 38.94648 -2.1248739 104 125 67
-79.769997 38.813877 -2.1990802 105 135 76
-79.50515 38.926819 -2.168561 105 123 61
-79.32122 38.955872 -2.1238308 117 140 74
-79.179611 38.914333 -2.142307 103 122 61
-78.911064 38.916203 -2.1315389 106 127 67
-78.789604 38.956757 -2.0913827 100 119 53
-78.446884 38.968666 -2.1864738 96 112 59
-78.134399 38.846134 -2.173527 72 90 42
-77.629311 38.931438 -2.1677263 108 122 75
-77.426697 38.846146 -2.1149101 71 85 37
-77.010986 38.942165 -2.1727912 105 107 83
-76.717316 38.927311 -2.1041491 115 125 86
-76.5896 38.928925 -2.0580754 122 140 93
-76.093437 38.997604 -2.1274486 173 178 112
-75.888535 38.897255 -2.1517556 116 128 79
-75.601715 38.940418 -2.1838078 132 140 99
-75.480614 38.923981 -2.0780311 109 125 76
-75.08503 38.917686 -2.0957975 84 109 58
-74.941841 38.980022 -2.1464605 68 79 26
-74.685242 38.90308 -2.1086617 101 115 72
-74.527321 38.94672 -2.1086948 96 111 67
-74.277115 38.916225 -2.0543358 93 107 65
-74.148392 38.912479 -2.1563869 84 96 57
-73.916138 38.839306 -2.051445 83 95 64
-72.456314 38.973022 -2.1630261 88 94 73
-72.357811 38.962357 -2.1390886 75 90 69
-71.971603 38.993263 -2.1423478 86 100 78
-71.706627 38.992939 -2.1650743 72 92 64
-80.774994 39.032814 -2.1611512 86 104 44
-80.050705 39.155365 -2.1179059 91 113 53
-79.852539 39.120251 -2.08442 98 127 66
-79.579231 39.089813 -2.0716941 88 121 61
-79.39621 39.025589 -2.1897225 110 129 61
-79.098236 39.082504 -2.1108615 128 148 77
-78.891426 39.105515 -2.1009159 101 121 59
-78.770508 39.072727 -2.0928771 111 134 68
-78.472763 39.030163 -2.0848727 112 125 69
-78.250244 39.139786 -2.1905899 112 129 75
-77.482849 39.049564 -2.1338644 84 98 52
-76.929596 39.191128 -2.1932616 96 91 59
-76.674606 39.033287 -2.1176724 112 122 86
-76.518105 39.139618 -2.0768254 118 131 92
-76.258072 39.130684 -2.1244159 92 102 42
-76.063637 39.120609 -2.1179228 106 126 65
-75.887924 39.110237 -2.0971642 100 119 64
-75.68158 39.129311 -2.1107376 113 132 86
-75.494682 39.118011 -2.1032274 105 123 72
-75.301811 39.09959 -2.1303029 124 138 89
-75.086861 39.107357 -2.0949647 104 120 71
-74.850464 39.160069 -2.1048026 105 115 68
-74.679123 39.085796 -2.1188593 107 118 74
-74.517029 39.075165 -2.0982065 107 121 76
-74.296242 39.113602 -2.0711873 87 100 58
-72.677765 39.158165 -2.1016035 93 105 82
-72.528015 39.134304 -2.1217434 85 92 71
-72.123245 39.126698 -2.1386199 87 101 78
-71.783775 39.125744 -2.1360044 79 97 71
-79.905327 39.265213 -2.0949078 100 128 67
-79.620102 39.290787 -2.0809019 107 128 69
-79.508797 39.26992 -2.0021572 87 115 57
-79.111656 39.281883 -2.141669 121 138 74
-78.905136 39.27478 -2.1091907 117 137 76
-78.708862 39.332516 -2.1651945 102 112 48
-77.899902 39.33152 -2.0482845 78 82 45
-77.739296 39.328377 -2.133456 80 88 47
-77.45343 39.302574 -2.1245685 109 120 74
-77.304756 39.305367 -2.0808079 86 100 55
-77.121841 39.333309 -2.0739751 105 101 76
-76.929848 39.34016 -2.070349 109 119 78
-76.687218 39.314724 -2.0612004 103 111 68
-76.50927 39.296459 -2.1093411 105 119 79
-76.352211 39.335499 -2.0685811 120 134 85
-76.084549 39.321812 -2.089236 99 119 58
-75.924286 39.320148 -2.1133239 116 136 79
-75.73481 39.253372 -2.0920975 143 150 104
-75.4664 39.281315 -2.1108854 113 131 78
-75.27578 39.307178 -2.1200168 112 128 75
-75.135597 39.302326 -2.0910404 112 125 79
-74.872879 39.301575 -2.1409745 122 131 83
-74.695938 39.30175 -2.1408362 109 117 80
-74.486984 39.337975 -2.0742028 96 107 70
-74.300224 39.320953 -2.077523 99 112 73
-74.092018 39.317894 -2.100116 97 112 75
-73.278442 39.298851 -2.1631398 78 93 74
-73.129433 39.313679 -2.030483 71 85 67
-72.821793 39.272881 -2.0733242 86 89 72
-72.525772 39.313946 -2.1241698 102 102 86
-72.318726 39.31897 -2.1218805 78 94 64
-71.632019 39.342144 -2.1147025 85 101 75
-71.547424 39.324841 -2.1546807 79 98 71
-83.385643 39.553272 -2.1782107 99 109 49
-82.802803 39.547924 -2.1787887 125 133 68
-82.641998 39.588238 -2.1689374 123 133 68
-81.924606 39.566833 -2.1519051 91 104 34
-81.03746 39.544552 -2.0355077 103 126 75
-79.659569 39.450672 -2.0890028 114 141 78
-79.324852 39.4631 -2.0569644 100 125 65
-79.070419 39.406635 -2.1531873 116 134 70
-78.926971 39.572212 -2.1626089 118 132 70
-78.662445 39.488819 -2.1799998 100 118 59
-78.083786 39.563503 -2.1300192 68 84 36
-77.883148 39.516148 -2.1103511 109 117 77
-77.71833 39.504684 -2.0845838 91 105 59
-77.496254 39.502953 -2.111768 118 127 82
-77.24128 39.542496 -2.084568 120 123 86
-77.11692 39.560158 -2.1143098 98 106 64
-76.910973 39.50959 -2.1024628 109 115 75
-76.739609 39.50351 -2.062835 94 100 60
-76.511497 39.516766 -2.0599723 107 117 83
-76.289383 39.519207 -2.1099811 113 129 85
-76.090904 39.505043 -2.1003573 115 132 75
-75.943954 39.511433 -2.1018896 103 123 66
-75.652534 39.501156 -2.116153 119 134 80
-75.488892 39.515896 -2.107893 101 121 71
-75.28302 39.5079 -2.1069872 97 118 71
-75.09745 39.535591 -2.1069005 109 125 75
-74.888191 39.494186 -2.0839419 122 132 88
-74.685005 39.52058 -2.0917649 100 105 67
-74.434242 39.529827 -2.0491188 98 105 77
-74.318436 39.446457 -2.0724926 87 100 62
-74.067596 39.52536 -2.0449507 94 110 72
-73.971581 39.590405 -2.0766833 102 89 70
-73.777435 39.584446 -2.1990495 75 92 50
-73.426308 39.539291 -2.1856546 95 121 82
-73.282394 39.44231 -2.1176474 88 98 79
-73.037872 39.453876 -2.1887405 113 128 95
-72.878922 39.4916 -2.1260233 102 107 86
-72.68631 39.511887 -2.0836351 98 99 82
-72.517197 39.515854 -2.1398635 86 94 72
-72.27108 39.465828 -2.1464362 93 104 80
-72.10611 39.46553 -2.1656828 92 104 84
-71.88562 39.517593 -2.1436491 92 103 83
-71.660767 39.519978 -2.1100936 83 101 75
-71.437202 39.595028 -2.1987545 93 105 81
-71.307991 39.506912 -2.0785346 77 99 72
-71.024666 39.505127 -2.1847794 76 102 67
-83.897751 39.783344 -2.0371399 105 116 60
-83.593124 39.734058 -2.0484488 120 130 69
-83.339951 39.677032 -2.1039367 101 113 51
-83.041359 39.638451 -2.1730554 109 121 58
-82.926796 39.754421 -2.1344929 115 124 62
-82.742218 39.731094 -2.1886094 114 123 58
-82.571503 39.728687 -2.1621051 115 121 61
-82.216988 39.6754 -2.1930609 113 128 64
-82.176117 39.7318 -2.1816251 103 117 54
-81.881866 39.634464 -2.1322589 98 111 46
-81.751228 39.735718 -2.1945598 90 103 44
-80.287392 39.722485 -2.1265032 103 118 55
-80.165794 39.702015 -2.1161053 115 134 68
-79.92141 39.680199 -2.1948802 68 77 24
-79.63166 39.721756 -2.0852554 118 145 76
-78.857544 39.655994 -2.1640344 81 106 51
-78.678001 39.725925 -2.0431471 99 120 70
-78.580078 39.674091 -2.0784326 88 91 38
-78.329193 39.718475 -2.1184816 118 131 77
-78.067818 39.701054 -2.1203787 77 94 42
-77.872147 39.671501 -2.1162307 91 100 56
-77.704247 39.678658 -2.1050208 106 120 72
-77.407776 39.639854 -2.1070724 96 105 59
-77.280479 39.705368 -2.0903955 111 120 78
-77.087677 39.696472 -2.1022704 103 114 74
-76.900566 39.69062 -2.1216078 103 109 68
-76.72403 39.656227 -2.0685313 96 103 60
-76.468895 39.719212 -2.1085176 122 130 88
-76.275642 39.718273 -2.080544 98 109 67
-76.100075 39.721275 -2.096257 108 119 72
-75.937195 39.709499 -2.0962329 113 131 79
-75.699684 39.743576 -2.0836408 104 126 73
-75.503006 39.689747 -2.1068244 99 119 71
-75.313736 39.710358 -2.0833466 94 116 71
-75.133636 39.707157 -2.0795507 100 114 73
-74.876778 39.695946 -2.1059632 92 105 62
-74.739037 39.674423 -2.108825 99 114 72
-74.526039 39.714935 -2.0873771 96 112 79
-74.283463 39.727787 -2.0749791 91 94 65
-74.107414 39.689941 -2.094744 98 94 70
-73.945923 39.747757 -2.1864133 102 123 79
-73.639809 39.745285 -2.1153865 79 96 63
-73.48333 39.725597 -2.13325 77 94 67
-73.284142 39.674427 -2.0868962 87 98 79
-73.048637 39.701347 -2.1185796 108 109 97
-72.855614 39.697704 -2.1168125 91 100 77
-72.735184 39.721706 -2.1229765 91 98 81
-72.535706 39.708771 -2.1031394 96 101 80
-72.278732 39.719593 -2.1344633 102 114 87
-72.068489 39.700768 -2.1062627 97 110 85
-71.897476 39.699116 -2.1656706 89 105 82
-71.658821 39.720306 -2.0890131 82 99 70
-71.541351 39.704517 -2.0989439 90 108 80
-71.300011 39.717613 -2.0954022 85 104 80
-71.079231 39.652843 -2.1353936 85 109 82
-70.878235 39.735817 -2.0191777 108 126 114
-84.011116 39.912804 -2.0081565 100 112 53
-83.780289 39.857555 -2.087203 103 111 58
-83.589294 39.885803 -2.0510709 100 110 56
-83.287964 39.845898 -2.079814 108 122 58
-83.158104 39.927109 -2.0964406 107 122 55
-82.880196 39.954029 -2.1032434 105 114 57
-82.688873 39.88789 -2.0658274 118 124 64
-82.573982 39.946194 -2.076103 126 132 71
-82.363327 39.883991 -2.1936259 113 117 58
-82.095657 39.936665 -2.139487 114 127 65
-81.785301 39.876987 -2.159765 100 110 49
-80.402405 39.89156 -2.1841803 83 98 43
-80.292801 39.914268 -2.1778705 114 128 62
-79.601387 39.814518 -2.0656018 106 134 66
-78.759903 39.926823 -2.0244598 99 118 66
-78.502144 39.922211 -2.0744727 102 122 70
-78.315613 39.867714 -2.1143606 120 133 82
-78.112061 39.914028 -2.0404115 114 130 74
-77.902061 39.867538 -2.0919733 98 112 60
-77.680489 39.978031 -2.179877 107 132 77
-77.422714 39.828068 -2.0288687 119 135 90
-77.072639 39.901611 -2.0918908 103 115 68
-76.905144 39.949459 -2.1571825 117 130 83
-76.682869 39.891529 -2.0792844 110 120 76
-76.492104 39.912308 -2.0584888 101 115 67
-76.315536 39.901913 -2.067286 101 113 80
-76.096527 39.901485 -2.0953839 112 123 82
-75.886299 39.915672 -2.0963597 96 117 69
-75.680939 39.920933 -2.1101112 95 113 67
-75.487694 39.90062 -2.0861073 100 116 71
-75.304306 39.900887 -2.0700662 100 119 76
-75.104034 39.931343 -2.0970359 86 103 65
-74.92453 39.899822 -2.0521829 93 109 68
-74.692139 39.940674 -2.0688264 86 101 65
-74.49041 39.903194 -2.0820618 94 107 75
-74.29213 39.883411 -2.0890939 97 105 81
-74.021576 39.958378 -2.0853062 68 105 53
-73.707787 39.916237 -2.0952568 77 98 62
-73.507034 39.905594 -2.098516 90 106 80
-73.362206 39.927231 -2.0827549 101 118 93
-73.118103 39.89978 -2.1325355 113 103 90
-72.873466 39.920975 -2.0964551 101 112 83
-72.669182 39.927994 -2.1072609 100 106 87
-72.532166 39.92469 -2.1213667 89 99 71
-72.294434 39.909405 -2.1301641 102 111 86
-72.088371 39.90958 -2.126359 89 99 74
-71.910042 39.919216 -2.1420741 96 110 88
-71.717575 39.895535 -2.1090231 94 111 84
-71.538742 39.912682 -2.1491516 103 115 94
-71.242317 39.887264 -2.0840492 89 109 83
-71.108932 39.864536 -2.0819466 83 105 82
-70.860352 39.919579 -2.1196876 88 105 85
-83.656593 40.057827 -2.0226409 103 110 59
-83.511337 40.121758 -2.0357559 110 114 64
-83.299553 40.077007 -2.0589087 103 113 54
-83.130798 40.073902 -2.0627472 103 117 51
-82.900589 40.100121 -2.0886583 102 116 58
-82.701195 40.121891 -2.0616448 117 124 66
-82.512611 40.075737 -2.0839257 122 133 69
-82.316933 40.102051 -2.1613262 114 123 63
-82.103249 40.100281 -2.1237438 115 122 62
-81.948929 40.137329 -2.110229 119 130 64
-81.752907 40.072964 -2.1864901 111 119 62
-81.540588 40.024315 -2.1547592 120 128 64
-80.655701 40.191788 -2.187861 98 113 49
-80.439651 40.103214 -2.1929424 106 128 63
-80.32193 40.054581 -2.1317091 102 121 56
-80.106972 40.006481 -2.156486 163 177 100
-78.832687 40.148014 -2.166389 104 115 59
-78.743141 40.098869 -2.0951917 106 122 68
-78.439911 40.082691 -2.0943768 106 129 79
-78.307503 40.101158 -2.0895183 113 124 78
-78.085381 40.094837 -2.1234434 120 138 80
-77.891281 40.064201 -2.1007607 109 130 73
-77.746414 40.114693 -2.1143038 93 114 61
-77.516251 40.113186 -2.1136529 99 110 68
-77.25338 40.09861 -2.1312664 104 124 73
-77.070946 40.09803 -2.1186264 94 117 62
-76.905991 40.10099 -2.1211433 100 118 69
-76.708855 40.11787 -2.1075492 117 131 85
-76.486656 40.110348 -2.0864353 105 123 73
-76.299072 40.090904 -2.1096764 104 119 73
-76.086647 40.112415 -2.0833683 102 110 76
-75.908897 40.100918 -2.09741 96 116 72
-75.716599 40.095448 -2.1097741 92 112 68
-75.511169 40.0905 -2.0787916 107 119 79
-75.296982 40.106636 -2.1051412 109 123 86
-75.079926 40.087193 -2.0769894 88 103 69
-74.913971 40.115475 -2.0911481 85 97 64
-74.700737 40.106548 -2.11813 86 102 71
-74.50975 40.094578 -2.0456138 90 100 72
-74.327057 40.097725 -2.0923765 93 102 76
-74.097717 40.090099 -2.1139281 92 102 76
-73.897148 40.153561 -2.1365254 74 94 55
-73.678505 40.110905 -2.1290934 88 105 82
-73.484077 40.130432 -2.1256609 89 99 76
-73.303581 40.122055 -2.1385579 97 102 85
-73.135155 40.146416 -2.1841941 103 103 86
-72.866211 40.11314 -2.1515758 88 107 76
-72.692177 40.088055 -2.1264219 100 109 85
-72.510025 40.104893 -2.1028645 101 113 87
-72.309334 40.070023 -2.1156855 102 105 86
-72.115723 40.100704 -2.1515839 96 109 77
-71.90921 40.113754 -2.114816 97 112 83
-71.731689 40.064396 -2.0709574 93 110 91
-71.233742 40.107105 -2.117444 81 96 73
-71.131187 40.110931 -2.1143384 87 101 79
-70.891037 40.047501 -2.0743232 84 102 78
-70.768318 40.125713 -2.119031 102 115 92
-83.336014 40.27877 -2.051506 111 118 63
-83.069588 40.301327 -2.043412 92 102 46
-82.909439 40.283337 -2.0223281 107 118 62
-82.628448 40.208847 -2.1349645 109 119 58
-82.525063 40.319946 -2.1301849 120 125 70
-82.300995 40.309559 -2.1187608 117 121 65
-82.095772 40.286243 -2.1521239 125 129 67
-81.864014 40.304947 -2.152653 123 132 66
-81.688568 40.311028 -2.1499467 120 128 60
-81.225037 40.36166 -2.1924713 103 119 53
-80.834335 40.331257 -2.1903338 99 117 57
-80.731529 40.282085 -2.1435442 101 120 59
-80.022697 40.30674 -2.1243267 139 150 92
-79.059723 40.379147 -2.1422002 107 117 59
-78.88179 40.338226 -2.1562123 115 128 66
-78.645508 40.293415 -2.1287656 103 123 67
-78.48365 40.31757 -2.1073177 103 130 75
-78.32679 40.337055 -2.1076071 118 135 78
-78.130508 40.258259 -2.1048515 112 131 72
-77.90799 40.319054 -2.1003015 100 118 62
-77.728981 40.310112 -2.0949106 92 109 57
-77.57782 40.297226 -2.1068649 94 108 63
-77.301903 40.316746 -2.114965 85 100 51
-77.052582 40.35318 -2.1362374 126 140 95
-76.906113 40.294441 -2.1110921 104 128 80
-76.705711 40.276463 -2.1140926 110 127 82
-76.487106 40.315884 -2.1104639 105 126 79
-76.290199 40.318596 -2.0875053 97 116 72
-76.10627 40.310261 -2.1117487 98 112 76
-75.895569 40.308281 -2.1188321 95 108 73
-75.692764 40.299419 -2.1079695 92 109 70
-75.480225 40.298977 -2.0735235 95 109 74
-75.295586 40.327366 -2.0798402 99 112 79
-75.095139 40.288902 -2.1012311 91 102 67
-74.899506 40.322792 -2.1045203 82 101 64
-74.708054 40.309769 -2.0917609 83 98 69
-74.510239 40.320847 -2.1239986 85 99 69
-74.291496 40.307148 -2.094877 87 97 70
-74.086967 40.271084 -2.0925002 86 94 72
-73.909943 40.28669 -2.0481682 94 107 81
-73.679062 40.303093 -2.071054 104 115 92
-73.513779 40.307171 -2.0955858 99 108 83
-73.288216 40.270645 -2.1147892 97 103 84
-73.106537 40.31234 -2.1161673 129 124 106
-72.847275 40.259377 -2.1193142 109 117 99
-72.688606 40.333969 -2.1205692 103 116 84
-72.525192 40.32687 -2.1286817 104 119 86
-72.295929 40.280273 -2.1408544 103 114 89
-72.081062 40.314041 -2.0906255 108 123 88
-71.905449 40.264835 -2.1450698 99 116 89
-71.407547 40.368259 -2.18362 81 97 64
-71.267708 40.295944 -2.1199145 95 109 84
-71.12281 40.281612 -2.1356204 91 107 85
-70.872246 40.276527 -2.0549929 88 104 82
-70.718277 40.334438 -2.1822405 87 104 86
-82.931122 40.524311 -2.0075617 111 123 68
-82.690018 40.505951 -2.0504878 111 118 61
-82.495384 40.501446 -2.078059 112 121 66
-82.297493 40.512627 -2.0854542 116 123 65
-82.140511 40.500484 -2.1586857 119 124 66
-81.952393 40.51667 -2.1777496 116 124 61
-81.660797 40.484318 -2.1447918 114 122 58
-80.894211 40.409737 -2.1618831 116 135 74
-80.703812 40.489796 -2.1002812 95 113 62
-80.063286 40.502464 -2.1453817 122 137 68
-79.983109 40.403912 -2.0949166 83 104 45
-79.053917 40.531536 -2.1714516 120 128 71
-78.918304 40.513805 -2.1112268 116 129 66
-78.68882 40.503174 -2.1372149 115 130 68
-78.508545 40.479702 -2.1221781 114 134 76
-78.304558 40.52327 -2.1000085 113 135 76
-78.117233 40.507187 -2.132201 114 131 72
-77.891342 40.499264 -2.1242144 105 122 66
-77.680473 40.494835 -2.1102259 91 107 56
-77.480431 40.524544 -2.1014807 92 108 59
-77.30616 40.516098 -2.0969193 86 99 53
-77.108864 40.542103 -2.1261771 119 132 95
-76.903984 40.488888 -2.1054754 108 126 76
-76.68573 40.503788 -2.1030195 111 129 85
-76.491417 40.494831 -2.1125524 107 126 84
-76.287338 40.501038 -2.1172099 103 123 80
-76.10601 40.503616 -2.0927868 99 113 75
-75.894096 40.5 -2.1013434 105 119 82
-75.688126 40.513149 -2.092767 99 113 80
-75.49202 40.510036 -2.0924292 91 105 67
-75.33358 40.51115 -2.1005065 102 109 81
-75.10733 40.49527 -2.0959241 91 109 73
-74.89518 40.519936 -2.0911858 85 102 66
-74.700623 40.526421 -2.1005857 84 99 70
-74.492195 40.505322 -2.1094072 85 96 66
-74.290375 40.504066 -2.0920124 94 105 80
-74.109291 40.510475 -2.0901573 92 103 77
-73.92189 40.512806 -2.1187165 95 104 83
-73.692513 40.496769 -2.0826755 104 116 92
-73.502922 40.51049 -2.1091433 95 108 80
-73.313217 40.511539 -2.1054504 108 118 90
-73.144455 40.457096 -2.1084521 102 112 77
-72.842545 40.419456 -2.0596533 103 109 92
-72.690033 40.496529 -2.1182566 108 118 81
-72.526314 40.494671 -2.1332598 105 120 83
-72.29528 40.476597 -2.1014085 109 123 91
-72.135529 40.463215 -2.1070552 113 129 95
-71.97905 40.53619 -2.0937459 102 122 96
-71.461784 40.449875 -2.0661075 101 115 82
-71.239227 40.526375 -2.0675213 130 134 120
-71.107155 40.492107 -2.1350517 91 100 83
-70.832191 40.509464 -2.0771372 107 123 100
-70.735809 40.466198 -2.1259046 84 100 84
-82.852638 40.706039 -2.0639319 103 118 65
-82.687607 40.688648 -2.0678902 112 121 63
-82.44416 40.684128 -2.1203344 102 114 56
-82.34919 40.69379 -2.1111557 104 116 60
-82.107643 40.644253 -2.1426301 117 126 67
-81.893745 40.708897 -2.1389322 116 123 62
-81.632874 40.71209 -2.1620562 129 141 70
-81.523102 40.727619 -2.1739981 120 133 67
-80.695854 40.682205 -2.0941131 108 139 77
-80.588966 40.672981 -2.1625831 93 123 60
-79.94445 40.692932 -2.0239613 132 151 86
-79.511238 40.756721 -2.1094227 134 154 83
-79.067413 40.651245 -2.139884 117 131 71
-78.898727 40.711487 -2.1301112 127 134 70
-78.688446 40.729404 -2.1322496 124 138 71
-78.520462 40.689781 -2.1142015 113 132 71
-78.279915 40.68507 -2.1301854 110 132 74
-78.119949 40.726898 -2.0939445 103 123 63
-77.896263 40.662003 -2.1194174 107 122 63
-77.708267 40.69817 -2.0933561 107 123 65
-77.50145 40.690796 -2.105443 101 113 63
-77.308136 40.711102 -2.1086862 103 120 71
-77.084381 40.699966 -2.0985148 106 121 73
-76.869453 40.669025 -2.1386471 97 115 69
-76.701393 40.690582 -2.1113079 116 131 85
-76.48455 40.702118 -2.1162214 111 128 84
-76.29435 40.725231 -2.1225512 103 121 78
-76.089851 40.695293 -2.1236022 97 113 76
-75.891373 40.69569 -2.1116705 101 115 79
-75.689323 40.70311 -2.1202855 105 118 86
-75.532677 40.708004 -2.113194 101 113 80
-75.276543 40.714127 -2.0951209 97 107 76
-75.125931 40.688576 -2.0986922 89 98 67
-74.883514 40.709969 -2.1053519 91 104 73
-74.709244 40.697552 -2.0900509 89 101 73
-74.508766 40.715714 -2.1042688 105 109 86
-74.294533 40.702946 -2.0996289 101 110 84
-74.09993 40.698441 -2.0916409 98 107 83
-73.91423 40.729267 -2.1038015 99 108 83
-73.711594 40.700779 -2.0983655 110 117 94
-73.474731 40.691235 -2.1090517 100 115 78
-73.283493 40.686615 -2.116529 106 112 82
-73.091698 40.722939 -2.1341133 107 119 74
-72.895439 40.668507 -2.1386554 92 111 67
-72.681282 40.726887 -2.0960162 109 126 84
-72.49559 40.704929 -2.1115537 106 125 84
-72.310928 40.680611 -2.1022766 115 130 93
-72.125755 40.699024 -2.119231 108 124 92
-71.99971 40.632023 -2.1839185 119 124 88
-71.257668 40.681797 -2.1362648 97 106 88
-71.097313 40.687691 -2.0885119 103 118 95
-70.851974 40.714363 -2.0949411 113 131 104
-82.821686 40.869511 -2.0400858 100 111 63
-82.672714 40.816875 -2.0700371 111 122 64
-82.496445 40.894684 -2.0820212 105 117 53
-82.306625 40.879509 -2.0751808 110 123 64
-82.122322 40.89082 -2.1042254 111 123 65
-81.933472 40.871433 -2.1218998 123 132 70
-81.715919 40.918598 -2.1656711 116 131 66
-81.537018 40.968632 -2.1559057 124 140 77
-79.433998 40.935673 -2.1660411 125 142 80
-79.37133 40.932774 -2.1400545 135 153 86
-79.079063 40.896194 -2.1415391 127 139 77
-78.832069 40.856915 -2.1734443 115 128 60
-78.694084 40.893894 -2.1404307 130 146 76
-78.494179 40.88261 -2.1381943 127 144 78
-78.285789 40.912903 -2.1414587 114 134 71
-78.103745 40.895767 -2.1111608 114 132 75
-77.911736 40.891533 -2.1074052 112 132 76
-77.692451 40.901196 -2.1233497 114 130 70
-77.504059 40.883884 -2.1145854 111 130 77
-77.314644 40.915268 -2.1035767 102 118 71
-77.089577 40.902699 -2.076967 125 140 90
-76.908157 40.914902 -2.124649 103 119 67
-76.699509 40.890648 -2.1453509 99 117 70
-76.485367 40.890396 -2.1165359 109 129 80
-76.295914 40.912766 -2.100342 104 123 80
-76.103157 40.916084 -2.1191607 105 122 82
-75.902542 40.890545 -2.090801 97 114 76
-75.719627 40.915157 -2.1066449 103 119 85
-75.511421 40.905972 -2.0835338 96 111 80
-75.304047 40.909008 -2.1236999 89 102 71
-75.113419 40.905613 -2.0959222 99 108 77
-74.924774 40.892212 -2.0941126 91 98 68
-74.734398 40.92807 -2.0947173 95 106 76
-74.532974 40.909805 -2.0723255 100 111 84
-74.331879 40.918312 -2.1154149 96 105 79
-74.093819 40.908566 -2.0926998 104 112 88
-73.904625 40.896755 -2.1132061 105 117 89
-73.713768 40.913429 -2.0780861 106 113 91
-73.478195 40.904354 -2.1392922 111 120 79
-73.321594 40.882889 -2.103543 116 128 84
-73.094894 40.879089 -2.1315544 109 119 77
-72.893097 40.906769 -2.110548 123 140 94
-72.684326 40.905666 -2.1066341 115 130 88
-72.502625 40.914425 -2.1282477 118 135 88
-72.347816 40.907333 -2.0979748 119 132 96
-72.17141 40.853848 -2.084614 126 135 96
-71.375931 40.890301 -2.1577978 121 131 106
-71.089928 40.898979 -2.0751724 103 117 93
-70.889381 40.860352 -2.1375363 119 137 106
-82.78759 41.102779 -2.0138357 107 119 64
-82.442169 41.037102 -2.0338776 96 105 48
-82.311707 41.077293 -2.0456734 104 115 61
-82.112267 41.080585 -2.0871952 104 118 60
-81.910408 41.086388 -2.1080179 111 126 65
-81.716148 41.095898 -2.1493142 111 128 65
-81.498634 41.101231 -2.1544805 113 134 71
-80.694107 41.002186 -2.1659451 102 134 67
-79.855247 41.080132 -2.1818871 116 130 82
