ply
format ascii 1.0
comment PCL generated
element vertex 1095
property float x
property float y
property float z
property uchar red
property uchar green
property uchar blue
element face 0
element camera 0
property float view_px
property float view_py
property float view_pz
property float x_axisx
property float x_axisy
property float x_axisz
property float y_axisx
property float y_axisy
property float y_axisz
property float z_axisx
property float z_axisy
property float z_axisz
property float focal
property float scalex
property float scaley
property float centerx
property float centery
property int viewportx
property int viewporty
property float k1
property float k2
end_header
-39.284138 -58.892403 14.744158 149 141 146
-39.129131 -58.879772 14.688144 120 119 125
-41.258003 -58.709389 14.619001 154 147 144
-41.098122 -58.653633 14.638702 147 142 146
-40.880047 -58.709248 14.672956 145 138 143
-40.695953 -58.724316 14.67781 131 124 127
-40.520138 -58.703613 14.688232 115 116 118
-40.216866 -58.781391 14.686866 113 118 120
-40.071537 -58.704193 14.701158 86 85 89
-39.89365 -58.684967 14.700828 152 144 145
-39.748363 -58.642372 14.719433 163 162 160
-39.425152 -58.675953 14.750815 119 119 116
-39.29092 -58.699799 14.69955 129 127 125
-39.119709 -58.68721 14.685749 113 113 114
-38.905273 -58.643242 14.637768 114 115 119
-38.773621 -58.628414 14.667199 86 97 96
-41.454891 -58.442642 14.718403 56 65 72
-41.265812 -58.497913 14.653498 163 157 163
-41.10067 -58.501938 14.688878 155 150 152
-40.909359 -58.492947 14.707562 142 140 143
-40.650631 -58.580059 14.657924 133 122 122
-40.502014 -58.551559 14.726065 113 109 111
-40.270729 -58.40303 14.615046 79 82 87
-40.001049 -58.475937 14.644081 158 159 153
-39.866413 -58.520981 14.667338 148 144 142
-39.724464 -58.486179 14.693842 142 141 137
-39.493107 -58.47126 14.689713 141 138 133
-39.301086 -58.515987 14.690361 130 128 124
-39.090618 -58.49778 14.719941 107 110 108
-38.898823 -58.509884 14.691947 122 122 123
-38.762363 -58.507317 14.699858 99 102 102
-38.504505 -58.446369 14.648551 170 160 151
-38.322952 -58.411568 14.637485 183 172 163
-38.191948 -58.416267 14.619862 151 147 131
-37.889652 -58.443748 14.630075 144 141 142
-37.763519 -58.449322 14.623238 138 131 132
-41.445267 -58.281506 14.606655 153 148 152
-41.292904 -58.285408 14.651984 154 149 151
-41.088753 -58.277756 14.676729 145 144 144
-40.903446 -58.305519 14.683283 143 141 142
-40.71344 -58.276791 14.676248 132 130 131
-40.499676 -58.269051 14.666828 123 116 120
-40.305679 -58.265095 14.662495 128 124 127
-40.100548 -58.255775 14.680807 106 106 110
-39.892071 -58.294674 14.665119 122 122 123
-39.703804 -58.304008 14.70924 130 132 129
-39.51416 -58.292194 14.693199 120 125 118
-39.309002 -58.28474 14.728239 118 121 116
-39.08746 -58.291298 14.694571 119 122 118
-38.898209 -58.295765 14.687793 121 122 121
-38.72245 -58.285931 14.65421 135 133 131
-38.481594 -58.261772 14.645514 167 154 148
-38.315239 -58.277786 14.66722 164 151 150
-38.114529 -58.271263 14.66719 149 143 138
-37.89426 -58.303776 14.655025 153 148 142
-37.751888 -58.275108 14.6653 151 144 137
-35.276424 -58.239883 14.719371 161 158 156
-42.15321 -58.041706 14.631269 89 88 92
-41.728687 -58.061802 14.649262 159 146 148
-41.49155 -58.082634 14.643914 153 145 150
-41.293514 -58.109871 14.678784 156 150 152
-41.099342 -58.116291 14.683714 142 144 143
-40.901161 -58.088581 14.687442 137 137 135
-40.70435 -58.100933 14.692737 154 144 145
-40.509609 -58.116493 14.710666 152 136 139
-40.305012 -58.124813 14.721708 147 137 142
-40.093609 -58.120426 14.72018 142 132 136
-39.894096 -58.119434 14.723143 134 127 130
-39.6828 -58.106144 14.689349 101 106 102
-39.499592 -58.10936 14.678159 107 113 108
-39.309288 -58.12075 14.704257 110 116 110
-39.111668 -58.130817 14.692715 100 106 101
-38.896774 -58.136345 14.669089 125 124 124
-38.702847 -58.124779 14.67576 127 125 124
-38.489262 -58.098251 14.659973 153 146 143
-38.298458 -58.082344 14.718033 158 150 145
-38.094532 -58.101353 14.710505 154 146 142
-37.904655 -58.109493 14.673307 152 145 135
-37.70274 -58.088093 14.670253 157 149 142
-37.565258 -58.081577 14.627904 123 118 115
-35.426243 -58.018776 14.687851 159 151 149
-35.292679 -58.038345 14.650826 120 116 113
-35.096996 -58.047798 14.633159 127 125 119
-34.947823 -58.057491 14.617509 140 133 127
-42.430885 -57.818329 14.647247 157 149 146
-42.265049 -57.880707 14.657805 123 119 127
-42.115788 -57.869965 14.674909 153 145 152
-41.919167 -57.864697 14.690539 151 145 148
-41.686069 -57.891708 14.692217 143 138 143
-41.519253 -57.906895 14.717565 149 144 146
-41.288902 -57.897835 14.704153 146 142 148
-41.095844 -57.930824 14.717784 127 127 129
-40.90242 -57.905697 14.680416 108 115 112
-40.692619 -57.896126 14.704127 133 133 132
-40.525311 -57.911983 14.723866 136 131 132
-40.351952 -57.931454 14.725157 145 135 135
-39.837811 -57.932858 14.707514 125 120 117
-39.688629 -57.890625 14.704266 108 112 107
-39.518143 -57.91148 14.698018 100 105 99
-39.30677 -57.928982 14.660041 93 102 96
-39.106064 -57.948017 14.658312 91 99 94
-38.954151 -57.937412 14.664032 108 111 104
-38.682323 -57.905773 14.65251 146 143 138
-38.492756 -57.910553 14.690379 141 138 130
-38.298496 -57.90308 14.704318 142 140 130
-38.101925 -57.912304 14.701274 147 141 133
-37.904312 -57.915897 14.706264 137 131 124
-37.706402 -57.884838 14.699518 143 136 129
-37.577705 -57.921604 14.664691 138 133 129
-35.530872 -57.898697 14.623734 130 133 122
-35.283546 -57.901146 14.704004 150 145 143
-35.116806 -57.948574 14.695679 114 110 106
-42.450737 -57.666058 14.642415 119 117 118
-42.273125 -57.688755 14.671009 141 133 134
-42.117172 -57.702354 14.70934 163 153 154
-41.907047 -57.695713 14.704001 152 145 143
-41.698704 -57.701992 14.710354 137 136 133
-41.485958 -57.683189 14.699923 147 143 147
-41.303482 -57.722309 14.705968 157 147 157
-41.075081 -57.703621 14.697018 116 116 115
-40.894032 -57.684933 14.710999 99 108 104
-40.681961 -57.696148 14.700596 124 126 126
-40.540966 -57.672634 14.743155 131 132 131
-40.287182 -57.659714 14.751772 135 134 132
-40.118896 -57.638428 14.753119 118 120 119
-39.878571 -57.66766 14.737754 117 117 112
-39.688412 -57.693768 14.712739 105 108 104
-39.541859 -57.706833 14.684812 85 92 88
-39.333477 -57.712723 14.675767 94 102 95
-39.111538 -57.702408 14.641582 148 142 135
-38.855125 -57.65797 14.630099 138 135 124
-38.686817 -57.705475 14.666283 151 147 137
-38.507637 -57.701786 14.691872 136 136 125
-38.304909 -57.688477 14.690817 150 145 134
-38.138359 -57.71109 14.719391 193 178 171
-37.852337 -57.776394 14.754115 122 120 119
-37.696487 -57.699032 14.720984 128 124 116
-37.510059 -57.787197 14.624093 127 127 117
-35.867481 -57.648567 14.699023 162 157 159
-35.710567 -57.652954 14.649351 139 136 138
-35.528625 -57.611694 14.64093 105 109 106
-35.281448 -57.694912 14.718143 153 148 144
-35.132046 -57.715977 14.682437 156 148 146
-34.936325 -57.671799 14.736349 179 173 175
-45.86002 -57.420586 14.774487 140 139 144
-45.313892 -57.451557 14.684225 86 102 97
-44.633232 -57.402523 14.625292 92 95 97
-44.336086 -57.420815 14.752904 147 145 149
-42.446861 -57.536247 14.68582 155 150 148
-42.272751 -57.50351 14.675696 161 152 152
-42.102421 -57.489185 14.715152 154 148 146
-41.911144 -57.509327 14.686663 139 139 135
-41.720242 -57.493206 14.683489 123 124 123
-41.515404 -57.507019 14.724075 136 132 135
-41.394043 -57.533764 14.641424 164 153 157
-41.049728 -57.488071 14.707913 100 103 99
-40.903931 -57.497551 14.701697 127 125 123
-40.700722 -57.528866 14.7282 127 125 123
-40.485363 -57.511433 14.707713 115 118 116
-40.310841 -57.494556 14.704889 112 117 115
-40.098648 -57.507042 14.716412 118 120 117
-39.887543 -57.515533 14.725652 123 122 119
-39.693886 -57.536346 14.720222 126 123 120
-39.514595 -57.487896 14.704705 99 103 97
-39.384987 -57.484619 14.651114 99 103 92
-39.023712 -57.547253 14.658696 160 154 147
-38.877415 -57.496586 14.646497 141 138 130
-38.703522 -57.503902 14.660377 136 135 124
-38.494335 -57.519733 14.659595 146 146 132
-38.305824 -57.498943 14.689041 152 147 137
-38.145302 -57.481834 14.726327 171 166 155
-37.887871 -57.491619 14.710145 155 144 138
-37.737881 -57.494339 14.69208 122 119 111
-37.57888 -57.491646 14.655206 83 89 83
-36.030392 -57.453583 14.668512 152 145 150
-35.883968 -57.485077 14.70178 165 155 159
-35.6936 -57.490559 14.694689 149 144 144
-35.531425 -57.469563 14.641747 138 136 133
-35.277153 -57.490696 14.697496 154 150 148
-35.087971 -57.481819 14.672581 174 163 155
-34.959099 -57.471519 14.688972 172 164 154
-34.189537 -57.438091 14.679442 88 93 96
-45.483658 -57.205544 14.725515 115 121 119
-45.285294 -57.285786 14.736618 89 93 95
-45.125507 -57.267391 14.663848 109 116 114
-44.981094 -57.255516 14.643623 52 59 65
-44.656647 -57.220615 14.693566 134 132 139
-44.392654 -57.292519 14.692032 106 98 108
-43.452843 -57.203918 14.711027 157 158 165
-43.363285 -57.28896 14.643456 149 152 157
-42.914749 -57.221844 14.635767 94 95 90
-42.268204 -57.335712 14.680346 146 141 142
-42.093227 -57.312466 14.677864 116 120 118
-41.897667 -57.298336 14.694228 125 130 128
-41.701523 -57.300453 14.727995 153 149 150
-41.564011 -57.347054 14.75075 160 151 157
-41.014027 -57.370239 14.740193 154 154 154
-40.958786 -57.362587 14.659653 163 153 153
-40.638611 -57.291885 14.762671 130 130 124
-40.497086 -57.294453 14.673362 105 109 102
-40.309826 -57.289566 14.7283 115 117 117
-40.076046 -57.298149 14.742044 138 135 133
-39.946098 -57.321892 14.758281 148 143 143
-39.730492 -57.205307 14.789648 154 147 147
-39.494766 -57.294617 14.701971 108 109 102
-39.304379 -57.269276 14.664848 101 103 99
-39.104706 -57.264267 14.641781 125 123 122
-38.918362 -57.274288 14.654602 124 125 120
-38.714199 -57.345425 14.676036 125 126 114
-38.440327 -57.336628 14.673781 167 162 148
-38.310165 -57.293816 14.701694 166 158 148
-38.10144 -57.276638 14.708708 143 138 127
-37.888218 -57.291756 14.69975 123 119 111
-37.767307 -57.33506 14.69463 113 112 103
-36.041142 -57.338783 14.686179 156 151 153
-35.892609 -57.290493 14.688728 157 151 154
-35.698265 -57.317852 14.693688 153 145 147
-35.539139 -57.289368 14.673882 151 142 142
-35.277626 -57.336208 14.682985 155 149 143
-35.089149 -57.291187 14.709445 159 150 148
-34.90683 -57.266823 14.685893 139 131 127
-34.731941 -57.264294 14.722202 135 129 123
-34.509567 -57.278946 14.787813 93 99 99
-34.372017 -57.210033 14.641328 106 116 117
-45.523605 -57.072475 14.697979 92 97 101
-45.2663 -57.076183 14.707325 107 106 110
-45.136288 -57.094864 14.706352 112 113 117
-44.899914 -57.073902 14.673297 85 92 96
-44.710758 -57.163677 14.746073 138 139 144
-44.479904 -57.028484 14.681325 125 130 133
-44.309006 -57.10844 14.718928 165 155 164
-44.081516 -57.0718 14.66461 126 126 134
-43.958191 -57.076012 14.664083 113 119 124
-43.473309 -57.054123 14.67847 149 145 148
-43.317886 -57.085114 14.679932 147 146 150
-43.092964 -57.077381 14.706632 154 156 167
-42.876251 -57.034576 14.734534 160 152 152
-42.793407 -57.043816 14.699255 50 50 58
-42.281742 -57.040676 14.607742 122 126 122
-42.08086 -57.092945 14.659053 131 132 134
-41.876614 -57.099033 14.674077 133 134 133
-41.721489 -57.101215 14.715354 144 144 143
-41.542099 -57.076599 14.775207 152 151 150
-41.357502 -57.034939 14.793004 146 144 137
-40.800755 -57.004448 14.611023 70 75 75
-40.680199 -57.079998 14.688494 88 96 90
-40.49387 -57.088692 14.709559 93 102 94
-40.290764 -57.104137 14.693853 113 119 114
-40.109077 -57.084663 14.708719 120 127 124
-39.920753 -57.089447 14.719779 125 128 123
-39.784859 -57.141472 14.730348 112 115 110
-39.458694 -57.141785 14.716732 110 110 102
-39.29871 -57.103989 14.68436 109 108 102
-39.093517 -57.089222 14.700015 125 124 121
-38.948273 -57.08567 14.70123 118 119 115
-38.743336 -57.12817 14.795911 116 119 108
-38.467522 -57.128212 14.644187 125 127 117
-38.268646 -57.153717 14.689152 144 143 130
-38.097618 -57.154621 14.67497 132 133 120
-37.971657 -57.184311 14.694813 114 115 106
-36.006077 -57.184994 14.727787 180 173 174
-35.862518 -57.127708 14.680937 166 156 158
-35.728378 -57.116913 14.677238 147 141 142
-35.510193 -57.128029 14.655174 165 153 158
-35.39669 -57.161392 14.684645 120 121 120
-35.086205 -57.132294 14.656474 158 152 147
-34.902061 -57.130123 14.71489 141 132 132
-34.713924 -57.132172 14.686359 105 102 102
-34.512581 -57.10268 14.686143 93 99 99
-34.329857 -57.108646 14.69954 76 85 83
-34.126652 -57.078594 14.672398 79 83 84
-33.942883 -57.06118 14.605837 102 102 98
-45.823677 -56.845711 14.702162 148 146 160
-45.642826 -56.89563 14.70673 108 106 113
-45.493107 -56.910988 14.701486 119 120 129
-45.293262 -56.884823 14.705491 119 116 122
-45.163357 -56.89024 14.725467 122 123 125
-44.849606 -56.985611 14.686829 85 91 96
-44.745422 -56.913101 14.687618 79 80 84
-44.469147 -56.88258 14.724063 82 87 97
-44.319538 -56.840954 14.740202 107 109 124
-44.0937 -56.923351 14.709437 123 125 132
-43.976791 -56.933865 14.759632 110 115 120
-43.627666 -56.845795 14.680375 106 107 109
-43.479057 -56.877647 14.695413 144 142 145
-43.321991 -56.905407 14.68661 146 146 152
-43.076031 -56.887505 14.693198 147 146 152
-42.939301 -56.875599 14.683061 135 139 147
-42.723122 -56.895195 14.752155 132 145 138
-42.265934 -56.950119 14.628253 148 148 145
-42.081013 -56.904522 14.67239 135 133 139
-41.920219 -56.901855 14.715403 142 138 142
-41.707954 -56.91872 14.712123 136 134 135
-41.497196 -56.87252 14.721773 118 122 118
-41.318417 -56.857616 14.743392 111 117 113
-41.118046 -56.849075 14.768856 117 120 115
-40.869251 -56.871094 14.734041 120 120 117
-40.685162 -56.912724 14.696191 89 96 92
-40.512924 -56.908222 14.693279 92 100 95
-40.311459 -56.946468 14.708272 90 97 90
-40.072983 -56.918247 14.692919 100 108 103
-39.943062 -56.88456 14.715292 134 134 131
-39.253948 -56.922638 14.726995 126 123 115
-39.098103 -56.903744 14.700758 120 122 114
-38.972042 -56.888153 14.682517 107 111 104
-38.423405 -56.877697 14.637741 135 135 126
-38.308136 -56.881283 14.654717 122 123 113
-38.132061 -56.911438 14.6175 115 120 105
-37.869839 -56.878845 14.638095 232 164 172
-37.716385 -56.830521 14.619666 239 186 182
-35.859219 -56.963936 14.689856 172 156 158
-35.751236 -56.909065 14.655494 102 94 98
-35.543896 -56.956753 14.638498 120 125 128
-35.231655 -56.909859 14.645497 97 100 104
-35.159302 -56.881157 14.640335 80 86 91
-34.959297 -56.977287 14.717695 190 170 166
-34.43679 -56.954624 14.742322 86 96 93
-34.301266 -56.941906 14.708298 89 96 94
-34.092667 -56.922836 14.703609 104 109 106
-33.905052 -56.896763 14.684252 111 108 101
-33.786484 -56.859219 14.70165 107 111 106
-45.874794 -56.709705 14.690746 123 119 121
-45.68718 -56.687443 14.716424 150 147 150
-45.466904 -56.71349 14.711542 133 129 141
-45.322197 -56.704319 14.704831 131 127 137
-45.15979 -56.739929 14.750496 120 120 123
-44.914867 -56.704674 14.699441 40 43 52
-44.704498 -56.738964 14.731953 117 112 123
-44.422939 -56.697628 14.773332 109 106 115
-44.297016 -56.722527 14.745252 122 123 134
-44.102314 -56.694729 14.680806 122 126 136
-43.935261 -56.703644 14.716278 120 117 125
-43.726227 -56.666985 14.638948 142 146 152
-43.510296 -56.712883 14.669072 144 145 147
-43.27739 -56.701786 14.712566 153 150 156
-43.08865 -56.693951 14.712908 135 137 141
-42.960991 -56.708107 14.699806 118 121 127
-42.757465 -56.76833 14.6885 154 157 153
-42.050961 -56.719002 14.707693 140 137 141
-41.914265 -56.677452 14.723463 151 149 152
-41.690914 -56.689293 14.730316 130 130 127
-41.491173 -56.730621 14.700475 118 119 116
-41.3148 -56.715847 14.714225 138 134 132
-41.101357 -56.703423 14.742451 130 128 122
-40.890068 -56.697113 14.746793 134 133 129
-40.697823 -56.68885 14.716084 106 112 106
-40.502686 -56.700275 14.697444 94 101 97
-40.303104 -56.678638 14.689919 109 112 106
-40.070686 -56.701168 14.666176 115 117 113
-39.931965 -56.714111 14.721093 144 142 139
-39.444393 -56.632763 14.777289 89 87 81
-39.251915 -56.711296 14.731657 102 105 96
-39.102074 -56.70512 14.711196 109 112 104
-38.951527 -56.714108 14.637443 110 107 103
-38.438328 -56.737694 14.641288 141 142 134
-38.275219 -56.722286 14.674591 127 130 120
-38.153248 -56.740582 14.635659 153 134 127
-37.882862 -56.68948 14.646008 213 150 157
-37.71368 -56.670517 14.65075 201 146 149
-37.443893 -56.691444 14.664361 151 130 132
-37.322277 -56.731491 14.641384 55 67 57
-35.507938 -56.690258 14.600571 157 172 169
-35.260139 -56.723499 14.684251 144 143 140
-35.120319 -56.60965 14.633863 112 112 111
-34.25238 -56.699646 14.654884 105 104 97
-34.085022 -56.691074 14.676897 119 119 120
-33.913055 -56.735077 14.650247 107 111 105
-47.877403 -56.475533 14.638855 80 87 98
-47.681301 -56.518585 14.701994 124 124 134
-47.504982 -56.486023 14.748545 171 162 165
-45.84177 -56.477802 14.689403 126 123 137
-45.715908 -56.47345 14.666476 139 135 148
-45.488461 -56.509369 14.689347 134 131 143
-45.31081 -56.48925 14.682233 125 124 136
-45.095676 -56.48185 14.710775 116 117 123
-44.906593 -56.46471 14.733414 135 137 145
-44.659008 -56.504021 14.739866 106 106 123
-44.427025 -56.511742 14.68162 117 117 123
-44.327286 -56.504215 14.729456 111 110 118
-44.063042 -56.507565 14.726226 143 143 151
-43.904488 -56.487885 14.675641 125 128 134
-43.692879 -56.477512 14.6984 134 136 142
-43.485287 -56.484886 14.711204 144 145 153
-43.308487 -56.512783 14.724365 144 144 150
-43.094955 -56.494656 14.695333 123 129 134
-42.907711 -56.497314 14.680616 116 122 130
-42.485432 -56.424713 14.637759 89 100 109
-42.014324 -56.532829 14.695928 130 135 133
-41.873524 -56.531418 14.683927 125 128 128
-41.702663 -56.501686 14.690201 128 131 133
-41.525616 -56.492615 14.734365 140 140 139
-41.336094 -56.452652 14.771003 148 142 140
-41.08025 -56.475628 14.744474 134 132 128
-40.903538 -56.48539 14.704912 119 120 116
-40.684868 -56.490467 14.679773 88 98 91
-40.518036 -56.51107 14.68644 91 98 94
-40.295048 -56.481857 14.683028 105 109 106
-40.110859 -56.490856 14.697439 139 137 136
-39.968704 -56.547482 14.753215 154 149 151
-39.671089 -56.443817 14.731687 115 118 109
-39.489643 -56.517036 14.775749 137 136 127
-39.249374 -56.593697 14.772845 140 130 126
-39.053112 -56.508789 14.718195 120 116 110
-38.945835 -56.478668 14.70316 101 103 97
-38.755062 -56.472034 14.624602 71 75 70
-38.072296 -56.438721 14.683705 242 175 180
-37.84787 -56.509571 14.65422 211 149 158
-37.687305 -56.49807 14.648855 220 145 155
-37.560627 -56.487801 14.641341 207 142 147
-37.313526 -56.511326 14.646556 154 121 127
-35.328632 -56.49107 14.620984 135 131 128
-34.409458 -56.508186 14.763105 147 136 132
-34.247128 -56.464615 14.720554 132 132 131
-34.088123 -56.531261 14.675187 128 124 123
-33.943707 -56.501488 14.650659 157 148 148
-33.775364 -56.407974 14.702124 121 117 123
-32.978016 -56.470268 14.612576 128 122 132
-47.605286 -56.211292 14.706669 130 125 129
-47.496525 -56.260639 14.727818 136 132 144
-47.325062 -56.273846 14.756077 152 148 159
-47.094158 -56.303349 14.680025 131 133 141
-46.93045 -56.214497 14.676619 136 142 145
-46.703419 -56.337925 14.707907 110 108 126
-46.244171 -56.28091 14.735284 114 111 120
-45.8395 -56.281052 14.658672 130 132 144
-45.726482 -56.314228 14.693235 112 109 120
-45.497604 -56.305195 14.686671 128 127 132
-45.306393 -56.337551 14.698761 123 120 130
-45.109322 -56.339367 14.694801 110 109 121
-44.883179 -56.261181 14.744072 120 119 128
-44.754684 -56.259876 14.634028 126 126 135
-44.478401 -56.280373 14.712273 146 141 148
-44.308834 -56.295349 14.725058 121 122 130
-44.076187 -56.317547 14.718173 127 128 132
-43.907516 -56.30299 14.688972 138 134 139
-43.692352 -56.285736 14.705873 144 140 149
-43.511818 -56.302437 14.723483 134 135 142
-43.276188 -56.2738 14.693323 132 136 144
-43.110538 -56.295059 14.68539 120 128 138
-42.938889 -56.292381 14.709708 118 126 138
-42.777466 -56.391254 14.689212 88 99 108
-41.87986 -56.319885 14.627432 124 127 136
-41.675674 -56.281639 14.691182 125 129 127
-41.493057 -56.308006 14.705539 141 140 139
-41.276211 -56.291325 14.737215 125 126 119
-41.078465 -56.299789 14.705006 99 105 97
-40.902229 -56.303173 14.693125 92 100 93
-40.710796 -56.315216 14.686554 76 85 80
-40.481846 -56.294662 14.674569 87 95 91
-40.302303 -56.298481 14.697202 124 124 123
-40.145947 -56.335011 14.733841 164 158 156
-39.816025 -56.30233 14.767972 111 112 103
-39.67643 -56.280766 14.737992 103 107 100
-39.521236 -56.258682 14.717923 108 111 105
-39.333794 -56.249676 14.72569 130 130 126
-39.058655 -56.277344 14.716655 110 107 102
-38.956345 -56.307396 14.669032 105 105 98
-38.724018 -56.27309 14.637735 116 111 109
-38.527 -56.234478 14.682055 99 83 89
-38.281685 -56.246986 14.731324 162 137 141
-38.11124 -56.270668 14.70694 153 116 120
-37.882511 -56.297501 14.6586 215 143 155
-37.713589 -56.295425 14.659519 222 144 155
-37.526852 -56.291012 14.635036 212 142 149
-37.26553 -56.348743 14.631527 183 134 142
-37.133224 -56.325623 14.663037 63 55 53
-34.246395 -56.211227 14.787283 77 77 69
-34.102329 -56.326855 14.72447 114 112 114
-33.884373 -56.288158 14.693459 105 104 105
-33.702408 -56.295322 14.697369 102 100 98
-33.556992 -56.276947 14.678348 95 104 101
-33.325462 -56.299545 14.723129 87 90 89
-33.15065 -56.379116 14.684813 68 78 77
-47.528202 -56.12291 14.665068 71 80 87
-47.297943 -56.080189 14.72202 142 144 160
-47.180412 -56.141396 14.755026 141 140 146
-46.931175 -56.113998 14.70023 116 112 127
-46.772766 -56.057007 14.720232 95 100 112
-46.24168 -56.158024 14.697747 137 136 142
-46.10146 -56.101288 14.724689 110 111 114
-45.923973 -56.111237 14.696258 110 110 114
-45.692928 -56.145424 14.741082 142 136 148
-45.532566 -56.104458 14.670483 123 122 127
-45.293995 -56.061993 14.697907 119 113 124
-45.117397 -56.09446 14.700756 144 143 152
-44.8834 -56.094547 14.720016 122 127 133
-44.681126 -56.086433 14.694392 132 131 140
-44.490601 -56.115299 14.693257 122 123 138
-44.288765 -56.094246 14.710552 121 125 136
-44.094536 -56.084999 14.702974 127 128 137
-43.904213 -56.076687 14.711506 128 127 137
-43.696236 -56.108086 14.681331 130 129 137
-43.505569 -56.10178 14.698136 136 135 143
-43.299656 -56.10273 14.693356 124 129 138
-43.139732 -56.134579 14.669736 105 113 122
-42.053741 -56.039322 14.791595 175 164 180
-41.847931 -56.085533 14.743496 89 89 91
-41.684429 -56.105381 14.69513 130 131 128
-41.525547 -56.113316 14.704492 156 150 148
-41.282383 -56.13485 14.70542 128 128 121
-41.082214 -56.105541 14.704221 105 110 101
-40.917969 -56.105225 14.683598 86 93 85
-40.693745 -56.084965 14.667306 106 110 106
-40.502579 -56.094032 14.693085 128 126 126
-40.320465 -56.10133 14.699819 143 139 136
-40.190716 -56.123287 14.732835 172 163 163
-39.894516 -56.140564 14.796952 137 134 125
-39.675533 -56.109207 14.684451 75 82 75
-39.499912 -56.151737 14.684223 83 88 83
-39.292732 -56.100487 14.687227 102 103 100
-39.092602 -56.108967 14.682866 110 108 104
-38.928879 -56.079651 14.683519 125 117 115
-38.691387 -56.070778 14.691092 139 123 126
-38.499325 -56.094452 14.705835 165 142 147
-38.299961 -56.088829 14.710545 163 137 140
-38.117908 -56.107933 14.708472 139 109 117
-37.904934 -56.122406 14.684907 190 128 135
-37.732323 -56.121296 14.650637 221 145 152
-37.567188 -56.133678 14.634376 212 139 144
-37.347157 -56.162922 14.603966 186 132 136
-37.188652 -56.118107 14.645041 199 103 127
-34.031189 -56.154781 14.768915 159 149 143
-33.874832 -56.098785 14.715284 106 109 112
-33.715866 -56.127277 14.697742 109 111 112
-33.52478 -56.05315 14.715162 114 115 119
-33.265114 -56.127506 14.750748 91 92 88
-33.114239 -56.089672 14.672137 90 94 93
-32.859703 -56.095177 14.731962 136 136 134
-47.103073 -55.952034 14.71386 113 114 135
-46.907467 -55.928303 14.712195 139 136 157
-46.285213 -55.898357 14.600852 130 114 150
-46.074219 -55.961086 14.761719 124 122 130
-45.857944 -55.921345 14.704437 130 128 134
-45.673164 -55.911243 14.719484 150 147 155
-45.509296 -55.850613 14.70085 142 139 150
-45.308964 -55.895626 14.694715 137 135 142
-45.130905 -55.879066 14.689882 125 125 131
-44.911079 -55.860241 14.732644 136 133 138
-44.700794 -55.928509 14.714003 118 118 126
-44.50119 -55.904083 14.723454 119 121 133
-44.28492 -55.900673 14.696582 126 127 140
-44.088524 -55.927216 14.711899 137 136 145
-43.90847 -55.896847 14.688658 127 130 138
-43.684082 -55.903831 14.705288 128 130 136
-43.502613 -55.889442 14.69369 119 124 131
-43.352867 -55.927822 14.712615 116 120 126
-42.305103 -55.886063 14.661446 74 75 87
-42.124886 -55.915981 14.677409 166 164 181
-41.887791 -55.963058 14.691846 126 129 142
-41.677155 -55.92115 14.704939 144 140 139
-41.544365 -55.883282 14.690196 144 143 139
-41.306652 -55.892723 14.752781 82 91 84
-41.053253 -55.912094 14.716002 102 109 98
-40.910603 -55.896637 14.700405 103 107 99
-40.69714 -55.879425 14.677871 118 116 117
-40.497517 -55.897602 14.703737 130 127 128
-40.335571 -55.871326 14.729914 132 128 128
-40.12822 -55.88224 14.684022 118 118 112
-39.856609 -55.862373 14.703417 83 83 82
-39.699001 -55.900013 14.706977 86 90 85
-39.529343 -55.89048 14.671989 91 91 88
-39.288887 -55.902657 14.693743 121 113 114
-39.089165 -55.885902 14.691212 124 118 119
-38.892601 -55.917866 14.70734 133 123 124
-38.71043 -55.939342 14.709617 152 139 136
-38.460239 -55.933121 14.679115 140 135 130
-38.375462 -55.808449 14.783626 81 71 70
-38.060005 -55.896461 14.725086 131 114 116
-37.91243 -55.853214 14.701233 151 122 126
-37.704632 -55.876148 14.702972 101 96 88
-37.382702 -55.818626 14.722422 139 110 112
-34.012943 -55.893852 14.767482 91 96 100
-33.837017 -55.892513 14.664769 97 101 106
-33.686634 -55.922024 14.696232 98 104 107
-33.49905 -55.90876 14.709648 101 105 107
-33.308907 -55.926048 14.704931 80 83 84
-33.153809 -55.885868 14.704704 84 88 91
-32.689198 -55.923115 14.643506 100 97 98
-46.889008 -55.71191 14.706566 131 129 151
-46.720531 -55.685921 14.704416 135 136 149
-46.48542 -55.691986 14.667772 134 134 142
-46.326385 -55.676071 14.65921 136 131 140
-46.19252 -55.643898 14.740934 160 155 159
-45.960548 -55.68063 14.751273 113 112 127
-45.648331 -55.773495 14.780672 122 119 138
-45.501625 -55.692253 14.688905 135 135 142
-45.292812 -55.69017 14.667099 126 126 132
-45.105042 -55.686306 14.71343 130 132 138
-44.913399 -55.68475 14.682586 131 128 135
-44.675362 -55.712906 14.745279 134 129 142
-44.451168 -55.675858 14.666368 113 120 129
-44.290707 -55.700699 14.699899 124 128 138
-44.138634 -55.699848 14.712387 138 138 149
-43.883514 -55.695126 14.698137 138 138 145
-43.702515 -55.702572 14.691915 142 145 151
-43.535378 -55.699821 14.728178 125 131 139
-43.230465 -55.792351 14.668508 133 132 130
-42.03767 -55.754963 14.625551 55 68 77
-41.894371 -55.696953 14.695358 65 81 84
-41.643078 -55.698788 14.696171 132 131 131
-41.501812 -55.697712 14.703466 135 136 134
-41.317059 -55.649071 14.68899 126 132 128
-41.058292 -55.710876 14.740839 133 133 126
-40.893818 -55.709309 14.724217 121 121 117
-40.711655 -55.722218 14.723879 140 133 136
-40.477375 -55.732883 14.729623 120 118 116
-40.306633 -55.698486 14.741633 117 115 113
-40.101646 -55.696373 14.726755 101 99 96
-39.890209 -55.680748 14.720233 103 102 98
-39.72253 -55.695961 14.693072 98 98 95
-39.507145 -55.711422 14.663111 108 101 102
-39.295052 -55.708035 14.688549 112 107 106
-39.0765 -55.725357 14.685534 126 119 119
-38.934483 -55.689995 14.713742 134 128 127
-38.714867 -55.666245 14.76365 105 104 98
-38.539795 -55.673069 14.762514 114 107 102
-38.238277 -55.647869 14.732905 87 81 79
-38.117062 -55.657578 14.752726 115 108 106
-37.890076 -55.747311 14.752634 164 134 140
-37.722282 -55.70467 14.71944 144 114 119
-37.514019 -55.677643 14.704514 137 116 122
-37.372276 -55.788067 14.615997 188 98 115
-33.646202 -55.708015 14.71182 94 99 100
-33.503124 -55.73938 14.662025 95 103 104
-33.310677 -55.792747 14.67989 114 116 114
-46.918556 -55.477402 14.692289 135 136 145
-46.679955 -55.531487 14.719674 123 122 136
-46.560303 -55.462654 14.673493 125 121 137
-46.312237 -55.521477 14.727009 111 113 125
-46.042328 -55.512054 14.686021 102 104 113
-45.842796 -55.529606 14.770489 95 97 112
-45.444935 -55.480194 14.695363 128 129 136
-45.310879 -55.505081 14.697863 129 128 133
-45.093708 -55.498714 14.6822 137 135 140
-44.919735 -55.541401 14.64762 113 113 118
-44.609364 -55.592239 14.718107 96 106 116
-44.446857 -55.52739 14.712791 134 137 145
-44.289902 -55.500568 14.713051 127 132 140
-44.091274 -55.528046 14.68846 124 133 139
-43.889164 -55.505569 14.678493 130 130 139
-43.68383 -55.534416 14.700801 122 128 136
-43.533947 -55.525063 14.702735 127 136 144
-41.928608 -55.590775 14.62605 76 85 90
-41.753475 -55.572868 14.659242 65 76 81
-41.477596 -55.548969 14.696512 117 123 118
-41.285835 -55.539738 14.692513 117 123 120
-41.103897 -55.495758 14.72771 131 132 129
-40.887531 -55.484627 14.705605 131 131 128
-40.725037 -55.482594 14.717345 137 134 135
-40.484985 -55.478111 14.714592 117 114 110
-40.283787 -55.503754 14.719435 106 105 102
-40.090164 -55.507812 14.71684 108 106 103
-39.89286 -55.511517 14.72584 112 107 105
-39.741558 -55.515743 14.68634 95 95 91
-39.518009 -55.494064 14.671815 108 104 103
-39.286522 -55.510529 14.656937 119 112 112
-39.081608 -55.489723 14.693651 113 109 109
-38.938713 -55.55125 14.676295 140 133 132
-38.67791 -55.529114 14.720637 127 120 120
-38.534248 -55.55722 14.738419 106 106 100
-38.242077 -55.576591 14.73894 101 94 91
-38.123356 -55.549984 14.747862 120 111 109
-37.870232 -55.453682 14.748631 110 104 105
-37.707699 -55.483238 14.710769 106 96 96
-37.538612 -55.563843 14.648685 73 88 83
-37.190434 -55.506119 14.625425 94 106 94
-33.561584 -55.448421 14.648672 115 114 117
-33.352409 -55.474648 14.637119 78 86 87
-47.018932 -55.347069 14.60738 124 122 143
-46.860859 -55.326393 14.698484 126 124 139
-46.733761 -55.322044 14.651374 135 132 143
-46.501911 -55.321693 14.680542 132 133 144
-46.327667 -55.251213 14.672161 129 123 136
-45.915527 -55.290924 14.731384 118 123 131
-45.686104 -55.20533 14.651579 110 113 118
-45.444927 -55.302818 14.673152 130 134 140
-45.29435 -55.307083 14.691197 124 124 130
-45.11697 -55.287636 14.696932 123 123 129
-44.843983 -55.251434 14.633786 79 84 88
-44.683716 -55.231449 14.684714 156 152 156
-44.474838 -55.304176 14.693918 131 130 136
-44.279259 -55.308613 14.703965 135 133 140
-44.107727 -55.276089 14.699566 143 141 143
-43.881599 -55.337471 14.707994 126 128 135
-43.784626 -55.365063 14.762872 147 140 147
-43.57917 -55.332283 14.639874 104 109 115
-41.253391 -55.377411 14.699264 133 138 130
-41.074577 -55.339428 14.708941 121 122 116
-40.885899 -55.360443 14.693255 109 112 107
-40.692242 -55.302132 14.70114 112 109 106
-40.487324 -55.31641 14.70298 119 114 114
-40.327667 -55.337574 14.710904 122 115 116
-40.136753 -55.314774 14.691365 101 99 98
-39.892166 -55.307182 14.681729 101 98 97
-39.725132 -55.316528 14.65666 99 99 97
-39.496857 -55.30978 14.719556 154 145 147
-39.338974 -55.297253 14.709615 123 122 117
-39.036427 -55.337677 14.700719 162 152 151
-38.95462 -55.303219 14.629231 134 136 136
-38.221497 -55.255524 14.727129 78 77 70
-38.07531 -55.249123 14.780032 103 98 95
-37.884617 -55.301579 14.731218 112 107 106
-37.755165 -55.326542 14.708383 103 95 94
-37.057812 -55.271305 14.775217 181 159 161
-36.875706 -55.30677 14.699821 134 147 138
-35.668793 -55.234127 14.646935 100 103 104
-34.099216 -55.217163 14.622662 50 61 57
-33.418316 -55.324078 14.666438 90 96 94
-33.288723 -55.294014 14.648322 70 77 78
-33.11367 -55.356079 14.651158 55 62 63
-46.845112 -55.173092 14.717387 140 137 144
-46.641216 -55.164982 14.791476 130 123 140
-46.445103 -55.087433 14.682358 123 125 133
-46.277275 -55.115246 14.707106 124 126 132
-46.129745 -55.03492 14.695086 124 123 129
-45.882492 -55.078243 14.692207 144 141 149
-45.642773 -55.123981 14.715037 117 122 127
-45.509663 -55.142025 14.728925 118 121 129
-45.319241 -55.073071 14.710664 136 132 143
-45.128422 -55.11974 14.719667 121 122 127
-44.90683 -55.07552 14.627731 98 97 101
-44.698383 -55.082596 14.709367 119 120 124
-44.498802 -55.071857 14.736856 142 135 141
-44.301182 -55.085995 14.710643 134 132 137
-44.129593 -55.129742 14.707622 120 123 132
-43.919342 -55.073593 14.766619 136 137 143
-43.740177 -55.196251 14.684217 123 121 126
-43.139332 -55.030087 14.661572 160 159 167
-40.860435 -55.113312 14.712003 133 123 119
-40.712135 -55.10997 14.712954 142 130 129
-40.5308 -55.122082 14.723088 154 141 143
-40.352814 -55.1264 14.774077 126 126 123
-40.060261 -55.108673 14.731824 81 87 83
-39.915928 -55.090496 14.686137 85 91 86
-39.715405 -55.108791 14.685039 108 109 106
-39.523487 -55.113331 14.645596 153 147 151
-39.335213 -55.063122 14.659846 138 133 131
-39.004349 -55.191601 14.622915 139 130 131
-38.987392 -55.13784 14.613951 133 132 132
-38.521641 -55.057728 14.688441 103 108 101
-38.228065 -55.103233 14.738605 86 85 80
-38.106438 -55.133453 14.72231 96 93 89
-37.897152 -55.142731 14.693553 97 90 89
-37.709267 -55.02243 14.785372 90 103 99
-37.521992 -55.097858 14.665553 84 98 90
-37.239731 -55.169117 14.727468 128 115 109
-35.834301 -55.016926 14.648438 181 174 170
-35.716476 -55.078556 14.65817 142 140 136
-35.536091 -55.086887 14.641847 105 115 111
-34.806328 -55.001568 14.618052 73 88 86
-34.659233 -55.047318 14.714565 121 129 123
-34.52195 -55.075825 14.766012 113 118 113
-34.309986 -55.089802 14.688491 83 91 91
-34.195049 -55.07243 14.713532 58 74 71
-33.981728 -55.072578 14.782484 89 90 95
-33.265106 -55.169273 14.636692 90 89 95
-33.131252 -55.133957 14.645103 135 129 131
-32.893471 -55.083393 14.637643 79 81 78
-46.429855 -54.971416 14.727039 140 141 147
-46.261524 -54.9151 14.722183 113 117 121
-46.104164 -54.900822 14.678405 142 139 145
-45.855469 -54.931793 14.688042 144 145 146
-45.704693 -54.904495 14.72268 127 126 132
-45.491955 -54.894466 14.695701 112 114 117
-45.308205 -54.878899 14.698006 137 134 145
-45.132793 -54.895245 14.712461 124 126 134
-44.938976 -54.869419 14.705089 100 102 102
-44.686111 -54.941097 14.701247 144 142 146
-44.499695 -54.922005 14.724999 124 123 128
-44.334805 -54.895386 14.713503 125 123 131
-44.156525 -54.923225 14.686276 126 124 132
-43.225174 -54.824566 14.651777 146 148 157
-43.098064 -54.891087 14.668455 131 133 139
-42.898048 -54.90416 14.600317 91 103 108
-42.668854 -54.872875 14.630081 99 95 105
-42.552525 -54.814209 14.673833 111 110 115
-40.862514 -54.872086 14.733438 146 138 138
-40.736195 -54.907207 14.695141 155 147 146
-40.520477 -54.952179 14.736124 118 118 117
-40.286461 -54.939564 14.772896 115 118 115
-40.086327 -54.933235 14.741892 105 109 106
-39.909794 -54.935719 14.719522 95 97 91
-39.702515 -54.932175 14.682822 100 100 98
-39.568703 -54.845108 14.732847 110 108 105
-38.22229 -54.929485 14.749631 81 87 82
-38.052094 -54.919769 14.688668 82 90 82
-37.929375 -54.946869 14.797316 168 151 151
-37.719585 -54.866665 14.739475 110 111 109
-37.558979 -54.816456 14.688725 133 133 132
-36.717896 -54.801643 14.761301 117 129 119
-36.029385 -54.859844 14.631331 151 155 148
-35.88681 -54.858166 14.65033 149 147 139
-35.710369 -54.898827 14.644335 144 142 136
-35.522541 -54.883171 14.645803 121 123 120
-35.301758 -54.847488 14.634041 93 102 97
-35.075256 -54.870617 14.704789 100 108 105
-34.908321 -54.870953 14.686204 86 100 95
-34.665474 -54.876926 14.707781 120 123 118
-34.505749 -54.890423 14.713051 105 112 109
-34.319786 -54.879128 14.688084 71 82 82
-34.075108 -54.835758 14.708896 90 95 91
-33.901806 -54.830002 14.691673 72 81 82
-32.881683 -54.925121 14.636787 66 72 70
-46.450996 -54.603249 14.648051 112 116 126
-46.320148 -54.704468 14.671217 140 140 148
-46.118866 -54.685677 14.719965 138 136 144
-45.901829 -54.684418 14.695722 142 139 144
-45.651577 -54.71698 14.728225 119 122 125
-45.484383 -54.686996 14.698942 120 122 127
-45.301235 -54.672138 14.710702 127 130 135
-45.103813 -54.694988 14.685854 130 131 135
-44.898987 -54.658947 14.694552 122 120 126
-44.707542 -54.671436 14.685913 126 125 128
-44.491776 -54.700233 14.7052 122 118 127
-44.31538 -54.708454 14.679243 128 121 128
-44.16386 -54.665344 14.749583 122 121 123
-43.222641 -54.75824 14.607935 59 69 70
-43.12907 -54.778332 14.643635 66 76 79
-42.691299 -54.6866 14.642426 98 96 105
-42.515881 -54.687828 14.675927 127 124 130
-42.331863 -54.694164 14.681927 120 120 125
-40.885826 -54.691608 14.736738 144 139 137
-40.019936 -54.730618 14.670243 118 121 116
-39.690815 -54.753143 14.702259 104 103 102
-39.49231 -54.771111 14.693628 118 114 112
-38.289486 -54.641224 14.741268 105 113 110
-38.056164 -54.747147 14.691564 91 95 91
-37.881851 -54.656116 14.675995 95 102 96
-37.750492 -54.72945 14.691051 103 105 99
-37.566235 -54.745636 14.708046 138 128 129
-37.323109 -54.713657 14.723827 157 142 145
-36.720943 -54.670052 14.748402 148 151 140
-36.471443 -54.660629 14.634375 120 125 119
-36.38113 -54.637775 14.638251 87 98 85
-36.064663 -54.686848 14.674493 156 152 144
-35.913559 -54.700912 14.677548 142 143 134
-35.700478 -54.694469 14.675125 130 134 128
-35.518101 -54.749798 14.665246 133 133 131
-35.292622 -54.725994 14.64858 120 127 124
-35.07143 -54.701221 14.69126 110 118 112
-34.911602 -54.714111 14.688116 97 109 104
-34.67244 -54.711735 14.719869 136 143 138
-34.516056 -54.716084 14.699398 118 130 124
-34.336143 -54.757935 14.761092 132 133 130
-34.111141 -54.775314 14.681903 135 140 143
-33.924343 -54.711834 14.69281 102 114 112
-33.698326 -54.662689 14.663778 98 111 111
-33.295616 -54.755836 14.773629 132 133 125
-33.186119 -54.755589 14.704805 112 108 107
-46.458076 -54.51001 14.717371 115 117 130
-46.30962 -54.466022 14.721807 117 117 128
-46.09388 -54.535522 14.690166 88 91 98
-45.683342 -54.467659 14.756868 120 118 127
-45.470352 -54.505878 14.713848 121 123 129
-45.309059 -54.500191 14.689386 126 128 133
-45.102604 -54.486122 14.698563 109 111 119
-44.88726 -54.509377 14.669067 117 117 123
-44.659172 -54.529762 14.692099 105 104 106
-44.465824 -54.500134 14.714406 129 122 124
-44.298462 -54.477905 14.691826 123 119 121
-44.149685 -54.5 14.754186 122 120 122
-42.667343 -54.508377 14.642897 134 127 129
-42.488689 -54.493927 14.659549 148 140 143
-42.345272 -54.52718 14.681114 115 115 118
-40.844452 -54.504696 14.719441 136 134 132
-40.727386 -54.464535 14.73538 134 135 134
-40.550934 -54.431252 14.662981 113 114 113
-39.166325 -54.407379 14.709471 115 116 111
-38.262814 -54.53767 14.693222 102 106 106
-37.828903 -54.594658 14.677313 101 107 100
-37.003708 -54.40662 14.707523 136 152 142
-36.90493 -54.477505 14.687626 120 132 128
-36.604267 -54.434322 14.735722 140 152 142
-36.485401 -54.495983 14.661993 134 137 130
-36.314598 -54.46423 14.673631 132 135 127
-36.106888 -54.520378 14.677465 135 138 128
-35.885494 -54.485893 14.67631 145 141 133
-35.694355 -54.488186 14.690122 125 127 121
-35.530529 -54.459217 14.686981 122 125 122
-35.32745 -54.472584 14.704153 79 90 87
-35.06691 -54.455875 14.679706 99 98 96
-34.847809 -54.463684 14.716502 117 124 123
-34.728718 -54.498005 14.713229 120 125 124
-34.516602 -54.489594 14.73974 112 122 119
-34.31823 -54.47073 14.732488 89 95 92
-34.093975 -54.480919 14.706571 95 107 107
-33.86898 -54.481514 14.710849 103 115 114
-33.717079 -54.515858 14.697842 116 128 128
-33.489185 -54.515202 14.700995 113 120 120
-33.33144 -54.502438 14.690948 113 117 119
-46.454826 -54.386585 14.724277 119 122 133
-46.266159 -54.294777 14.724323 107 108 115
-46.11512 -54.26775 14.66712 113 113 124
-45.895412 -54.273502 14.74511 130 125 140
-45.649303 -54.352043 14.723007 109 113 123
-45.494442 -54.289398 14.70751 109 114 120
-45.301353 -54.300377 14.703616 110 114 120
-45.10006 -54.336391 14.691903 112 115 120
-44.904049 -54.340279 14.71478 108 106 111
-44.704926 -54.292103 14.71989 119 115 116
-44.502968 -54.311787 14.716553 123 121 120
-44.250584 -54.287224 14.712893 126 125 123
-44.136951 -54.252411 14.71094 122 121 120
-43.64143 -54.303551 14.613556 84 77 100
-43.44878 -54.235104 14.61492 106 109 119
-43.326813 -54.306751 14.664497 128 127 142
-43.168621 -54.234474 14.650808 132 133 138
-42.489079 -54.340153 14.690573 142 134 133
-40.833916 -54.378532 14.741519 107 107 102
-40.689838 -54.322567 14.713638 122 121 120
-40.519848 -54.299038 14.684723 98 99 99
-40.357048 -54.27747 14.711042 117 119 117
-39.853142 -54.381317 14.655096 70 73 70
-39.762409 -54.303806 14.609165 63 64 66
-37.227173 -54.383423 14.670323 79 83 77
-36.873344 -54.306213 14.709581 90 104 100
-36.634743 -54.291382 14.680254 124 132 124
-36.474178 -54.316845 14.682118 141 141 133
-36.308926 -54.309834 14.722946 142 143 135
-36.112621 -54.315685 14.727322 134 134 125
-35.914661 -54.337318 14.711551 147 143 135
-35.679184 -54.335529 14.735775 140 136 132
-35.508377 -54.29126 14.699773 138 132 128
-35.318741 -54.284988 14.685983 117 117 116
-35.103378 -54.268089 14.712976 102 108 106
-34.88858 -54.28656 14.716921 122 127 121
-34.724903 -54.322987 14.716463 121 129 127
-34.51305 -54.29837 14.727974 118 127 127
-34.312962 -54.3246 14.681231 89 99 95
-34.088081 -54.292603 14.710709 89 104 101
-33.896523 -54.309475 14.715657 105 118 113
-33.706768 -54.334526 14.681855 101 116 115
-33.561455 -54.39101 14.617088 103 123 121
-33.304001 -54.398693 14.767395 153 142 146
-33.1059 -54.390343 14.675085 146 143 155
-32.890366 -54.370598 14.696293 100 102 108
-46.287537 -54.169102 14.693618 97 101 112
-46.074757 -54.091648 14.665721 111 113 118
-45.899002 -54.093075 14.732133 124 129 134
-45.661423 -54.107769 14.69077 102 107 116
-45.529037 -54.121136 14.712316 103 107 113
-45.357468 -54.149628 14.734824 106 111 117
-45.108032 -54.080318 14.666114 118 115 124
-44.887177 -54.091522 14.708116 106 105 106
-44.681335 -54.1035 14.688867 82 85 87
-44.481323 -54.059162 14.700124 134 132 132
-44.289902 -54.111229 14.712355 110 111 108
-44.161167 -54.12854 14.713066 101 104 103
-43.891464 -54.117382 14.650648 93 95 97
-43.688297 -54.114349 14.688711 106 103 115
-43.43763 -54.07856 14.691324 129 124 134
-43.31612 -54.093975 14.746791 105 106 113
-43.153576 -54.115719 14.755818 134 133 144
-40.656155 -54.060345 14.741882 99 95 96
-40.517487 -54.121056 14.717673 117 117 115
-40.388123 -54.173527 14.615452 95 102 97
-39.89555 -54.009445 14.796904 116 126 118
-39.267727 -54.098053 14.610478 85 83 87
-37.460957 -54.056942 14.704318 116 109 104
-37.375538 -54.105118 14.661571 116 108 104
-36.895699 -54.00388 14.697508 112 126 115
-36.721825 -54.088627 14.641345 123 137 125
-36.51495 -54.150723 14.682636 122 130 118
-36.306843 -54.098503 14.716619 139 141 133
-36.157032 -54.079426 14.717833 121 132 122
-35.972401 -54.106373 14.747643 104 115 110
-35.633255 -54.102901 14.788968 152 142 136
-35.491978 -54.141506 14.732642 136 129 125
-35.310757 -54.112701 14.701961 102 107 105
-35.086025 -54.13076 14.675771 90 97 95
-34.913616 -54.138412 14.713223 101 106 102
-34.723213 -54.127178 14.719193 112 124 121
-34.506962 -54.141689 14.655659 126 137 132
-34.288506 -54.127502 14.71047 109 121 118
-34.108154 -54.154263 14.72826 107 123 117
-33.912312 -54.129292 14.690887 104 119 114
-33.689205 -54.066986 14.737833 103 117 114
-33.505142 -54.034561 14.647065 103 117 116
-33.286861 -54.046997 14.701118 82 91 93
-33.114761 -54.084385 14.729815 89 93 96
-32.891308 -54.075844 14.700313 115 118 119
-32.763824 -54.104012 14.687236 130 141 144
-30.421923 -54.014278 14.621958 70 76 76
-46.069176 -53.88271 14.690676 92 97 102
-45.924377 -53.891869 14.707663 78 85 89
-45.680962 -53.848938 14.690247 88 95 101
-45.535538 -53.86219 14.687708 106 108 117
-45.23999 -53.869034 14.667415 109 105 113
-45.119644 -53.920208 14.705831 107 106 109
-44.817711 -53.941223 14.670589 143 134 137
-44.717941 -53.890572 14.722814 120 115 118
-44.51157 -53.895096 14.713704 128 125 122
-44.341709 -53.978016 14.652698 109 112 108
-44.075493 -53.933846 14.620937 94 104 104
-43.673721 -53.84787 14.668724 122 116 118
-43.512085 -53.909576 14.695315 164 151 157
-43.293125 -53.905533 14.679575 89 95 97
-43.133991 -53.878078 14.743627 120 119 126
-40.887665 -53.892517 14.701117 163 143 150
-40.710022 -53.920082 14.750321 152 144 145
-40.501762 -53.921757 14.706048 126 126 124
-39.85672 -53.938633 14.749125 89 93 99
-39.7257 -53.995461 14.659366 113 116 109
-39.59663 -53.991199 14.632639 124 124 122
-39.290306 -53.953419 14.71092 128 128 118
-37.64819 -53.888084 14.695536 99 99 93
-37.512779 -53.933189 14.658243 105 103 98
-37.133991 -53.963539 14.746973 83 99 89
-36.844437 -53.979649 14.622649 126 143 128
-36.412792 -53.891884 14.698423 132 136 126
-36.307846 -53.889553 14.708439 128 136 124
-36.130028 -53.864616 14.713237 110 123 113
-35.939476 -53.849552 14.782916 109 120 107
-35.671997 -53.929016 14.748761 114 106 102
-35.512512 -53.851978 14.733475 124 122 116
-35.304787 -53.903126 14.71346 103 105 100
-35.132812 -53.863613 14.72188 72 84 83
-34.680077 -53.883583 14.693156 83 95 94
-34.483505 -53.9319 14.714096 100 115 112
-34.3074 -53.885685 14.71838 100 118 114
-34.085529 -53.830734 14.666089 96 118 116
-33.858315 -53.908291 14.676629 104 117 113
-33.658112 -53.968304 14.717553 96 111 107
-33.500847 -53.914524 14.73281 96 107 106
-33.317772 -53.852905 14.690484 87 99 98
-33.090195 -53.885208 14.716619 119 126 132
-32.877857 -53.845406 14.733562 110 114 121
-32.717896 -53.862522 14.707011 111 113 120
-32.49789 -53.814365 14.695259 112 116 127
-32.315933 -53.853539 14.660398 72 81 80
-30.867989 -53.897034 14.726388 89 101 97
-30.751287 -53.873253 14.699842 104 113 113
-30.581451 -53.993267 14.638514 100 100 98
-46.12822 -53.791893 14.687833 90 95 104
-45.660667 -53.776672 14.677516 73 81 85
-45.457489 -53.75732 14.694404 92 92 100
-45.282177 -53.712055 14.727862 133 126 132
-45.072594 -53.677959 14.690164 131 127 126
-44.866398 -53.683563 14.71249 143 137 137
-44.692047 -53.675476 14.706911 126 121 118
-44.533985 -53.664642 14.693672 115 114 113
-44.278812 -53.690639 14.600006 93 101 105
-44.114311 -53.660355 14.647676 98 96 103
-43.827698 -53.65535 14.716513 128 126 131
-43.68372 -53.696236 14.705978 138 135 133
-43.554775 -53.702995 14.715724 140 135 136
-43.277599 -53.71883 14.702851 118 118 124
-43.099705 -53.718128 14.698944 120 118 124
-42.733952 -53.732243 14.784048 152 142 153
-41.172714 -53.712097 14.62009 130 124 134
-40.838974 -53.664833 14.742976 135 127 130
-40.725254 -53.694546 14.709219 140 139 139
-37.655827 -53.699242 14.731369 102 99 95
-37.578766 -53.63147 14.691528 109 105 101
-37.281811 -53.688362 14.678155 82 95 86
-37.067413 -53.723434 14.691226 100 113 107
-36.855957 -53.645206 14.739302 105 118 113
-36.613384 -53.673092 14.637413 121 131 120
-36.484642 -53.664642 14.70813 131 137 126
-36.343239 -53.718239 14.711924 118 132 118
-36.126465 -53.745819 14.71582 128 145 131
-35.49725 -53.77882 14.757314 101 102 96
-35.24683 -53.756702 14.723674 123 123 123
-35.108509 -53.747162 14.71902 101 104 101
-34.899483 -53.652702 14.714849 96 105 103
-34.700111 -53.681599 14.716627 71 86 83
-34.508617 -53.748833 14.729847 120 132 136
-34.291916 -53.716412 14.67429 126 140 140
-34.115788 -53.699001 14.702682 108 125 125
-33.903378 -53.71278 14.695211 113 129 128
-33.428497 -53.776993 14.685618 136 142 141
-33.251194 -53.794716 14.604013 102 111 108
-33.101337 -53.789772 14.744821 121 127 132
-32.950016 -53.782745 14.678827 119 127 134
-32.67371 -53.760212 14.718977 104 111 116
-32.484943 -53.723103 14.703136 113 116 124
-32.310234 -53.711506 14.682446 88 95 98
-32.085922 -53.649639 14.742603 108 112 116
-31.877733 -53.619911 14.68965 98 98 105
-31.43692 -53.680088 14.616478 89 93 94
-30.712402 -53.709332 14.684152 88 99 98
-30.517855 -53.670536 14.669207 88 100 98
-45.893414 -53.486595 14.622618 165 160 163
-45.412418 -53.520645 14.663358 103 103 109
-45.34774 -53.539803 14.727513 107 104 105
-45.091133 -53.536419 14.688895 132 126 122
-44.901249 -53.536266 14.711212 149 144 138
-44.698608 -53.538792 14.730461 133 130 125
-44.573116 -53.455383 14.6708 103 105 100
-44.290249 -53.501011 14.681289 74 75 82
-44.067863 -53.588699 14.711176 96 90 102
-43.900288 -53.501583 14.720614 135 129 134
-43.665779 -53.474586 14.702239 126 126 121
-43.520977 -53.504776 14.735781 131 125 124
-43.289673 -53.49707 14.755182 138 137 132
