ply
format ascii 1.0
comment PCL generated
obj_info Generated by CloudCompare!
element vertex 1133
property float x
property float y
property float z
property uchar red
property uchar green
property uchar blue
end_header
5.905508 -32.330578 13.146491 97 101 104 
6.048662 -32.339909 13.101706 98 103 105 
6.264117 -32.301178 13.141188 97 95 102 
6.543242 -32.276241 13.087456 94 91 91 
6.678939 -32.355053 13.149424 117 119 119 
6.923828 -32.268291 13.141357 85 94 92 
7.040152 -32.230747 13.090344 79 89 85 
7.284867 -32.249039 13.135851 136 147 138 
-2.261103 -32.144356 13.103952 75 86 91 
-2.071525 -32.136162 13.085317 102 108 117 
-1.899057 -32.129864 13.105182 109 116 124 
-1.696486 -32.124538 13.079679 101 109 116 
-1.493007 -32.090393 13.108465 102 111 118 
-1.273057 -32.095238 13.071010 107 113 121 
-1.092413 -32.097958 13.077375 101 108 113 
-0.911058 -32.113724 13.087560 101 106 112 
-0.699670 -32.086601 13.140794 105 109 114 
-0.513366 -32.084229 13.102181 147 149 151 
-0.308883 -32.133675 13.112537 142 132 123 
-0.109473 -32.080093 13.103386 127 125 115 
0.045950 -32.041283 13.112366 114 116 103 
0.719336 -32.090332 13.137027 71 76 67 
0.889258 -32.086922 13.080528 93 96 86 
1.077624 -32.110764 13.155578 84 92 78 
3.895987 -32.042183 13.086053 94 101 100 
4.086472 -32.075939 13.054058 92 100 100 
4.502851 -32.125175 13.116280 84 83 85 
4.683558 -32.150372 13.092440 114 110 112 
4.900335 -32.098812 13.134933 113 114 115 
5.087625 -32.089233 13.134022 97 100 100 
5.323764 -32.062412 13.120596 117 113 119 
5.500478 -32.076862 13.124121 88 88 90 
5.726557 -32.100315 13.096744 118 114 118 
5.930434 -32.119698 13.099042 112 111 115 
6.108081 -32.142029 13.109560 121 117 125 
6.286983 -32.119633 13.133206 132 127 134 
6.468221 -32.105877 13.135847 100 98 103 
6.723724 -32.110931 13.141835 129 123 124 
7.020749 -32.072670 13.129624 53 63 61 
7.490943 -32.170189 13.106380 122 126 125 
-1.847669 -31.911833 13.047579 98 104 112 
-1.695972 -31.923786 13.072077 107 115 123 
-1.484938 -31.916838 13.072839 110 116 126 
-1.265563 -31.929171 13.103792 123 124 135 
-1.103976 -31.900555 13.091201 114 117 125 
-0.913352 -31.913506 13.093875 108 114 122 
-0.692786 -31.903351 13.101758 117 120 127 
-0.486896 -31.884129 13.137001 115 121 122 
-0.304195 -31.883532 13.060043 129 123 119 
-0.100218 -31.885748 13.103624 139 133 127 
0.009969 -31.889481 13.118829 123 118 105 
0.725371 -31.932693 13.127902 57 69 59 
1.080210 -31.936829 13.168716 138 142 127 
2.675896 -31.874580 13.117816 75 80 75 
3.585215 -31.816933 13.014156 80 88 83 
3.878021 -31.891249 13.083440 80 90 88 
4.177258 -31.937807 13.015850 103 114 110 
4.543986 -31.961903 13.074389 111 116 119 
4.663249 -31.881845 13.074541 79 79 83 
4.946224 -31.875959 13.116984 94 98 97 
5.118325 -31.905390 13.102057 93 97 97 
5.301613 -31.931198 13.077441 114 117 118 
5.508574 -31.873590 13.072664 95 98 98 
5.755268 -31.822487 13.068687 115 113 114 
5.860352 -31.928339 13.120822 120 121 124 
6.254127 -31.971100 13.125420 107 108 113 
6.480083 -31.928368 13.103435 117 111 117 
6.726584 -31.890574 13.115927 112 105 112 
6.874233 -31.982185 13.116767 102 102 107 
7.094531 -31.853683 13.163286 61 69 64 
7.461289 -31.968069 13.131272 68 79 81 
-1.841391 -31.719830 13.100918 96 106 111 
-1.709824 -31.748085 13.099594 81 90 94 
-1.525842 -31.770563 13.044782 96 107 114 
-1.310985 -31.775644 13.070259 121 125 138 
-0.923742 -31.788418 13.121635 115 121 130 
-0.699304 -31.688158 13.066621 118 122 132 
-0.487987 -31.702173 13.094970 114 117 126 
-0.289241 -31.698496 13.105135 113 116 113 
-0.112671 -31.724117 13.101359 128 127 123 
0.058146 -31.696148 13.082921 139 129 122 
0.303960 -31.612288 13.096691 134 136 128 
0.498087 -31.650320 13.089193 105 94 90 
0.832045 -31.764179 13.060860 100 102 97 
2.591209 -31.784733 13.184624 86 89 82 
3.526665 -31.686243 13.126814 84 88 82 
3.717102 -31.767616 13.016818 131 130 123 
4.329892 -31.674412 13.094730 90 86 88 
4.489868 -31.702356 13.077211 92 89 90 
4.685843 -31.675098 13.118269 99 98 100 
4.922548 -31.693453 13.141003 85 89 91 
5.103655 -31.743145 13.138664 88 93 94 
5.331924 -31.711912 13.110347 87 94 93 
5.422387 -31.719259 13.075219 103 106 108 
6.842540 -31.694132 13.176735 120 119 123 
7.059242 -31.728182 13.143407 97 90 94 
7.335373 -31.681803 13.134067 98 99 102 
7.478072 -31.639591 13.128153 85 89 89 
-0.465348 -31.585226 13.013116 133 135 148 
-0.262937 -31.503695 13.121460 143 141 140 
-0.105918 -31.478344 13.105347 148 143 137 
0.091598 -31.518417 13.096242 153 142 137 
0.282168 -31.511669 13.084469 122 121 114 
0.514486 -31.496481 13.103786 133 126 117 
1.379450 -31.561993 13.184944 112 114 100 
1.454250 -31.535997 13.159752 86 84 77 
1.862360 -31.470833 13.012202 93 90 81 
3.333570 -31.498009 13.167466 104 111 110 
3.564488 -31.512877 13.097084 58 60 59 
3.647099 -31.531128 13.110506 69 75 71 
3.993799 -31.442673 13.141962 95 86 85 
4.142069 -31.493578 13.139218 92 94 93 
4.278490 -31.496315 13.126709 78 80 80 
4.525141 -31.500898 13.126583 88 88 89 
4.682625 -31.493977 13.099365 85 89 89 
4.915155 -31.516941 13.120257 90 94 95 
5.114558 -31.508060 13.083469 111 115 114 
7.350786 -31.538979 13.118745 81 85 85 
7.501981 -31.463379 13.154517 84 90 88 
7.649661 -31.492340 13.080715 68 79 75 
-0.258298 -31.341827 13.178958 92 99 102 
-0.094343 -31.307426 13.098514 175 167 167 
0.131500 -31.340296 13.077594 127 128 122 
0.303899 -31.319586 13.094522 111 115 108 
0.518785 -31.287443 13.108747 143 136 129 
0.670302 -31.256287 13.102012 151 143 137 
0.910540 -31.225304 13.128430 127 115 109 
1.502684 -31.242077 13.181734 101 102 97 
1.700009 -31.382263 13.141678 176 169 165 
3.520550 -31.370974 13.123560 76 82 78 
3.699311 -31.302963 13.063126 69 73 73 
3.918247 -31.314520 13.101753 76 75 73 
4.114279 -31.294819 13.117497 88 91 93 
4.300672 -31.276628 13.115280 73 79 79 
4.471689 -31.313416 13.117421 77 80 80 
4.701712 -31.318321 13.115093 87 91 92 
4.862019 -31.305264 13.088694 100 99 103 
6.336258 -31.219501 13.146712 130 125 131 
7.149543 -31.319778 13.117306 106 105 110 
7.330821 -31.239361 13.058434 173 155 169 
7.413294 -31.384468 13.065474 126 120 130 
7.667446 -31.282938 13.150499 78 86 83 
9.920333 -31.397024 13.117105 77 89 87 
0.048104 -31.195368 13.150129 82 92 93 
0.539684 -31.128040 13.086596 150 146 140 
0.691289 -31.122902 13.118492 147 140 137 
0.916291 -31.102808 13.124609 122 118 113 
1.095552 -31.076206 13.098156 133 127 122 
1.269326 -31.054977 13.108983 129 129 124 
1.486075 -31.035147 13.096193 179 168 169 
1.606529 -31.008303 13.144275 115 116 110 
3.424767 -31.039265 13.061295 84 89 83 
3.712556 -31.079317 13.131024 70 78 75 
3.923850 -31.115311 13.090233 73 78 77 
4.150039 -31.095245 13.106750 91 94 97 
4.335727 -31.091953 13.135456 74 78 81 
4.505166 -31.105068 13.097422 86 90 91 
4.675463 -31.121914 13.092493 92 95 96 
4.837983 -31.089373 13.072536 103 111 111 
5.034357 -31.130056 13.064609 93 98 95 
6.998099 -31.199356 13.167692 85 83 88 
7.308155 -31.104042 13.138504 90 85 89 
7.511487 -31.143112 13.145195 76 80 83 
7.986662 -31.066360 13.100826 108 107 103 
0.306425 -30.847851 13.172710 160 156 153 
0.509531 -30.875286 13.013403 116 115 111 
0.750751 -30.929064 13.090164 133 122 122 
0.875678 -30.913973 13.090694 94 96 92 
1.106007 -30.925884 13.098448 128 122 119 
1.284876 -30.889769 13.080016 127 121 118 
1.506184 -30.916647 13.076601 123 119 114 
1.690697 -30.873604 13.114685 150 140 135 
1.887303 -30.817139 13.046385 144 134 132 
3.328805 -30.959763 13.057527 82 89 86 
3.417127 -30.990324 13.040017 95 101 97 
3.773363 -30.836346 13.103256 80 88 90 
3.961066 -30.998238 13.151844 86 90 89 
4.137784 -30.905195 13.105508 76 82 83 
4.314753 -30.920204 13.086881 86 90 93 
4.503480 -30.882645 13.093296 84 87 87 
4.692043 -30.884815 13.105743 101 104 105 
4.853389 -30.988873 13.155579 167 177 178 
7.179758 -30.984869 13.162544 118 117 123 
7.332637 -30.869888 13.129890 109 106 106 
7.536411 -30.832096 13.143238 140 133 138 
7.704199 -30.871706 13.168918 115 115 119 
7.974099 -30.933409 13.139112 102 108 107 
8.113662 -30.856941 13.098641 92 98 97 
0.912192 -30.616240 13.073624 104 96 94 
1.117689 -30.739058 13.103611 168 153 155 
1.320473 -30.703560 13.104140 135 125 124 
1.467321 -30.725361 13.094060 116 111 108 
1.720708 -30.697245 13.089309 131 121 119 
1.900625 -30.654713 13.095551 137 129 124 
2.099333 -30.642765 13.117905 110 103 94 
3.370534 -30.711655 13.106816 87 96 90 
3.493018 -30.684814 13.039117 77 78 76 
3.733722 -30.685785 13.127863 117 116 120 
4.157585 -30.678761 13.081549 111 104 108 
4.324430 -30.690012 13.088409 102 102 106 
4.477596 -30.669510 13.098702 94 101 104 
4.663855 -30.719854 13.111001 91 96 93 
4.815834 -30.683853 13.086941 99 100 102 
7.139301 -30.676697 13.169846 115 107 114 
7.349570 -30.753487 13.074780 147 142 146 
7.497977 -30.686296 13.112076 130 128 131 
7.695215 -30.703583 13.110589 125 121 125 
7.873693 -30.745123 13.130867 93 94 96 
8.077036 -30.738262 13.174976 89 97 96 
8.255756 -30.798153 13.121161 94 90 91 
0.953494 -30.505020 13.079525 233 217 220 
1.030919 -30.452705 13.092478 64 59 63 
1.287239 -30.512821 13.079124 154 138 141 
1.494538 -30.582113 13.093907 136 131 126 
1.687152 -30.513470 13.085779 139 133 135 
1.938833 -30.523014 13.071789 141 131 126 
2.079144 -30.495844 13.102588 135 127 123 
2.236617 -30.494509 13.104492 136 131 125 
2.570934 -30.507364 13.067074 131 130 125 
2.760061 -30.452063 13.181593 133 128 133 
2.879280 -30.549608 13.144747 135 131 122 
3.099260 -30.541790 13.132025 119 110 111 
3.367743 -30.499529 13.094807 74 76 77 
3.496655 -30.475536 13.103633 103 106 110 
3.667441 -30.456718 13.107185 86 90 89 
3.912119 -30.456711 13.135856 139 138 134 
4.107491 -30.453079 13.111732 106 104 103 
4.351066 -30.547455 13.067795 101 103 108 
4.463287 -30.442720 13.142978 101 103 104 
4.684821 -30.489777 13.124406 108 105 109 
4.824555 -30.472225 13.185595 125 126 130 
7.055387 -30.574829 13.195873 94 88 88 
7.266857 -30.500715 13.157070 117 102 107 
7.735701 -30.527056 13.151798 101 101 102 
7.905235 -30.443420 13.141712 92 98 95 
1.117975 -30.309927 13.010101 139 134 140 
1.342051 -30.267389 13.053852 176 165 161 
1.535393 -30.315685 13.080050 120 118 118 
1.669722 -30.365509 13.086229 135 128 128 
1.890163 -30.303074 13.130908 167 148 155 
2.106477 -30.285631 13.087712 148 132 131 
2.291780 -30.315590 13.060039 150 131 131 
2.455139 -30.281860 13.060870 165 148 149 
2.737422 -30.236748 13.123758 123 116 118 
2.922776 -30.251375 13.081792 94 93 93 
3.120278 -30.300995 13.136575 65 70 67 
3.293144 -30.330677 13.086177 89 93 89 
3.489568 -30.300076 13.098566 159 149 157 
3.928697 -30.289532 13.119833 107 106 101 
4.069862 -30.262878 13.134922 114 115 115 
4.268437 -30.353462 13.128696 98 103 105 
4.480554 -30.301147 13.105793 116 120 123 
4.694843 -30.289108 13.127258 125 120 125 
4.936664 -30.378796 13.111257 111 100 102 
5.319021 -30.274214 13.129012 44 55 47 
6.862287 -30.316383 13.184698 76 71 77 
7.520582 -30.390234 13.185535 136 135 141 
7.745221 -30.291950 13.161137 108 103 109 
7.950729 -30.305719 13.149329 108 113 113 
8.126596 -30.264420 13.154613 97 100 97 
1.369596 -30.165697 13.072427 193 185 182 
1.492490 -30.108513 13.089385 152 141 140 
1.760869 -30.144890 13.123020 173 163 164 
1.919424 -30.109907 13.107169 154 142 146 
2.103019 -30.080494 13.086370 136 123 123 
2.299677 -30.111492 13.096312 160 143 144 
2.493376 -30.102495 13.074652 143 127 127 
2.672467 -30.088373 13.081056 126 115 115 
2.874560 -30.114830 13.067004 114 106 107 
3.031429 -30.084188 13.062038 103 102 94 
3.588938 -30.176817 13.148270 71 73 68 
3.764945 -30.062347 13.105670 128 117 114 
3.910232 -30.046268 13.110865 101 100 100 
4.087211 -30.109560 13.129472 104 100 103 
4.239385 -30.128269 13.149885 71 76 77 
4.473720 -30.129299 13.095945 93 97 99 
4.655829 -30.106398 13.091806 130 119 123 
4.805932 -30.109148 13.118608 61 70 69 
5.438648 -30.001627 13.167299 116 115 123 
6.112926 -30.044100 13.103564 80 81 82 
6.515876 -30.015665 13.098053 136 141 137 
7.170506 -30.025806 13.122391 123 129 128 
7.528160 -30.090227 13.154282 126 122 128 
7.684216 -30.094091 13.160548 113 111 116 
7.905804 -30.084909 13.126746 91 91 92 
8.184465 -30.185699 13.112293 127 127 125 
8.256680 -30.042778 13.195998 107 110 111 
1.867898 -29.839970 13.025219 114 116 105 
2.101369 -29.872360 13.080079 156 148 142 
2.332756 -29.942677 13.100507 135 120 122 
2.493148 -29.942434 13.128363 145 125 127 
2.664778 -29.913057 13.124660 136 122 123 
2.911111 -29.919527 13.120932 105 103 94 
3.705150 -29.935991 13.157377 79 75 74 
3.911618 -29.904741 13.071994 104 102 102 
4.083624 -29.862139 13.063081 78 84 82 
4.258644 -29.915007 13.073262 144 129 132 
4.560066 -29.886894 13.149215 84 87 85 
4.761066 -29.884186 13.092800 91 82 92 
4.997721 -29.955023 13.067499 72 76 79 
5.125814 -29.842470 13.138622 85 88 88 
5.257542 -29.828861 13.140980 109 108 111 
5.475570 -29.881870 13.154678 99 97 102 
5.664232 -29.887932 13.134127 99 96 99 
6.322992 -29.933416 13.185199 88 93 95 
6.485153 -29.883392 13.185135 129 131 137 
7.137915 -29.876980 13.182199 141 143 150 
7.240522 -29.890144 13.094378 143 147 147 
7.541714 -29.945608 13.148839 100 106 108 
7.708069 -29.907114 13.089094 84 85 87 
8.298833 -29.830442 13.193824 154 148 150 
2.118125 -29.724277 13.044022 145 136 130 
2.312834 -29.672043 13.157437 136 121 125 
2.493373 -29.676107 13.099791 121 113 108 
2.683236 -29.665466 13.108619 107 105 96 
2.812991 -29.708731 13.031101 105 96 89 
3.056364 -29.719734 13.028025 88 95 86 
3.692922 -29.708893 13.095364 104 106 104 
3.896284 -29.686056 13.090085 109 107 105 
4.108965 -29.708876 13.061493 116 115 118 
4.285489 -29.691822 13.156507 109 111 106 
4.513714 -29.668694 13.106414 81 94 83 
4.688601 -29.638031 13.137775 83 90 84 
4.880503 -29.665941 13.115304 84 90 87 
5.096953 -29.714069 13.125285 102 105 105 
5.280000 -29.666698 13.116522 119 119 121 
5.445754 -29.681280 13.078474 99 102 97 
5.719974 -29.603596 13.164435 79 84 78 
6.115614 -29.656120 13.128625 69 76 80 
6.278465 -29.657595 13.146342 88 95 98 
6.478683 -29.694965 13.168756 88 92 95 
7.162676 -29.766598 13.176239 111 117 122 
7.665073 -29.790985 13.107573 56 65 64 
7.816597 -29.644323 13.191368 77 81 82 
8.065323 -29.629791 13.058350 118 108 106 
2.063733 -29.522623 13.058265 114 110 105 
2.314680 -29.556696 13.089641 120 114 106 
2.518800 -29.563066 13.089142 124 117 108 
2.645941 -29.557732 13.012238 109 112 101 
3.898021 -29.505177 13.067180 121 118 117 
4.069517 -29.462973 13.083817 94 95 90 
4.294007 -29.469671 13.091225 110 111 110 
4.502914 -29.510777 13.116155 98 100 96 
4.673037 -29.483603 13.126621 76 87 80 
4.836936 -29.475534 13.100251 63 75 68 
5.107066 -29.561974 13.069590 86 93 87 
5.271900 -29.486517 13.069858 82 89 85 
5.485467 -29.477833 13.146015 91 96 93 
5.680610 -29.485920 13.114963 80 84 81 
5.886696 -29.478449 13.098848 88 89 87 
6.115879 -29.485977 13.121509 82 89 86 
6.276065 -29.489199 13.137345 109 110 108 
6.451511 -29.526855 13.108271 134 134 134 
6.715241 -29.434645 13.139048 135 139 144 
6.849073 -29.479956 13.187807 118 123 127 
7.103650 -29.447102 13.138742 87 92 94 
7.259417 -29.481041 13.163929 95 99 103 
7.738097 -29.490776 13.172380 89 80 83 
7.913905 -29.523935 13.173499 107 103 103 
8.078696 -29.563652 13.104285 145 135 137 
8.264867 -29.505802 13.106575 71 78 75 
-5.787434 -29.267969 13.080486 158 148 160 
2.532641 -29.200127 13.132827 182 154 142 
2.689655 -29.239325 13.090617 121 111 103 
2.842096 -29.238867 13.031890 120 113 108 
3.945433 -29.316719 13.088702 84 90 83 
4.107139 -29.288502 13.096241 80 87 80 
4.285362 -29.278625 13.095785 80 88 79 
4.547849 -29.296635 13.144599 93 93 89 
4.668232 -29.298231 13.121527 100 102 95 
4.932576 -29.318195 13.120911 71 81 72 
5.113448 -29.288834 13.121792 84 91 87 
5.321363 -29.304375 13.114407 89 93 89 
5.452237 -29.344597 13.135839 103 105 104 
5.668447 -29.365036 13.126485 90 94 91 
5.858266 -29.337284 13.057049 88 89 86 
6.313318 -29.342163 13.131815 103 104 103 
6.461937 -29.309025 13.153639 120 120 118 
6.705350 -29.301739 13.174081 109 113 115 
6.882633 -29.264498 13.164538 107 110 111 
7.106884 -29.269459 13.149794 94 100 99 
7.264646 -29.298704 13.072157 78 88 87 
7.968961 -29.267689 13.185572 95 95 98 
8.044204 -29.358902 13.150124 98 99 100 
8.317077 -29.307537 13.145337 75 74 72 
2.324424 -29.060194 13.138858 161 131 130 
2.497468 -29.084545 13.096672 144 123 120 
2.714113 -29.102396 13.094133 117 106 103 
2.902637 -29.053009 13.122033 135 122 119 
3.096851 -29.051500 13.070354 91 92 88 
3.936423 -29.095863 13.065263 101 106 99 
4.086979 -29.132223 13.133462 76 86 79 
4.308252 -29.087482 13.060482 67 77 73 
4.505555 -29.096691 13.098506 90 95 87 
4.653077 -29.132027 13.107405 100 104 95 
5.137875 -29.117941 13.079676 55 67 55 
5.305981 -29.136406 13.125985 68 75 69 
5.539275 -29.151066 13.057802 78 81 77 
5.707042 -29.077309 13.047943 91 90 90 
6.271894 -29.195303 13.143154 136 125 131 
6.553514 -29.095497 13.184317 131 127 124 
6.715544 -29.110638 13.141057 103 106 105 
6.899597 -29.151890 13.169340 111 113 111 
7.107447 -29.137167 13.162135 97 103 101 
7.242106 -29.124630 13.102458 74 81 79 
7.898989 -29.157976 13.166197 95 93 104 
8.096805 -29.004255 13.161123 52 62 61 
2.332183 -28.862202 13.130594 160 131 125 
2.488836 -28.903725 13.116664 140 126 119 
2.690668 -28.908442 13.118874 134 115 115 
2.897356 -28.898010 13.087751 95 90 87 
3.060768 -28.887938 13.126862 126 114 110 
3.754124 -28.880131 13.098338 95 101 92 
3.962782 -28.918703 13.072086 95 103 93 
4.078013 -28.928383 13.143829 81 92 82 
4.307063 -28.895065 13.071242 64 75 69 
4.494247 -28.905924 13.094643 91 97 89 
4.638683 -28.935123 13.105855 90 97 88 
5.117547 -28.906906 13.174850 98 102 93 
5.216033 -28.895918 13.171221 101 109 98 
5.568769 -28.997969 13.179575 79 89 81 
6.726415 -28.937220 13.130450 124 118 120 
6.896331 -28.897457 13.143662 93 93 98 
7.137947 -28.910559 13.166656 72 81 78 
7.278133 -28.833096 13.061876 86 97 93 
8.418694 -28.832399 13.162333 64 79 73 
-5.135934 -28.799753 13.049309 149 142 154 
2.183060 -28.673103 13.053877 143 120 133 
2.331883 -28.707497 13.063386 151 125 125 
2.493092 -28.699165 13.105749 177 144 144 
2.703305 -28.693739 13.120407 158 139 138 
2.864079 -28.653870 13.099220 115 108 104 
3.076332 -28.706377 13.149686 110 105 103 
3.539056 -28.634714 13.119210 101 103 96 
3.717598 -28.673828 13.117255 97 102 94 
3.897550 -28.705177 13.098943 92 100 93 
4.086020 -28.746613 13.085176 99 106 98 
4.315139 -28.709215 13.144022 77 87 77 
4.485990 -28.719122 13.118518 71 81 72 
4.628310 -28.742256 13.038134 81 91 81 
4.949757 -28.610924 13.189137 83 74 75 
6.890961 -28.699232 13.150620 123 116 121 
7.112396 -28.710796 13.143967 104 105 112 
7.234331 -28.734058 13.135217 124 116 126 
7.435628 -28.641436 13.137720 83 92 89 
8.183424 -28.655542 13.125341 77 83 82 
8.337174 -28.693516 13.125298 74 83 80 
8.479346 -28.720985 13.088936 68 81 77 
8.621999 -28.738995 13.099502 68 84 80 
8.911178 -28.712347 13.157537 48 60 58 
2.509514 -28.508356 13.069081 180 151 152 
2.680224 -28.494562 13.106860 175 138 143 
2.902551 -28.427320 13.100029 121 85 95 
3.086644 -28.533100 13.030439 162 144 141 
3.248919 -28.557871 13.055291 88 90 86 
3.552075 -28.508060 13.147549 109 107 106 
3.706285 -28.507637 13.119447 109 110 106 
3.905046 -28.514370 13.092021 101 104 102 
4.097401 -28.469418 13.149256 86 94 88 
4.302639 -28.480425 13.140933 82 90 83 
4.499314 -28.551468 13.117251 75 84 75 
4.728455 -28.535841 13.058796 75 81 73 
5.018278 -28.591887 13.193840 187 168 174 
6.963315 -28.512007 13.173206 119 115 109 
7.121110 -28.455917 13.135546 95 100 97 
7.275306 -28.550362 13.154674 105 107 110 
7.522686 -28.506254 13.083153 68 78 75 
8.122783 -28.487034 13.078161 80 85 83 
8.335074 -28.477354 13.080785 82 85 86 
8.459609 -28.529608 13.101960 66 73 73 
8.721585 -28.531122 13.081146 74 85 83 
8.838840 -28.466480 13.085062 73 85 86 
2.534938 -28.376137 13.155178 184 150 149 
2.752661 -28.328920 13.099801 169 138 146 
2.854741 -28.267685 13.124521 131 112 120 
3.098502 -28.314594 13.080909 95 91 94 
3.235784 -28.298067 13.026696 93 86 94 
3.540518 -28.341974 13.098558 133 123 121 
3.690731 -28.337368 13.077806 110 114 111 
3.891867 -28.291651 13.117372 106 111 110 
4.078655 -28.279160 13.119894 88 96 93 
4.296534 -28.284594 13.129040 95 101 96 
4.480785 -28.280111 13.110589 120 122 114 
6.975160 -28.365160 13.189981 126 123 122 
7.092124 -28.300249 13.135986 109 109 110 
7.294514 -28.303745 13.124922 57 69 67 
7.492254 -28.340683 13.134837 59 75 73 
8.265301 -28.282946 13.124095 94 100 95 
8.508038 -28.380814 13.196142 99 95 96 
2.746613 -28.120642 13.021074 177 138 141 
2.867787 -28.007641 13.109022 173 143 153 
3.102858 -28.107193 13.117906 83 86 92 
3.725204 -28.168217 13.088411 109 110 108 
3.897871 -28.162531 13.060875 102 108 106 
4.094305 -28.125402 13.082335 98 105 103 
4.296464 -28.096193 13.080450 103 107 102 
4.510460 -28.082336 13.129242 101 103 97 
4.698106 -28.101988 13.096764 96 99 91 
6.984880 -28.106327 13.131870 118 110 115 
7.129028 -28.147102 13.092580 72 77 77 
7.372796 -28.085640 13.195491 70 81 76 
8.267042 -28.137272 13.147875 90 97 93 
8.501656 -28.132286 13.125923 98 105 102 
8.696862 -28.125336 13.138952 85 94 93 
8.876449 -28.191095 13.184372 113 119 119 
9.015496 -28.030155 13.141697 107 101 103 
3.052826 -27.997330 13.091108 74 75 77 
4.304415 -27.918898 13.040597 129 128 121 
4.496226 -27.921143 13.124612 112 116 108 
4.655873 -27.918781 13.061408 106 109 99 
5.980780 -27.941204 13.133716 86 97 89 
6.926231 -27.999739 13.149161 117 111 115 
7.037405 -27.846346 13.101561 66 65 70 
7.321317 -27.925238 13.154312 62 71 68 
8.112767 -27.937403 13.120229 74 76 75 
8.357136 -27.895315 13.126186 89 93 90 
8.456604 -27.922401 13.160481 88 96 96 
8.765573 -27.849318 13.167936 80 90 85 
8.905498 -27.859156 13.088651 128 126 115 
4.384437 -27.619263 13.174261 121 125 111 
4.495038 -27.690420 13.124166 111 115 107 
4.726197 -27.694523 13.184217 95 97 91 
4.968446 -27.759754 13.194202 106 103 98 
7.663438 -27.784008 13.141829 87 92 95 
8.198973 -27.773064 13.174843 84 89 85 
8.360928 -27.683886 13.171844 92 100 95 
3.508283 -27.509302 13.035978 81 80 85 
3.870001 -27.520710 13.045921 142 143 141 
4.172178 -27.434906 13.019264 87 95 89 
4.315043 -27.433567 13.089948 113 110 105 
4.491296 -27.495771 13.123546 120 121 118 
4.672602 -27.526627 13.106127 105 106 102 
7.102740 -27.412085 13.171855 70 78 81 
7.663641 -27.554131 13.124178 87 92 94 
7.832852 -27.490009 13.143128 111 118 116 
8.176029 -27.528399 13.160550 68 79 71 
8.255267 -27.448345 13.183077 93 104 100 
8.552122 -27.498571 13.109696 109 114 110 
3.853360 -27.393261 13.029265 85 90 93 
4.109151 -27.272945 13.106509 125 124 125 
4.303443 -27.303610 13.097994 120 119 117 
4.457110 -27.290504 13.096933 118 118 117 
4.678045 -27.315121 13.164462 113 112 108 
4.896506 -27.352394 13.082411 114 116 113 
6.999306 -27.267292 13.126921 74 84 86 
7.179779 -27.285185 13.059214 77 87 88 
7.264322 -27.380106 13.101622 79 86 87 
7.739323 -27.222643 13.146213 81 91 90 
7.949909 -27.305199 13.151841 75 83 80 
4.147178 -27.158682 13.107521 128 132 134 
4.303331 -27.119286 13.105171 139 139 140 
4.486285 -27.087116 13.099699 140 139 141 
4.663541 -27.120119 13.098385 114 114 112 
4.878211 -27.144665 13.039570 122 120 118 
6.972137 -27.133150 13.104227 71 79 82 
7.070207 -27.072063 13.114656 70 77 82 
7.764512 -27.074976 13.157046 79 87 79 
7.936700 -27.193428 13.192654 72 85 77 
8.516895 -27.028957 13.148240 73 83 81 
4.181673 -26.969307 13.027931 192 186 190 
4.370638 -26.991623 13.036827 137 138 141 
4.496525 -26.903463 13.057319 122 123 125 
4.616222 -26.857889 13.088209 161 156 152 
4.964425 -26.847897 13.104132 136 131 135 
5.064468 -26.906860 13.100105 139 132 135 
6.264839 -26.962128 13.124420 153 148 152 
6.763625 -26.862732 13.157537 91 92 96 
6.835948 -26.813398 13.183380 62 69 70 
7.130918 -26.908487 13.142789 65 74 75 
7.732890 -26.883984 13.185903 86 92 89 
7.925697 -26.868765 13.156398 95 98 100 
8.055406 -26.867359 13.099681 89 93 96 
4.174273 -26.703011 13.068193 87 90 93 
4.208603 -26.707380 13.040146 71 71 79 
4.754029 -26.686501 13.161322 168 163 169 
5.150105 -26.703577 13.062354 95 93 96 
5.245422 -26.716991 13.178181 131 125 127 
5.917363 -26.644325 13.138719 104 101 104 
6.090758 -26.712330 13.091578 66 75 72 
6.276125 -26.705093 13.100844 130 121 127 
7.516953 -26.741024 13.116488 92 97 95 
7.693190 -26.702248 13.102433 106 110 107 
7.819396 -26.666407 13.123521 80 87 84 
5.294755 -26.477797 13.155905 161 154 161 
5.401187 -26.524553 13.041655 181 165 175 
5.910988 -26.485580 13.172812 140 132 132 
6.056049 -26.516155 13.166836 98 98 98 
6.299122 -26.474665 13.105884 81 81 86 
6.721953 -26.515926 13.105151 73 81 83 
7.202096 -26.433195 13.129518 72 77 80 
7.593536 -26.421902 13.060963 53 64 59 
7.700114 -26.488552 13.142296 67 77 75 
7.859274 -26.526026 13.156207 70 79 77 
8.049835 -26.422977 13.114166 84 93 90 
5.339733 -26.388803 13.166349 93 91 102 
5.523485 -26.322163 13.123250 96 92 97 
5.694173 -26.270159 13.124326 107 100 101 
5.920238 -26.304502 13.121856 116 108 113 
6.136272 -26.312748 13.096087 116 107 112 
6.264069 -26.285894 13.131825 95 96 102 
6.993474 -26.255476 13.060352 77 82 88 
7.089213 -26.253244 13.061141 87 94 96 
7.333016 -26.381891 13.069969 71 76 75 
7.543116 -26.289783 13.139660 83 90 88 
7.697626 -26.243874 13.182091 70 76 76 
7.910809 -26.396708 13.143497 77 84 82 
5.764962 -26.110344 13.158466 133 125 125 
5.936392 -26.133129 13.106139 158 149 157 
6.109713 -26.105204 13.094053 91 91 98 
6.231802 -26.088030 13.106918 84 88 93 
6.481781 -26.154768 13.068451 78 86 86 
7.302530 -26.185114 13.122115 83 93 93 
7.506027 -26.029865 13.026638 92 103 95 
7.671286 -26.089014 13.146806 83 91 87 
7.855103 -26.169285 13.068962 78 82 81 
8.025086 -26.048496 13.093998 78 91 82 
7.296389 -25.876122 13.106710 66 76 75 
7.494421 -25.940968 13.126417 69 80 74 
7.666153 -25.851130 13.106647 76 86 85 
7.901049 -25.938416 13.094282 70 76 76 
7.385609 -25.727457 13.132670 92 99 98 
7.793621 -25.733675 13.063004 115 120 116 
2.875787 -25.225687 13.069277 115 111 108 
4.211682 -24.931192 13.014593 140 132 130 
3.913020 -24.613869 13.066009 128 116 115 
4.085106 -24.708334 13.174458 111 106 105 
4.205862 -24.611963 13.127186 106 107 102 
2.697984 -24.462601 13.059767 150 136 136 
2.810403 -24.411434 13.046246 156 144 143 
3.123984 -24.457285 13.076632 109 97 101 
3.205976 -24.423880 13.052757 110 100 98 
3.911362 -24.533516 13.073239 123 107 108 
4.103309 -24.532990 13.081737 113 106 107 
4.261628 -24.453648 13.006222 100 98 99 
3.006663 -24.350569 13.074244 128 107 115 
-3.737138 -39.684357 13.229284 111 124 132 
4.265377 -38.825207 13.371675 122 121 123 
4.300371 -38.653404 13.284681 96 100 97 
4.419292 -38.714279 13.306956 92 89 96 
4.346664 -38.551926 13.389647 115 116 114 
4.548350 -38.486919 13.323752 100 102 103 
4.670176 -38.467850 13.342411 75 85 80 
4.809585 -38.528873 13.290214 60 70 60 
4.712709 -38.396065 13.293343 70 83 76 
4.977280 -38.333160 13.359480 106 112 107 
5.037985 -38.313457 13.267717 85 91 82 
-2.858355 -38.138779 13.266775 99 115 125 
-2.740531 -38.075397 13.291124 77 93 101 
-2.574304 -38.019123 13.220236 126 142 149 
4.911345 -38.154861 13.358923 157 159 158 
5.080791 -38.027252 13.304646 117 128 124 
-2.880235 -37.879116 13.302172 118 133 143 
-2.736900 -37.905655 13.296162 107 122 128 
-2.558060 -37.931694 13.270784 119 135 142 
-2.350573 -37.874710 13.210440 105 125 127 
5.145643 -37.821602 13.366386 112 114 114 
-2.868957 -37.705971 13.307693 121 135 144 
-2.700201 -37.682835 13.303533 111 128 132 
-2.498200 -37.687420 13.295995 114 131 135 
-2.352897 -37.734505 13.301898 113 133 135 
5.147561 -37.739983 13.386108 98 106 102 
5.317696 -37.639973 13.335849 148 147 150 
5.496482 -37.651085 13.337039 87 98 96 
-2.862786 -37.508183 13.247025 121 137 140 
-2.689953 -37.510658 13.275287 104 122 127 
-2.515808 -37.511391 13.297247 113 131 137 
-2.331683 -37.480320 13.283641 103 120 125 
-2.770340 -37.396114 13.360967 78 92 103 
-2.453894 -37.299095 13.310679 115 128 138 
-2.325571 -37.292824 13.308977 117 131 138 
-2.135302 -37.274895 13.288167 118 136 142 
-1.972773 -37.207565 13.239588 96 120 120 
-2.471266 -37.190567 13.273890 75 90 94 
-2.301229 -37.175713 13.275312 89 103 109 
-2.115534 -37.124126 13.340155 95 117 125 
-1.968241 -37.149101 13.342733 101 122 126 
-2.960750 -36.802307 13.209320 67 92 89 
-2.272565 -36.958485 13.207032 46 57 59 
-2.896259 -36.689125 13.308318 83 101 104 
-2.680270 -36.720520 13.304781 93 114 118 
-2.498639 -36.678341 13.311064 95 117 121 
-2.271615 -36.618515 13.368828 125 143 147 
-1.892113 -36.647884 13.258679 126 142 149 
-1.769505 -36.675171 13.212942 78 93 98 
-0.988124 -36.619198 13.211090 103 125 136 
-2.644377 -36.515930 13.248482 88 110 110 
-2.493980 -36.594276 13.384037 70 93 95 
-1.858664 -36.469879 13.260221 102 121 124 
-1.749437 -36.503445 13.284045 112 129 132 
2.905014 -36.402821 13.255508 74 86 84 
3.014748 -36.411892 13.239180 72 83 82 
-1.834636 -36.206818 13.375913 114 130 139 
-1.733019 -36.313240 13.292658 76 102 101 
1.722247 -36.282757 13.280333 110 126 130 
1.908569 -36.225990 13.273449 112 102 110 
2.093259 -36.259140 13.302542 177 159 167 
2.290040 -36.292706 13.304694 124 118 115 
2.490095 -36.293652 13.269025 152 141 142 
2.704745 -36.317959 13.293647 109 107 109 
2.901797 -36.240391 13.229932 106 107 107 
3.108390 -36.278069 13.303640 93 99 101 
3.261077 -36.288719 13.248645 85 99 96 
-5.117941 -36.076607 13.219121 48 58 59 
-4.707387 -36.044300 13.220022 127 123 137 
-2.778196 -36.139671 13.213162 93 106 114 
-1.879053 -36.064934 13.253174 107 127 128 
0.550804 -36.031715 13.251129 110 123 130 
0.746582 -36.032970 13.227259 150 150 154 
0.871513 -36.069771 13.253990 154 147 149 
1.095815 -36.050201 13.254663 135 131 134 
1.290298 -36.048523 13.278888 118 123 128 
1.510391 -36.080105 13.267426 110 118 121 
1.684438 -36.076336 13.289752 137 131 129 
1.904688 -36.083817 13.314464 154 142 143 
2.120546 -36.087761 13.329985 144 133 134 
2.316515 -36.092541 13.286642 145 136 133 
2.481762 -36.105137 13.321085 149 142 140 
2.702683 -36.094318 13.310868 131 129 128 
2.889174 -36.081802 13.258875 123 123 123 
3.098355 -36.086651 13.295363 129 126 129 
3.295154 -36.080925 13.258636 78 84 81 
3.431453 -36.073307 13.203218 71 82 79 
-4.911948 -35.949009 13.239833 46 48 55 
-4.710469 -35.902561 13.290525 92 90 101 
-4.521459 -35.850418 13.311183 155 143 160 
-2.701477 -35.815910 13.243348 113 131 138 
-1.824479 -35.858742 13.232643 82 99 107 
0.356861 -35.874203 13.248912 121 129 133 
0.472040 -35.881950 13.285505 122 128 132 
0.714104 -35.903851 13.309546 125 129 133 
0.903207 -35.883217 13.301620 158 151 153 
1.118910 -35.902054 13.293553 133 134 134 
1.263028 -35.881504 13.296693 123 128 128 
1.503621 -35.899578 13.329333 135 135 137 
1.708424 -35.899635 13.330816 136 132 132 
1.901241 -35.910301 13.305878 139 129 127 
2.093199 -35.904724 13.337650 136 128 125 
2.319180 -35.898674 13.329483 143 140 136 
2.508707 -35.911705 13.325346 141 140 135 
2.679754 -35.898132 13.286366 131 130 126 
2.912554 -35.889122 13.281766 135 136 133 
3.095565 -35.902855 13.296188 134 133 131 
3.288151 -35.925175 13.267534 112 115 113 
3.425671 -35.904491 13.233315 53 62 56 
-4.661654 -35.722450 13.256142 112 110 120 
-4.499321 -35.752716 13.330605 142 132 148 
-4.394389 -35.793842 13.340187 141 128 143 
-2.719659 -35.715561 13.213715 110 125 132 
-1.799165 -35.696571 13.207986 65 83 85 
-0.093183 -35.629482 13.240047 107 113 118 
0.136258 -35.655403 13.269608 117 122 123 
0.330513 -35.656265 13.258242 136 138 138 
0.481940 -35.706036 13.323947 134 136 135 
0.698705 -35.695263 13.281858 138 138 137 
0.895259 -35.709595 13.308324 142 139 138 
1.089372 -35.694996 13.305055 135 135 133 
1.294188 -35.707050 13.298279 124 125 120 
1.505127 -35.696144 13.306166 146 137 131 
1.647439 -35.637241 13.336829 141 135 128 
1.919204 -35.750771 13.374503 131 126 123 
2.128071 -35.681530 13.376599 135 129 125 
2.314855 -35.684486 13.341174 140 137 133 
2.509183 -35.703575 13.335462 125 130 123 
2.691328 -35.689308 13.281319 128 132 125 
2.911989 -35.697422 13.296914 137 140 134 
3.093352 -35.706848 13.300733 129 130 124 
3.289222 -35.710094 13.331052 132 131 130 
3.464025 -35.668976 13.305303 100 105 100 
3.643005 -35.709881 13.315079 39 51 38 
-6.691132 -35.471478 13.258434 162 147 150 
-6.581419 -35.448895 13.244476 171 149 155 
-4.564757 -35.458836 13.234105 172 160 177 
-2.650791 -35.453228 13.257905 130 150 157 
-1.646307 -35.535885 13.283327 127 139 137 
-0.413846 -35.545883 13.217615 68 73 76 
-0.280310 -35.467686 13.235270 113 118 118 
-0.079150 -35.487339 13.255427 128 133 136 
0.127878 -35.495575 13.289344 124 125 127 
0.250820 -35.491615 13.309993 130 134 135 
0.472459 -35.509056 13.343053 132 135 132 
0.714060 -35.486279 13.294920 127 130 126 
0.894969 -35.509495 13.301697 129 129 126 
1.083573 -35.519218 13.284115 128 133 127 
1.309534 -35.506939 13.283407 116 116 110 
1.512297 -35.478733 13.309584 113 113 106 
1.695492 -35.493515 13.297596 126 126 117 
1.901474 -35.498154 13.347396 127 123 116 
2.076929 -35.495430 13.334152 128 122 117 
2.282364 -35.593628 13.276147 121 115 110 
2.524867 -35.546177 13.333774 129 126 122 
2.700426 -35.537601 13.324883 129 134 129 
2.908988 -35.515495 13.310568 140 141 135 
3.082642 -35.520367 13.318056 142 141 136 
3.276887 -35.528397 13.316974 146 143 139 
3.502495 -35.471054 13.324349 109 112 106 
3.646689 -35.551445 13.292064 40 52 43 
-6.619263 -35.379265 13.257264 113 96 97 
-4.659360 -35.269577 13.256094 132 127 136 
-4.532245 -35.302402 13.303073 132 125 136 
-2.488501 -35.263039 13.252048 119 136 137 
-0.629433 -35.245773 13.218470 138 138 143 
-0.515960 -35.226074 13.247375 145 144 147 
-0.273927 -35.303051 13.251898 112 117 121 
-0.097357 -35.313477 13.264348 125 131 133 
0.113274 -35.317116 13.314082 130 135 136 
0.311747 -35.289146 13.293815 134 137 137 
0.490558 -35.309864 13.313003 116 122 118 
0.679954 -35.314060 13.284613 105 109 105 
0.883052 -35.265011 13.280970 114 112 105 
1.065583 -35.297703 13.297912 136 125 120 
1.303061 -35.334862 13.337992 120 119 114 
1.491966 -35.332333 13.331978 107 110 104 
1.704499 -35.314987 13.296413 98 104 95 
1.898978 -35.310814 13.312268 114 114 106 
2.066443 -35.246666 13.338388 121 122 113 
2.652252 -35.334438 13.362940 135 144 140 
2.915972 -35.310822 13.357622 133 135 128 
3.100085 -35.287331 13.307682 138 141 134 
3.291061 -35.267250 13.311472 139 139 136 
3.455196 -35.365845 13.281634 111 112 106 
-4.711544 -35.170158 13.223881 117 118 123 
-4.553828 -35.174755 13.318786 116 115 122 
-3.450359 -35.078667 13.270113 80 94 97 
-3.280487 -35.105106 13.258839 60 71 67 
-2.452470 -35.180550 13.334175 119 132 135 
-1.751654 -35.013004 13.210320 155 135 147 
-1.532713 -35.027870 13.214368 110 108 116 
-1.329913 -35.042137 13.250928 111 111 121 
-1.112208 -35.032433 13.263360 111 110 119 
-0.647014 -35.079544 13.249174 149 149 153 
-0.511081 -35.078789 13.290433 134 137 139 
-0.337154 -35.100723 13.305087 119 128 129 
-0.058867 -35.084873 13.287877 118 124 124 
0.059732 -35.079834 13.307795 144 145 145 
0.338430 -35.078613 13.300712 146 143 143 
0.498463 -35.148033 13.329212 116 123 117 
0.669681 -35.157532 13.347793 120 122 116 
0.879939 -35.133366 13.307281 122 117 115 
1.587634 -35.110741 13.330103 78 91 81 
1.719339 -35.112728 13.320178 76 88 78 
1.937719 -35.089130 13.290570 105 110 104 
2.056249 -35.083839 13.330821 108 109 103 
2.678464 -35.078560 13.352304 80 90 82 
2.939545 -35.153584 13.365601 123 133 122 
3.117072 -35.117386 13.315141 130 136 129 
3.277835 -35.088085 13.263566 129 133 127 
3.506201 -35.099941 13.256790 101 110 105 
4.222080 -35.143734 13.246840 77 88 84 
-3.029110 -34.871719 13.241973 116 128 133 
-2.880486 -34.837902 13.318492 116 131 134 
-2.730921 -34.913517 13.353338 117 137 136 
-1.850180 -34.838356 13.298729 122 114 124 
-1.693495 -34.858135 13.285518 143 130 143 
-1.492470 -34.899399 13.296773 128 125 134 
-1.279349 -34.894016 13.282758 118 113 119 
-1.096396 -34.899364 13.281058 125 120 130 
-0.964355 -34.854332 13.287809 116 117 123 
-0.697215 -34.887676 13.323997 111 107 110 
-0.524082 -34.968933 13.285240 121 124 126 
-0.333511 -34.846748 13.249177 128 134 135 
-0.069468 -34.886887 13.278358 122 128 127 
0.076344 -34.901588 13.294456 139 144 142 
0.280922 -34.883995 13.283016 130 129 129 
0.497577 -34.905628 13.348971 133 125 122 
0.711446 -34.893349 13.306509 123 112 110 
0.925395 -34.866219 13.330198 125 123 119 
1.043806 -34.826378 13.357592 105 110 102 
1.305486 -34.814564 13.294878 105 108 98 
1.407462 -34.804562 13.357562 132 128 116 
1.707013 -34.966633 13.362700 62 75 66 
1.906410 -34.903046 13.322740 79 85 77 
2.028563 -34.903580 13.329991 107 109 101 
2.907707 -34.918987 13.365091 96 105 96 
3.099457 -34.918736 13.329755 115 121 116 
3.306137 -34.907387 13.301188 123 125 120 
3.480812 -34.890915 13.264036 136 139 136 
3.603211 -34.892990 13.207584 124 129 123 
3.995619 -34.837486 13.325949 94 97 90 
-3.055656 -34.704090 13.302610 69 84 85 
-2.902505 -34.735924 13.307511 116 133 134 
-2.617785 -34.648087 13.278639 101 119 117 
-2.030119 -34.670929 13.235999 126 123 131 
-1.868967 -34.690975 13.273183 115 114 124 
-1.687800 -34.697975 13.282407 129 124 131 
-1.540501 -34.681824 13.275829 115 114 120 
-1.296270 -34.704544 13.253453 98 99 103 
-1.102790 -34.704147 13.277222 100 103 104 
-0.920704 -34.697266 13.299647 99 102 105 
-0.682772 -34.696068 13.285536 103 103 107 
-0.498381 -34.668957 13.314734 121 117 119 
-0.298751 -34.687725 13.275161 108 110 113 
-0.093034 -34.705875 13.283519 124 130 130 
0.076904 -34.688984 13.323833 129 133 129 
0.287338 -34.695065 13.295123 121 118 114 
0.500545 -34.731064 13.283947 114 111 105 
0.647146 -34.715912 13.315111 125 113 109 
0.938366 -34.741203 13.313676 107 107 103 
1.123829 -34.692780 13.306326 92 99 91 
1.285442 -34.681725 13.300977 93 100 90 
1.475236 -34.677921 13.288727 105 109 96 
1.959013 -34.777939 13.376005 99 105 99 
2.117087 -34.732864 13.382357 78 85 76 
2.208591 -34.748631 13.381594 116 116 104 
2.975241 -34.766579 13.382897 102 106 100 
3.132994 -34.729206 13.360502 113 113 108 
3.285232 -34.712517 13.342028 139 136 131 
3.501877 -34.733700 13.318816 109 112 104 
3.667554 -34.677048 13.298398 140 138 134 
3.895895 -34.667252 13.345181 122 127 119 
4.146605 -34.664631 13.333314 108 116 105 
4.444032 -34.704857 13.260076 124 129 125 
7.179586 -34.647755 13.274471 88 108 99 
7.605539 -34.630142 13.393654 96 109 92 
-6.879605 -34.481785 13.283401 157 140 131 
-6.663788 -34.482410 13.278059 180 154 152 
-6.588347 -34.417492 13.290927 191 161 163 
-2.935036 -34.593216 13.308196 103 120 122 
-2.344779 -34.451202 13.238091 127 129 140 
-2.066699 -34.513577 13.271072 127 129 139 
-1.888666 -34.483540 13.312260 125 119 125 
-1.701402 -34.507851 13.303468 124 118 123 
-1.503657 -34.541958 13.367496 121 119 124 
-1.270983 -34.521446 13.279081 108 108 111 
-1.094436 -34.500744 13.289083 108 106 109 
-0.911277 -34.512699 13.294533 114 109 115 
-0.705831 -34.500515 13.299516 99 101 107 
-0.495517 -34.506760 13.314406 115 110 114 
-0.287689 -34.501301 13.273748 111 106 110 
-0.093977 -34.521477 13.316869 119 120 122 
0.078146 -34.549454 13.350201 133 136 133 
0.274811 -34.503510 13.310452 86 91 84 
0.502881 -34.508308 13.312950 130 124 117 
0.684907 -34.450336 13.321007 116 111 104 
0.946249 -34.434151 13.360309 86 92 84 
1.100794 -34.499107 13.336011 98 103 95 
1.295193 -34.508713 13.299429 93 97 88 
1.444089 -34.481125 13.335203 117 119 109 
3.530730 -34.427647 13.277140 109 117 110 
3.648702 -34.578403 13.359911 110 117 109 
3.931633 -34.590439 13.203348 95 95 87 
4.192249 -34.564564 13.255335 108 119 105 
4.900364 -34.442963 13.355307 67 80 73 
6.578096 -34.442539 13.203538 176 189 180 
6.746481 -34.526749 13.261206 97 113 102 
6.920770 -34.413990 13.270559 114 129 116 
7.005119 -34.431938 13.203146 121 137 124 
7.219405 -34.499413 13.336395 82 100 90 
7.503294 -34.439747 13.294931 102 114 112 
7.600157 -34.515980 13.343752 99 113 98 
8.111934 -34.507099 13.361788 106 117 103 
8.316620 -34.471653 13.378653 105 121 111 
8.570605 -34.471447 13.300860 149 159 155 
8.707513 -34.516041 13.298802 91 104 91 
8.887399 -34.465008 13.264150 109 122 117 
9.121207 -34.533173 13.238543 82 92 81 
-6.858469 -34.280655 13.284489 162 144 136 
-6.687120 -34.327080 13.364929 194 162 162 
-6.481275 -34.321114 13.371683 138 122 123 
-2.519063 -34.305691 13.258321 100 101 113 
-2.288249 -34.281021 13.276720 120 118 127 
-2.061325 -34.286266 13.342934 122 119 129 
-1.904558 -34.320309 13.305582 132 121 129 
-1.722034 -34.353119 13.376427 131 120 125 
-1.518002 -34.363567 13.327142 114 106 111 
-1.298197 -34.315830 13.329787 97 101 102 
-1.067447 -34.314384 13.334881 105 103 103 
-0.878636 -34.309422 13.328223 104 106 109 
-0.703727 -34.277798 13.279797 94 100 104 
-0.500918 -34.299831 13.277444 92 92 94 
-0.314027 -34.287884 13.293220 86 88 90 
-0.102748 -34.307060 13.322668 121 118 119 
0.137286 -34.254692 13.321963 109 111 105 
0.296424 -34.293743 13.303214 102 104 100 
0.536656 -34.276230 13.289342 94 97 90 
0.692568 -34.285648 13.294656 110 109 102 
0.881129 -34.291771 13.304556 97 99 91 
1.095629 -34.304932 13.273625 81 86 78 
1.299835 -34.302868 13.291845 107 110 101 
3.524915 -34.365974 13.317101 136 145 142 
3.742325 -34.249542 13.291840 86 96 90 
3.837971 -34.233440 13.288975 116 119 116 
4.067072 -34.306793 13.251339 99 102 99 
4.522537 -34.256783 13.333523 137 138 137 
4.717859 -34.364868 13.325619 102 114 114 
6.480104 -34.288460 13.270971 102 118 107 
6.739734 -34.349403 13.296223 119 134 123 
6.900238 -34.266624 13.323729 101 114 105 
7.064820 -34.271870 13.346179 109 122 114 
7.319160 -34.291290 13.319191 85 99 93 
7.494851 -34.268856 13.320041 87 100 93 
7.915443 -34.220230 13.298954 116 132 123 
8.160007 -34.235077 13.207680 106 119 112 
8.285307 -34.307533 13.309607 109 123 116 
8.488632 -34.312645 13.318846 105 119 106 
8.704199 -34.298782 13.308575 121 133 129 
8.805010 -34.381016 13.358202 54 70 59 
-6.846027 -34.089184 13.252008 165 148 140 
-6.700357 -34.067135 13.327607 158 141 134 
-6.509192 -34.108521 13.259200 163 143 140 
-2.648701 -34.083611 13.248596 126 128 138 
-2.492932 -34.099785 13.274641 122 126 134 
-2.306927 -34.140011 13.277146 111 114 121 
-2.092206 -34.090179 13.272888 122 117 120 
-1.916908 -34.098568 13.304836 128 120 122 
-1.688673 -34.060745 13.332501 111 107 102 
-1.540673 -34.080250 13.340506 108 102 99 
-1.306588 -34.056309 13.342331 100 102 95 
-1.086364 -34.063778 13.331925 99 98 95 
-0.944037 -34.082481 13.387285 114 111 111 
-0.674692 -34.101818 13.276235 96 99 102 
-0.480499 -34.076363 13.314652 82 88 87 
-0.307622 -34.116539 13.300049 81 86 87 
-0.049398 -34.134087 13.283628 117 115 113 
0.084756 -34.121849 13.300776 112 114 109 
0.344155 -34.150425 13.309410 112 117 108 
0.536855 -34.132614 13.333553 102 103 97 
0.692511 -34.107327 13.312962 113 112 105 
0.898503 -34.098366 13.323586 99 103 95 
1.113034 -34.109325 13.272808 92 94 86 
1.248180 -34.100376 13.282085 104 105 96 
3.782413 -34.174618 13.353092 105 105 105 
3.912264 -34.144543 13.281090 115 118 114 
4.111534 -34.131004 13.294467 111 112 106 
4.277671 -34.101570 13.280269 138 137 136 
4.469502 -34.089699 13.258398 127 128 125 
4.696197 -34.065430 13.317761 116 116 117 
4.857907 -34.069771 13.270624 132 132 135 
6.127203 -34.059738 13.271223 132 147 144 
6.342514 -34.070473 13.333407 113 129 116 
6.479731 -34.128300 13.316498 117 134 122 
6.688220 -34.086884 13.306234 103 118 107 
6.886998 -34.150146 13.295105 114 125 111 
7.092808 -34.087360 13.317123 96 111 99 
7.292708 -34.068325 13.270131 86 102 93 
7.457680 -34.144447 13.363483 90 100 100 
7.691485 -34.111374 13.370453 102 114 108 
7.900013 -34.114941 13.276955 105 116 110 
8.137527 -34.101784 13.266380 102 116 109 
8.525679 -34.179443 13.379524 104 119 108 
9.183943 -34.064568 13.338861 30 42 38 
-6.918050 -33.965736 13.213953 135 117 113 
-6.691364 -33.934132 13.279011 171 149 143 
-6.571021 -33.989902 13.359396 188 161 160 
-6.008064 -33.801594 13.288168 146 134 136 
-5.982389 -33.814953 13.222674 140 131 131 
-2.826308 -33.913418 13.239013 128 133 142 
-2.698867 -33.860737 13.262157 115 121 128 
-2.505175 -33.900162 13.294626 107 115 121 
-2.292843 -33.876976 13.252834 105 112 117 
-2.079049 -33.894741 13.292937 119 117 123 
-1.882395 -33.907757 13.290502 110 107 108 
-1.690149 -33.909801 13.308181 99 99 97 
-1.488752 -33.901348 13.311879 109 103 102 
-1.312759 -33.906399 13.352974 105 103 99 
-1.084986 -33.903389 13.315440 98 95 95 
-0.952469 -33.893330 13.328868 106 103 104 
-0.661421 -33.884541 13.299282 77 86 85 
-0.491951 -33.908947 13.297117 82 90 89 
-0.332052 -33.898937 13.302926 79 87 85 
-0.094484 -33.958298 13.271064 87 90 86 
0.129943 -33.895687 13.305761 94 98 96 
0.285576 -33.955112 13.266088 125 128 122 
0.529129 -33.900005 13.285936 130 125 119 
0.690569 -33.919697 13.314720 131 124 117 
0.929046 -33.926254 13.323349 97 101 93 
1.103572 -33.918900 13.313547 98 100 91 
1.269917 -33.933548 13.282598 107 108 98 
3.539071 -33.873512 13.283036 108 116 108 
3.678363 -33.931229 13.261005 125 127 122 
4.288006 -33.880661 13.267240 158 154 147 
4.487968 -33.871258 13.278861 142 140 136 
4.704881 -33.845242 13.292306 125 131 128 
4.839847 -33.845863 13.232988 137 141 140 
5.041599 -33.961941 13.253819 91 103 104 
6.097174 -33.894150 13.286902 127 142 132 
6.333215 -33.909821 13.306925 86 102 91 
6.492987 -33.902386 13.320489 98 115 102 
6.686609 -33.903519 13.315026 87 103 91 
6.890515 -33.913422 13.354038 84 100 91 
7.129672 -33.931496 13.317624 93 108 96 
7.328647 -33.901943 13.331012 88 103 94 
7.500913 -33.882767 13.286448 95 109 104 
7.643002 -33.965347 13.255349 94 105 103 
7.888953 -33.900520 13.325066 84 98 93 
8.037436 -33.938629 13.245205 88 104 94 
8.756386 -33.916748 13.387034 90 104 91 
9.204960 -33.840126 13.291844 74 89 84 
-6.893771 -33.696678 13.264148 139 122 119 
-6.686620 -33.694714 13.320929 180 151 151 
-6.282250 -33.629646 13.272124 163 145 153 
-6.005887 -33.607410 13.200159 157 140 151 
-5.930109 -33.744377 13.298782 128 121 124 
-2.886743 -33.723328 13.247322 123 126 136 
-2.695675 -33.726341 13.314383 115 118 126 
-2.508571 -33.713818 13.267578 117 123 132 
-2.269978 -33.687210 13.304503 91 97 101 
-2.093611 -33.703171 13.306432 133 121 128 
-1.897606 -33.715477 13.288344 106 105 109 
-1.690143 -33.722137 13.303625 88 91 92 
-1.513582 -33.695385 13.310701 104 102 102 
-1.338132 -33.696724 13.320738 108 107 106 
-0.864160 -33.700794 13.377901 100 103 97 
-0.645578 -33.708744 13.298887 70 83 81 
-0.498419 -33.685112 13.294079 80 89 88 
-0.306946 -33.681499 13.298931 88 96 94 
-0.111665 -33.689545 13.310199 88 97 97 
0.109181 -33.709450 13.296626 119 116 111 
0.280922 -33.685421 13.328513 137 130 124 
0.490106 -33.722145 13.297539 136 129 125 
0.945207 -33.770077 13.372173 84 85 79 
1.054692 -33.750641 13.368491 81 84 78 
1.416850 -33.631756 13.234816 114 114 104 
3.485136 -33.652676 13.265121 79 90 81 
4.128788 -33.755638 13.285195 107 108 101 
4.342975 -33.748032 13.298724 154 148 146 
4.502676 -33.727135 13.280869 148 144 139 
4.699834 -33.705727 13.299352 138 138 134 
4.884536 -33.671715 13.247001 116 119 116 
5.129580 -33.770279 13.238381 59 71 69 
5.935083 -33.681389 13.322866 126 139 127 
6.096276 -33.679985 13.338241 123 136 126 
6.284333 -33.691353 13.257513 101 114 108 
6.511320 -33.659462 13.352615 93 111 104 
6.727299 -33.694588 13.289566 104 121 110 
6.895289 -33.671516 13.331179 100 117 108 
7.080891 -33.767273 13.321122 91 107 98 
7.261051 -33.785126 13.310898 105 119 106 
7.476328 -33.724285 13.366347 76 91 91 
7.700215 -33.724594 13.337090 92 106 106 
7.823662 -33.683784 13.281569 101 118 116 
8.508104 -33.661125 13.380495 152 155 141 
8.775401 -33.651260 13.336019 134 142 144 
8.920681 -33.648323 13.375213 87 98 90 
