ply
format ascii 1.0
comment PCL generated
element vertex 1124
property float x
property float y
property float z
property uchar red
property uchar green
property uchar blue
element face 0
element camera 0
property float view_px
property float view_py
property float view_pz
property float x_axisx
property float x_axisy
property float x_axisz
property float y_axisx
property float y_axisy
property float y_axisz
property float z_axisx
property float z_axisy
property float z_axisz
property float focal
property float scalex
property float scaley
property float centerx
property float centery
property int viewportx
property int viewporty
property float k1
property float k2
end_header
-46.088051 9.1002979 -3.2763219 141 128 129
-45.911343 9.1295214 -3.3091223 140 121 127
-45.705849 9.1129379 -3.3403764 131 117 119
-45.534904 9.1367435 -3.329366 127 115 117
-45.341545 9.1347542 -3.3280864 134 116 122
-45.105247 9.0333118 -3.3891103 122 101 108
-44.941101 9.1812124 -3.3982973 142 126 128
-47.676044 9.2360334 -3.2013373 100 99 74
-47.503147 9.2885637 -3.2247257 125 126 103
-47.327419 9.3210163 -3.242995 126 129 103
-47.096081 9.3287077 -3.2463531 136 141 115
-46.898991 9.2794905 -3.2418954 132 134 113
-46.692471 9.2937679 -3.3065026 149 142 131
-46.498409 9.3009129 -3.2853043 145 135 131
-46.325748 9.3060513 -3.2719843 146 137 132
-46.075985 9.3025923 -3.2815151 150 139 135
-45.897026 9.2943306 -3.306335 139 124 127
-45.69978 9.3014889 -3.3185911 123 110 115
-45.502827 9.2908049 -3.2986383 128 116 120
-45.330238 9.313015 -3.3389223 128 112 119
-45.114372 9.3229685 -3.3323257 130 111 120
-44.950401 9.3468285 -3.3713739 119 102 110
-48.004547 9.5385904 -3.2228191 136 125 107
-47.823704 9.5229101 -3.2029417 127 120 101
-47.627701 9.5069351 -3.219717 133 125 108
-47.481419 9.4927206 -3.2270527 130 122 109
-47.350559 9.5252476 -3.219085 134 127 116
-47.021008 9.473196 -3.219543 135 133 120
-46.951065 9.4779415 -3.2344847 130 129 115
-46.650036 9.4657469 -3.2930825 157 147 145
-46.494846 9.4763699 -3.2817094 143 134 132
-46.303608 9.4913797 -3.2589085 148 140 132
-46.075142 9.4914379 -3.2760119 149 135 134
-45.912525 9.5006905 -3.2697845 141 126 130
-45.724922 9.4972811 -3.2828398 129 115 119
-45.520275 9.4999228 -3.2844346 122 111 113
-45.31004 9.5228319 -3.3122175 131 118 121
-45.153492 9.5073614 -3.3447695 138 120 129
-44.934978 9.5374174 -3.375478 119 104 111
-48.013119 9.656702 -3.2098718 137 125 113
-47.820869 9.751276 -3.2101178 132 120 111
-47.687836 9.7243633 -3.2340217 135 122 112
-47.581055 9.6439972 -3.2354822 143 126 119
-47.231007 9.6513796 -3.2424939 164 152 147
-47.151047 9.7728176 -3.2135077 124 114 104
-46.876289 9.7318411 -3.2542851 153 134 134
-46.675694 9.6803656 -3.2604804 155 141 142
-46.521366 9.687499 -3.2995269 149 140 135
-46.309818 9.6933765 -3.2537887 140 132 124
-46.090656 9.6852884 -3.3191497 152 138 139
-45.899174 9.6914015 -3.3031895 139 125 126
-45.724361 9.6935768 -3.2840643 134 117 121
-45.520817 9.7119637 -3.308969 129 118 119
-45.31881 9.6940022 -3.2948892 135 123 127
-45.131065 9.6979856 -3.308609 130 116 123
-44.907166 9.675128 -3.3167081 128 116 118
-44.717014 9.6935148 -3.3275528 130 115 118
-44.568184 9.7150345 -3.346103 124 106 111
-44.090775 9.6543646 -3.3757639 128 112 122
-48.032669 9.8041592 -3.2143888 130 122 108
-47.697197 9.8243532 -3.2459164 141 127 121
-47.266235 9.812212 -3.234144 143 134 123
-46.866245 9.9003258 -3.232069 142 132 126
-46.696789 9.8816395 -3.2762358 153 139 138
-46.471752 9.8777466 -3.2800477 155 143 139
-46.281487 9.8995972 -3.2551603 148 138 134
-46.107468 9.9096441 -3.2594922 153 138 138
-45.901478 9.9040012 -3.3093116 153 135 140
-45.686043 9.8898401 -3.317127 145 127 133
-45.494801 9.9024305 -3.3310859 137 125 129
-45.349079 9.8941498 -3.3069122 134 122 128
-45.101669 9.8919134 -3.3327882 132 118 126
-44.905411 9.8953514 -3.3066664 135 118 127
-44.735115 9.8813658 -3.3022411 139 123 129
-44.514618 9.8955355 -3.3525114 131 112 120
-44.381145 9.9091759 -3.376354 131 115 117
-46.420315 10.036341 -3.2453427 160 145 149
-46.256866 10.081032 -3.2366335 140 126 126
-46.068573 10.040037 -3.282558 155 135 143
-45.886852 10.120543 -3.2745774 150 132 138
-45.69363 10.093182 -3.2801888 150 132 138
-45.507652 10.087443 -3.2765503 136 122 126
-45.303005 10.080108 -3.3005838 131 117 124
-45.0588 10.104285 -3.3134911 133 121 129
-44.869534 10.09255 -3.3075039 135 120 128
-44.687878 10.096978 -3.3073719 138 121 129
-44.523167 10.037797 -3.3221664 140 120 131
-44.306847 10.143291 -3.3608801 122 105 115
-44.110035 10.163433 -3.3304334 117 98 106
-46.660248 10.257973 -3.2000642 149 136 139
-46.263077 10.359898 -3.2082758 128 120 118
-46.034286 10.250687 -3.2266753 146 130 132
-45.853714 10.34641 -3.281673 161 140 151
-45.647339 10.257365 -3.2769566 149 131 138
-45.499451 10.27671 -3.272366 146 127 137
-45.280502 10.279222 -3.2718475 146 129 138
-45.173145 10.218951 -3.3340187 121 109 116
-44.607544 10.240488 -3.3418422 138 119 128
-44.407429 10.205175 -3.2744083 121 102 112
-44.199219 10.295255 -3.3207726 125 107 121
-43.930477 10.307247 -3.2963288 116 100 109
-46.316257 10.533027 -3.202311 173 154 163
-46.166813 10.50449 -3.2164052 155 138 144
-45.504517 10.466076 -3.2395427 161 143 152
-44.019753 10.407853 -3.3934293 109 91 101
-46.141178 10.665441 -3.2008226 179 166 175
-45.960472 10.752989 -3.2152948 153 135 148
-52.71397 -5.5134168 -3.1679349 56 66 31
-52.703888 -5.2921071 -3.1102104 67 82 35
-52.570194 -5.3724985 -3.1446552 74 89 48
-52.310135 -5.3257542 -3.1404562 72 90 47
-52.410694 -5.1133237 -3.1491034 60 82 40
-52.388805 -5.1324987 -3.029747 71 93 46
-53.096359 -4.9580073 -3.1281855 70 83 37
-52.661728 -4.7676401 -3.1606617 65 78 30
-52.867615 -4.5811286 -3.1841555 65 83 32
-52.661648 -4.5777049 -3.1864045 65 78 30
-53.103584 -4.2456236 -3.1965914 63 77 25
-52.70052 -4.3764319 -3.1991124 75 92 40
-53.256203 -4.1039958 -3.147469 59 77 26
-53.036858 -4.0336442 -3.1907344 73 87 39
-52.907776 -4.0658364 -3.1412404 62 77 26
-52.661057 -4.0389786 -3.1833003 55 72 29
-53.330639 -3.9205689 -3.1534414 51 61 17
-53.062828 -3.9198508 -3.1199722 60 74 26
-52.540928 -3.8780339 -3.1025295 72 88 46
-51.874416 -3.8075764 -3.1112571 63 78 19
-51.798798 -3.8502827 -3.0962555 49 61 15
-53.271 -3.6734502 -3.1093383 48 60 17
-53.088673 -3.702338 -3.1214321 62 75 29
-52.980492 -3.6530256 -3.1556799 55 71 24
-51.901451 -3.6722915 -3.091424 67 81 30
-51.722363 -3.6994338 -3.1023664 71 83 33
-51.5723 -3.7127218 -3.0589464 91 107 60
-53.517162 -3.5395832 -3.181582 56 73 24
-53.317268 -3.4940536 -3.1111894 49 63 21
-53.10437 -3.470576 -3.1625118 60 72 27
-52.550419 -3.537802 -3.1954134 62 78 33
-51.833668 -3.4999669 -3.0890481 66 84 31
-51.721851 -3.4878225 -3.1016245 73 89 37
-51.494362 -3.4779801 -3.1681719 75 91 45
-53.892281 -3.2599967 -3.1168461 36 59 8
-53.465046 -3.2969978 -3.0670395 62 77 33
-53.310707 -3.3037555 -3.0946386 59 72 26
-53.099972 -3.2795124 -3.1381269 55 72 26
-52.988293 -3.2819176 -3.102026 55 73 25
-52.116993 -3.2914538 -3.1212697 71 85 39
-51.857708 -3.2599728 -3.1505055 59 71 24
-51.689804 -3.2948484 -3.0761354 67 82 36
-51.494587 -3.2784073 -3.089433 75 93 43
-54.104343 -3.1258397 -3.1893504 60 76 20
-53.835693 -3.0676484 -3.0465972 32 51 8
-53.638706 -3.1173699 -3.1360617 57 71 26
-53.520184 -3.1393244 -3.1265812 64 79 36
-53.305824 -3.1191211 -3.123678 49 66 18
-53.157177 -3.0766153 -3.0870159 44 62 20
-52.531708 -3.0901241 -3.1146078 86 99 46
-52.226898 -3.0978086 -3.1482525 80 91 47
-52.10268 -3.1013145 -3.1167152 80 96 51
-51.880775 -3.0668354 -3.1528747 73 91 40
-51.707623 -3.0931959 -3.0879986 72 88 39
-51.507542 -3.1057642 -3.1274028 65 82 33
-54.097637 -2.9504464 -3.1701081 47 61 8
-53.90889 -2.9116786 -3.0988441 54 67 19
-53.717861 -2.8965607 -3.0886829 51 66 21
-53.512962 -2.8800426 -3.1374767 49 67 22
-53.335026 -2.8979261 -3.1343925 56 73 25
-53.162361 -2.8916452 -3.1111717 58 75 31
-52.238514 -2.9353888 -3.1265881 79 95 47
-52.064388 -2.9264638 -3.1484451 75 97 50
-51.900837 -2.9083133 -3.132432 69 88 41
-51.69714 -2.9982252 -3.0825853 79 95 43
-51.248848 -2.949626 -3.1856918 63 76 34
-54.623547 -2.6235337 -3.1654172 49 65 20
-54.462009 -2.6373892 -3.1886685 58 73 28
-54.257793 -2.6693051 -3.158797 43 59 14
-54.104134 -2.6564472 -3.1403956 47 63 21
-53.900288 -2.6919558 -3.0590236 53 67 20
-53.774506 -2.7116735 -3.0757592 53 69 24
-53.452267 -2.7460942 -3.1487012 42 61 17
-53.320179 -2.6780486 -3.1035702 61 78 35
-52.537731 -2.6981823 -3.1840582 101 111 59
-52.269688 -2.745158 -3.1426105 76 94 47
-52.06823 -2.7942235 -3.1540761 81 106 58
-51.481998 -2.7225559 -3.1699257 79 92 39
-48.596943 -2.6918404 -3.1014771 70 87 38
-54.678959 -2.5107851 -3.1149909 52 69 22
-54.481071 -2.4742496 -3.1134286 54 70 24
-54.330048 -2.4587154 -3.1718686 53 69 25
-54.116661 -2.4927208 -3.1188178 56 71 25
-53.905514 -2.5304537 -3.1085181 58 72 27
-53.436249 -2.5160589 -3.1279078 34 51 9
-53.310921 -2.4947772 -3.1418149 60 76 33
-52.995468 -2.5479424 -3.1427627 77 90 37
-52.430244 -2.4148159 -3.195775 62 79 36
-51.498333 -2.5197599 -3.0578227 72 91 36
-49.608521 -2.4461598 -3.0586529 94 115 72
-49.542511 -2.4212875 -3.1501794 66 84 41
-49.391613 -2.4807372 -3.1086121 83 99 52
-48.272923 -2.4550295 -3.1695604 93 104 52
-48.076416 -2.4362259 -3.1379275 81 97 48
-47.286186 -2.4039953 -3.182986 82 93 51
-54.709873 -2.3708572 -3.0775561 64 82 30
-54.5028 -2.2824025 -3.1317964 55 71 25
-54.326424 -2.2638273 -3.1186793 52 69 24
-54.106285 -2.299808 -3.1140342 56 68 24
-53.988083 -2.2866168 -3.196568 58 73 28
-53.676476 -2.3136785 -3.1854918 55 68 27
-53.481976 -2.2742095 -3.1516829 70 84 41
-53.282494 -2.2812853 -3.1402178 62 76 32
-53.135654 -2.3025618 -3.1474361 55 69 28
-52.905354 -2.2281656 -3.1846323 62 78 35
-52.437462 -2.3343794 -3.1832376 63 81 35
-49.549187 -2.3139987 -3.0565238 39 59 19
-49.248383 -2.2689552 -3.1321135 89 104 53
-49.197464 -2.2697165 -3.1388936 88 103 60
-48.412872 -2.2427144 -3.0951977 91 107 56
-48.282177 -2.2925475 -3.1187403 87 101 52
-48.105145 -2.2855499 -3.1237648 78 97 47
-47.932323 -2.2865589 -3.0946929 80 95 44
-47.737946 -2.2435801 -3.1189814 72 88 44
-47.442883 -2.3661299 -3.0647645 66 78 36
-55.074078 -2.1497126 -3.0464475 62 81 28
-54.971546 -2.1758599 -3.0604258 55 75 24
-54.741745 -2.1092587 -3.0992217 64 87 39
-54.490509 -2.0683289 -3.1248016 60 76 27
-54.29702 -2.1012931 -3.1046207 54 67 24
-54.126537 -2.0911307 -3.0881557 49 61 18
-53.945541 -2.1069651 -3.138941 49 65 19
-53.694717 -2.1348207 -3.1262643 63 77 33
-53.488586 -2.1011248 -3.0834007 69 81 40
-53.313824 -2.0877979 -3.0706768 70 82 39
-53.104065 -2.0926707 -3.0974529 60 74 34
-52.918076 -2.0470862 -3.1033657 70 86 44
-49.300476 -2.1820726 -3.0908644 74 86 38
-49.059193 -2.1067703 -3.192569 63 77 26
-48.867195 -2.0587265 -3.1754239 99 117 68
-48.439659 -2.0783074 -3.059108 59 79 31
-48.288792 -2.1038864 -3.1252429 75 93 43
-48.115139 -2.1144478 -3.1346979 80 100 47
-47.844193 -2.0934758 -3.0995376 81 100 50
-47.754131 -2.0785186 -3.0894253 76 93 48
-47.503067 -2.0933642 -3.1155481 73 92 43
-46.277653 -2.1095953 -3.131773 60 83 39
-55.587006 -1.8449162 -3.0734658 68 82 36
-55.253273 -1.8621856 -3.0456419 54 74 25
-54.899239 -1.901183 -3.0377855 60 81 32
-54.703686 -1.9132878 -3.0811963 62 82 37
-54.494095 -1.8947074 -3.075531 64 82 32
-54.328571 -1.8878472 -3.0733075 59 74 27
-54.064434 -1.9352404 -3.0724635 52 67 24
-53.896683 -1.933297 -3.1318064 57 70 26
-53.692657 -1.9245083 -3.1075149 63 74 30
-53.527237 -1.9138674 -3.0720649 68 76 37
-53.296829 -1.8730246 -3.0726559 72 86 45
-53.097569 -1.8903673 -3.0929055 70 84 43
-52.941742 -1.8769612 -3.1107941 77 91 48
-50.845989 -1.9270724 -3.1675665 50 68 20
-49.283173 -1.884106 -3.1545506 86 99 53
-49.089214 -1.9968525 -3.048594 83 103 49
-48.881577 -1.9462051 -3.106437 71 91 43
-48.754955 -1.9821739 -3.1910167 84 100 51
-48.50721 -1.9140859 -3.1111927 85 103 54
-48.276905 -1.8862585 -3.1241109 83 100 50
-48.088501 -1.9163362 -3.1090901 77 97 45
-47.913231 -1.9176809 -3.1350553 80 98 49
-47.533638 -1.917756 -3.1107178 69 89 42
-47.388203 -1.8495548 -3.1028366 74 93 45
-55.244431 -1.7467005 -3.0069664 69 87 39
-54.909988 -1.7445517 -3.0731955 73 86 41
-54.686329 -1.6838626 -3.049696 56 73 27
-54.534695 -1.6795076 -3.0942824 57 75 28
-54.267395 -1.7310454 -3.0436606 56 71 25
-54.082207 -1.766971 -3.0793788 62 75 29
-53.891148 -1.7182152 -3.1087286 63 75 31
-53.724594 -1.714691 -3.1361167 60 70 27
-53.493217 -1.6635184 -3.0742788 63 78 36
-53.320515 -1.6922973 -3.0960355 81 102 55
-53.098122 -1.6723354 -3.0420942 80 99 55
-52.927525 -1.6839467 -3.0924678 75 96 52
-50.775654 -1.6282721 -3.1187735 64 77 33
-50.561646 -1.618963 -3.0585055 63 76 30
-50.365173 -1.7081456 -3.1697378 64 85 30
-50.179771 -1.630169 -3.1374371 58 79 29
-49.904705 -1.6527379 -3.1221828 72 90 41
-48.920994 -1.7636169 -3.1333337 56 78 32
-48.699215 -1.7869718 -3.1752565 77 91 42
-48.4944 -1.7149199 -3.1309302 76 97 47
-48.283085 -1.7130531 -3.11777 70 88 39
-48.111748 -1.7617311 -3.1639419 78 97 45
-47.909931 -1.6842902 -3.0840898 83 100 53
-47.71616 -1.68627 -3.088444 74 94 44
-46.835121 -1.6029218 -3.135901 45 66 24
-55.274845 -1.4036673 -3.0854414 73 87 34
-54.884731 -1.5144169 -3.0710535 92 105 58
-54.691341 -1.5046809 -3.0790768 69 85 38
-54.485806 -1.4626834 -3.0893066 67 85 35
-54.333832 -1.4870908 -3.065182 68 85 38
-54.13316 -1.4908277 -3.1149697 73 89 42
-53.90337 -1.4959067 -3.0974743 65 80 35
-53.716537 -1.5041482 -3.1205626 63 75 31
-53.49585 -1.4867687 -3.0858958 71 89 44
-53.322079 -1.4702362 -3.0893714 69 90 47
-53.088825 -1.4692044 -3.065954 76 98 51
-52.950199 -1.5124706 -3.1176171 68 89 45
-52.207298 -1.5372669 -3.1936102 82 100 42
-51.289787 -1.4648868 -3.1502352 64 78 30
-50.82666 -1.475087 -3.0816951 66 80 31
-50.765785 -1.4714576 -3.0821919 76 90 41
-50.464699 -1.4330698 -3.0800695 76 91 43
-50.318226 -1.5310122 -3.1470604 63 80 28
-50.119694 -1.5239694 -3.1418748 64 83 34
-49.842758 -1.5122865 -3.1771655 62 84 31
-49.083549 -1.4614547 -3.1273341 60 76 32
-48.891827 -1.5188428 -3.0668292 79 99 56
-48.702877 -1.5719476 -3.1556613 67 87 43
-48.507202 -1.5029233 -3.1003356 70 89 41
-48.276302 -1.5079837 -3.1167467 78 97 51
-48.068863 -1.4797523 -3.1202459 80 96 50
-47.89851 -1.5568956 -3.1228046 75 91 46
-47.654594 -1.567642 -3.1186891 73 92 44
-46.906536 -1.5282364 -3.1507375 77 91 51
-46.779118 -1.4940295 -3.1635709 80 94 58
-46.325771 -1.4778533 -3.1886063 67 89 46
-46.06292 -1.5445182 -3.1066954 60 78 36
-45.914024 -1.4465178 -3.1189864 53 73 34
-45.770088 -1.4528224 -3.1352854 51 75 38
-45.562378 -1.5389997 -3.1357176 55 80 41
-54.9016 -1.3104397 -3.0832081 99 112 59
-54.67524 -1.3322798 -3.0513575 74 91 44
-54.50964 -1.2881145 -3.0770051 64 82 31
-54.279442 -1.2498008 -3.0705948 73 91 44
-54.073078 -1.262898 -3.0699191 63 84 41
-53.889191 -1.3153064 -3.0931697 72 88 43
-53.710182 -1.2940489 -3.102339 77 90 45
-53.486 -1.3085532 -3.0897806 67 87 42
-53.277138 -1.2811192 -3.0633895 66 89 43
-53.110256 -1.2916987 -3.0906546 62 84 41
-52.922985 -1.2553595 -3.1529837 43 64 23
-52.112179 -1.259598 -3.1666553 73 89 42
-51.357319 -1.2793714 -3.1534584 62 80 31
-51.012001 -1.3358269 -3.1750884 57 75 28
-50.834633 -1.2680304 -3.1894875 63 80 30
-50.670078 -1.2925253 -3.1563506 68 88 36
-50.526981 -1.2609267 -3.1242609 57 74 26
-50.377113 -1.2204803 -3.1413476 67 79 31
-50.120464 -1.3952712 -3.1779904 57 78 25
-49.855499 -1.3166436 -3.1813588 81 100 50
-49.191746 -1.241586 -3.1380663 63 77 32
-48.870441 -1.2826968 -3.1264362 63 81 42
-48.606934 -1.3361478 -3.043673 62 84 37
-48.499397 -1.3380351 -3.1095946 67 89 43
-48.310261 -1.3144274 -3.0794799 80 97 54
-48.06712 -1.3218473 -3.0832579 87 99 59
-47.91259 -1.3509178 -3.1358337 77 92 48
-47.746731 -1.3578482 -3.1192176 78 94 49
-46.991417 -1.2463787 -3.1129048 87 103 67
-46.531937 -1.2902507 -3.1311107 47 68 28
-46.326355 -1.2797246 -3.1034002 57 80 40
-46.142498 -1.3044088 -3.1610131 53 79 38
-45.940788 -1.3002703 -3.1525161 51 73 34
-45.751968 -1.2460743 -3.0378284 37 57 23
-54.894154 -1.118675 -3.0091076 92 105 49
-54.496883 -1.1193094 -3.0506098 76 91 41
-54.297878 -1.0760329 -3.0411279 75 91 43
-54.106148 -1.0965395 -3.107662 60 80 34
-53.896076 -1.1049442 -3.0926261 71 89 39
-53.707188 -1.0944852 -3.1211715 69 83 35
-53.478638 -1.0880284 -3.0700545 57 74 31
-53.276775 -1.0875351 -3.0731869 62 82 41
-53.101208 -1.0900799 -3.0919595 62 82 44
-52.941448 -1.0869658 -3.1152742 70 88 49
-52.490883 -1.0265212 -3.1595964 78 93 39
-52.290691 -1.0954965 -3.1393843 68 85 36
-52.106674 -1.0597711 -3.0989687 74 89 46
-51.965046 -1.0541257 -3.1653404 66 77 43
-51.270924 -1.1019835 -3.1400409 59 79 29
-51.076775 -1.0609496 -3.1545906 40 58 10
-50.825275 -1.1170971 -3.1866236 69 82 37
-50.705681 -1.1114687 -3.0897346 61 81 28
-50.464119 -1.1025572 -3.1835136 38 55 13
-50.225342 -1.1632224 -3.1151893 52 65 21
-50.100784 -1.0972123 -3.0869796 71 85 42
-49.882687 -1.0571321 -3.1561735 62 76 38
-49.796101 -1.1699508 -3.1786458 98 109 72
-49.533714 -1.0177138 -3.1513457 110 123 77
-49.355915 -1.1053274 -3.1322532 80 95 47
-49.192223 -1.0909797 -3.1435153 90 103 59
-48.905277 -1.0917572 -3.1784143 86 94 54
-48.388844 -1.1594759 -3.0576904 64 83 43
-48.029331 -1.1165552 -3.0922375 74 94 45
-47.91864 -1.1481293 -3.1028037 81 97 51
-47.076065 -1.0376832 -3.1602705 70 83 38
-46.710369 -1.0140251 -3.1187732 71 89 47
-46.481686 -1.0951869 -3.1055219 61 79 41
-46.325504 -1.1108818 -3.1266582 53 73 34
-46.075787 -1.100625 -3.1111217 51 73 33
-45.961727 -1.0955619 -3.0657051 53 75 37
-45.780792 -1.1646606 -3.0447407 57 78 44
-54.255386 -0.88503212 -3.0817978 69 83 33
-54.097134 -0.89970404 -3.0945568 63 77 32
-53.88562 -0.91336846 -3.140202 71 85 37
-53.723957 -0.867468 -3.1261079 63 77 28
-53.464931 -0.8878693 -3.08549 65 82 35
-53.291248 -0.89159936 -3.0782037 71 90 47
-53.096272 -0.88461196 -3.0825257 73 94 51
-52.945152 -0.91725403 -3.1133492 74 95 54
-52.476307 -0.94363403 -3.1500616 66 81 31
-52.274368 -0.9009788 -3.1032138 74 90 45
-52.125557 -0.91845936 -3.1266019 75 90 51
-51.233929 -0.87613457 -3.0899932 63 84 32
-51.087681 -0.8825295 -3.0938084 43 63 17
-50.790092 -0.93340981 -3.1596534 58 75 30
-50.279892 -0.92631662 -3.0652184 52 68 28
-50.041012 -0.85579306 -3.1558557 72 89 45
-49.888908 -0.8088972 -3.0906448 50 62 26
-49.698132 -0.89276612 -3.1073732 51 60 26
-49.464878 -0.883506 -3.1191418 56 70 30
-49.101868 -0.92633414 -3.1333292 65 80 40
-48.986927 -0.90022534 -3.1486473 54 66 30
-48.409782 -0.84987259 -3.1768928 62 79 43
-48.121094 -0.8361063 -3.156548 96 101 60
-47.855289 -0.92007607 -3.1798222 82 95 52
-47.659363 -0.84357274 -3.1442921 77 93 48
-47.468811 -0.8568545 -3.1586611 76 94 53
-47.335354 -0.83431822 -3.1153576 70 88 43
-46.888237 -0.87983042 -3.125098 83 99 59
-46.660316 -0.91933382 -3.1261666 63 82 41
-46.490784 -0.92124146 -3.0746944 60 81 41
-46.299236 -0.91040713 -3.0981121 60 80 39
-46.099377 -0.88183743 -3.0698051 60 78 41
-45.958344 -0.87508571 -3.0303793 64 80 44
-54.244881 -0.66817802 -3.074976 86 100 46
-54.105255 -0.71013921 -3.1261652 79 93 41
-53.947952 -0.69684267 -3.1231856 78 91 42
-53.744648 -0.69054836 -3.151679 82 93 47
-53.457886 -0.7092576 -3.1453648 75 90 42
-53.274334 -0.71212411 -3.1109681 71 93 44
-53.117332 -0.70341992 -3.1056445 59 79 36
-52.983479 -0.77410889 -3.062577 69 89 50
-52.468357 -0.70319057 -3.1367428 74 92 43
-52.283752 -0.74089158 -3.1392264 72 90 47
-52.16328 -0.68303072 -3.1926508 59 75 37
-51.087669 -0.72577691 -3.1332324 68 84 31
-50.904827 -0.67302138 -3.138639 66 80 33
-50.74427 -0.71260202 -3.0254853 75 91 42
-50.326412 -0.70564628 -3.1761289 57 73 32
-49.93465 -0.77090818 -3.0552094 56 74 34
-49.654259 -0.79666972 -3.0771265 70 81 43
-49.500229 -0.74464619 -3.1164534 54 69 31
-49.391598 -0.61196393 -3.1728945 50 62 26
-48.606617 -0.73443139 -3.1856122 48 62 27
-48.289307 -0.68757951 -3.1328464 84 96 55
-48.121151 -0.67981911 -3.0701864 86 96 55
-47.996208 -0.6772185 -3.0900526 75 88 45
-47.78019 -0.68731534 -3.1046982 80 95 48
-47.476997 -0.69002914 -3.1435149 72 89 45
-47.278027 -0.66130543 -3.1363418 82 96 53
-47.090492 -0.69836533 -3.1060143 71 86 41
-46.866741 -0.67337626 -3.1101873 68 84 44
-46.702984 -0.7152009 -3.1121516 80 95 53
-46.511738 -0.70607823 -3.0851541 68 85 44
-46.330692 -0.72775292 -3.1328156 83 102 61
-46.105541 -0.76765436 -3.0805464 65 81 44
-44.466637 -0.67096871 -3.0399973 43 67 31
-54.863407 -0.56335944 -3.0198414 83 92 49
-54.605862 -0.42535952 -3.0113664 98 112 68
-54.416718 -0.42937997 -3.065135 95 104 59
-54.277428 -0.50649858 -3.0581944 89 101 49
-54.099331 -0.50800985 -3.1226306 89 102 45
-53.92194 -0.50244093 -3.1392984 89 101 50
-53.723404 -0.47010142 -3.1427319 80 93 44
-53.49155 -0.45777351 -3.1186104 79 90 46
-53.255707 -0.44429266 -3.1536274 73 89 45
-53.143681 -0.52693456 -3.1709127 47 65 23
-52.965759 -0.55503815 -3.1621528 58 75 34
-52.417702 -0.50872254 -3.1856942 54 71 24
-52.257767 -0.49839085 -3.1384807 59 71 28
-52.111698 -0.41876823 -3.1812088 28 49 10
-51.031708 -0.53689349 -3.0760796 60 75 22
-50.248985 -0.53873348 -3.1086946 43 54 17
-49.247547 -0.56540906 -3.1596856 50 62 26
-48.860123 -0.4462207 -3.1503255 37 51 18
-48.487652 -0.47497782 -3.152782 56 66 32
-48.257729 -0.48563108 -3.0790365 78 95 53
-48.076637 -0.52194005 -3.1303067 83 96 54
-47.932819 -0.52783895 -3.1232948 91 105 61
-47.456314 -0.48414138 -3.1321571 78 95 49
-47.317299 -0.46573746 -3.1137414 83 100 52
-47.075607 -0.50900751 -3.1018634 84 95 48
-46.912144 -0.50317836 -3.103821 70 86 45
-46.736156 -0.47519225 -3.089072 75 90 49
-46.513569 -0.51764214 -3.122335 72 85 48
-46.283401 -0.46899909 -3.0549812 64 84 48
-46.130405 -0.52095556 -3.0595586 49 68 33
-45.936886 -0.57192338 -3.0406208 55 77 39
-54.812141 -0.2447921 -3.0043926 83 96 50
-54.490963 -0.23089206 -3.0313125 85 95 54
-54.289677 -0.36634898 -3.0367413 92 99 47
-54.068211 -0.33552876 -3.062768 87 95 46
-53.890854 -0.31517807 -3.115597 95 103 56
-53.702591 -0.32362765 -3.1342635 85 96 47
-53.488319 -0.27174675 -3.1154661 86 98 50
-53.318256 -0.30417085 -3.1751339 80 92 45
-52.870682 -0.31347382 -3.1649976 69 83 46
-52.482723 -0.23946908 -3.1514399 66 80 39
-52.124134 -0.28684703 -3.1772208 52 66 30
-51.041187 -0.31944203 -3.087558 62 85 28
-50.959454 -0.29278696 -3.0264738 64 83 28
-50.240749 -0.38496593 -3.1854243 80 93 49
-50.071434 -0.25724593 -3.1736467 59 74 34
-49.698933 -0.30367222 -3.1364965 61 71 43
-49.267258 -0.28490242 -3.1154244 73 78 51
-49.140354 -0.25676578 -3.0982635 50 63 31
-48.889957 -0.31239292 -3.1047573 58 66 32
-48.669003 -0.30912244 -3.1061203 57 64 34
-48.472401 -0.25578931 -3.0905366 54 67 33
-48.286678 -0.30433655 -3.0205247 56 79 37
-48.121395 -0.32227615 -3.1454866 79 95 50
-47.907681 -0.32553628 -3.1056979 84 98 52
-47.632828 -0.29797 -3.1196661 120 128 77
-47.49733 -0.27006382 -3.1129093 78 96 51
-47.314228 -0.27367097 -3.1120951 72 91 47
-47.092716 -0.28770298 -3.1152773 75 93 45
-46.87056 -0.29640925 -3.0961103 72 87 46
-46.680569 -0.29492289 -3.0865619 70 86 45
-46.548168 -0.37104747 -3.0694764 82 99 55
-45.250973 -0.26356375 -3.1588416 67 88 57
-44.611553 -0.22897372 -3.0264206 42 59 29
-42.851513 -0.2145218 -3.1949973 43 62 30
-42.757023 -0.32326725 -3.1514356 40 64 28
-54.829716 -0.18910921 -3.0195689 76 94 46
-54.270874 -0.14153536 -3.0126271 88 92 51
-54.093323 -0.13438652 -3.0263133 87 94 47
-53.876259 -0.13520278 -3.0607629 91 98 51
-53.67976 -0.11551692 -3.0907199 87 95 49
-53.505657 -0.10353051 -3.1078868 81 93 45
-53.288372 -0.075279012 -3.1244807 83 94 49
-53.119011 -0.081394359 -3.1514485 87 97 53
-52.889191 -0.085346483 -3.1473806 76 90 47
-52.444 -0.1016162 -3.1904426 62 74 33
-52.246815 -0.070884213 -3.1631377 72 84 44
-52.105835 -0.072065048 -3.1627719 74 88 49
-51.906845 -0.02013316 -3.1884797 83 98 50
-51.428841 -0.0041608214 -3.1834824 78 88 43
-51.075932 -0.062670887 -3.1452937 86 103 51
-50.346603 -0.071367413 -3.1818271 68 81 38
-50.069752 -0.068370216 -3.1365154 56 71 32
-49.852348 -0.027654648 -3.1743083 61 68 35
-49.689693 -0.085809298 -3.1052899 64 74 43
-49.57795 -0.079895258 -3.0748973 45 70 30
-49.321266 -0.10882819 -3.1257057 90 94 63
-49.134804 -0.11296122 -3.1166966 70 77 46
-48.939552 -0.075334772 -3.106564 68 73 38
-48.714783 -0.080005132 -3.0824788 69 76 43
-48.475121 -0.11624158 -3.0982397 65 77 41
-48.298298 -0.051385306 -3.1030471 61 74 36
-48.11026 -0.062509105 -3.1277215 69 83 42
-47.888348 -0.087073632 -3.0802803 90 100 56
-47.71579 -0.096658811 -3.1335988 77 91 46
-47.48671 -0.068116724 -3.103318 65 83 42
-47.282818 -0.073965415 -3.1094267 66 85 44
-47.096649 -0.078094594 -3.1311047 72 90 49
-46.904552 -0.10122263 -3.0965393 71 86 46
-46.687389 -0.08906921 -3.1123621 73 91 51
-46.522717 -0.10096241 -3.0945802 66 87 49
-46.37817 -0.14525804 -3.0341325 86 104 68
-46.180462 -0.14194012 -3.0802252 71 86 52
-45.316166 -0.15113521 -3.1271863 44 64 28
-45.117683 -0.010122158 -3.0894151 41 64 32
-44.895416 -0.045354396 -3.0782104 32 56 24
-44.678856 -0.16794971 -3.1752281 46 64 34
-44.515217 -0.066175431 -3.0923591 46 66 32
-43.702984 -0.13397573 -3.0536735 61 88 47
-42.897724 -0.10678774 -3.0335679 48 71 35
-54.033981 0.051511899 -3.0282269 93 100 47
-53.899338 0.087592997 -3.0384901 92 99 50
-53.695995 0.07780496 -3.0741129 87 95 49
-53.475624 0.10085642 -3.1032948 94 103 55
-53.305672 0.11584206 -3.1282618 96 105 58
-53.132225 0.10472502 -3.1359167 91 100 56
-52.898361 0.15054862 -3.1738226 83 94 49
-52.715935 0.09903352 -3.1572635 68 84 41
-52.454693 0.10439094 -3.1731501 71 81 39
-52.351646 0.10785034 -3.1483126 72 84 40
-52.116016 0.12724134 -3.1838529 71 86 44
-51.92178 0.13150674 -3.1530879 83 99 47
-51.490005 0.12676907 -3.1847355 113 123 73
-51.386272 0.008723855 -3.1927004 83 93 50
-51.198509 0.064309224 -3.0963979 83 91 42
-50.207268 0.16323388 -3.0885255 63 73 28
-50.081577 0.14353716 -3.110873 61 78 35
-49.889042 0.13308343 -3.1624739 61 76 40
-49.752289 0.16012797 -3.1401844 52 66 31
-49.414928 0.071301393 -3.1451766 109 118 91
-49.324123 0.11053318 -3.1513388 72 74 48
-49.069744 0.098891705 -3.11748 78 86 52
-48.900856 0.10334723 -3.1190414 78 86 50
-48.711201 0.11677418 -3.1067634 63 73 37
-48.494881 0.099052116 -3.1093676 70 83 46
-48.284595 0.098705277 -3.111264 65 79 41
-48.108658 0.10429621 -3.1207259 64 77 41
-47.924423 0.12433992 -3.0986137 77 90 49
-47.696133 0.10880681 -3.1258633 72 86 42
-47.504383 0.11058812 -3.0887907 64 82 42
-47.311115 0.10545295 -3.109581 66 85 47
-47.104851 0.092394881 -3.1165457 63 81 43
-46.898434 0.1006004 -3.0890894 63 79 45
-46.721344 0.068973646 -3.0601847 61 80 44
-46.517193 0.075562119 -3.0456545 65 82 47
-46.368408 0.12571551 -3.076767 62 80 47
-46.133755 0.17987552 -3.0836802 83 95 64
-45.462429 0.1210135 -3.1178141 43 64 32
-45.378021 0.02798304 -3.1303148 47 63 32
-45.039146 0.13791561 -3.1444919 45 63 32
-44.936104 0.13461329 -3.1433234 33 52 21
-44.716038 0.13840745 -3.1280415 46 65 30
-44.488537 0.12655203 -3.0366397 44 63 34
-44.33297 0.10077064 -3.0948892 45 65 31
-43.803307 0.04840222 -3.0367017 73 100 59
-43.627754 0.19695449 -3.1984463 71 95 54
-43.135788 0.046722889 -3.1419506 60 75 45
-42.885002 0.0055699944 -3.088352 54 76 41
-54.029114 0.26422274 -3.0652113 90 94 53
-53.919239 0.2920756 -3.0298216 88 93 49
-53.698074 0.2854864 -3.0500913 93 98 54
-53.48299 0.30388275 -3.0758724 97 104 54
-53.315918 0.32005802 -3.1038115 99 106 57
-53.119526 0.30215818 -3.115639 94 103 55
-52.94072 0.29909894 -3.1336324 85 96 49
-52.741627 0.30941948 -3.1861651 85 98 53
-52.512287 0.32767615 -3.1554449 83 97 53
-52.292164 0.27938744 -3.1708534 65 81 37
-52.084835 0.31057769 -3.1693106 74 89 43
-51.91864 0.31968281 -3.1279788 78 93 44
-51.76091 0.29829562 -3.0873036 118 129 71
-51.491951 0.30959159 -3.1768641 66 81 32
-51.258614 0.30779165 -3.1460352 111 118 65
-50.492786 0.21821934 -3.130862 69 75 39
-50.259888 0.36837545 -3.1302395 59 76 32
-50.084305 0.3175658 -3.1371276 69 83 43
-49.886856 0.33027574 -3.1089876 65 81 42
-49.710926 0.31474677 -3.1601152 58 73 37
-49.464455 0.31155616 -3.1408794 73 84 48
-49.2799 0.29609755 -3.1152894 78 88 49
-49.092609 0.26635221 -3.1232636 64 74 39
-48.908955 0.28201371 -3.1018579 74 84 47
-48.683811 0.31788188 -3.1187022 63 77 37
-48.485786 0.32911611 -3.0988698 63 82 43
-48.306656 0.29340112 -3.1135538 65 84 45
-48.097099 0.31882006 -3.114949 69 85 45
-47.902355 0.28703958 -3.1086524 66 80 42
-47.700562 0.30300078 -3.1084976 70 85 46
-47.51371 0.30524856 -3.0788276 66 84 47
-47.302944 0.31296059 -3.0903168 63 81 45
-47.094078 0.30721551 -3.1125095 57 74 37
-46.919498 0.2997717 -3.1017663 62 78 43
-46.725693 0.28115511 -3.0759699 59 74 41
-46.552567 0.26964265 -3.037648 47 65 27
-46.357536 0.32704252 -3.071913 38 60 24
-46.08408 0.34048182 -3.1084476 56 74 42
-45.807911 0.21731821 -3.0033762 70 89 61
-45.689468 0.38061827 -3.0575314 29 51 20
-45.496319 0.33602259 -3.1351137 46 68 35
-45.323547 0.3301059 -3.1299746 53 77 43
-45.077255 0.31750253 -3.1165032 52 71 38
-44.931274 0.31462678 -3.1329489 46 65 30
-44.72131 0.29378834 -3.076458 42 62 26
-44.460957 0.29390574 -3.1036272 47 68 30
-44.341454 0.2802189 -3.1083519 53 77 36
-43.824642 0.27586639 -3.1704288 51 78 35
-43.745468 0.32451871 -3.0979452 64 91 51
-43.27137 0.23278984 -3.1717443 63 76 48
-42.862171 0.24876676 -3.1432915 64 86 49
-54.040421 0.45745486 -3.0304966 86 92 51
-53.850147 0.47692633 -3.0414629 97 101 58
-53.685131 0.51443124 -3.0560749 98 102 57
-53.512836 0.49655604 -3.0646853 97 102 52
-53.305557 0.52311534 -3.0916126 99 103 55
-53.101566 0.49899417 -3.1213732 94 101 52
-52.90947 0.48450851 -3.1539166 78 89 44
-52.691315 0.52643293 -3.1824553 87 100 53
-52.489765 0.49733818 -3.1450813 80 95 50
-52.330631 0.51093096 -3.1637814 83 95 46
-52.082077 0.45823839 -3.1085265 78 93 46
-51.960941 0.41251627 -3.1914544 82 100 57
-51.695759 0.50374711 -3.1567562 69 87 38
-51.547512 0.47549376 -3.1341383 79 93 48
-51.290054 0.47138944 -3.1108282 96 106 56
-50.789215 0.45074132 -3.1426873 59 76 32
-50.498795 0.50794882 -3.1735709 84 93 50
-50.3125 0.50979823 -3.1428297 82 92 47
-50.095646 0.51514447 -3.1357911 68 84 41
-49.888874 0.50207227 -3.1228912 65 83 41
-49.702423 0.47934335 -3.0780771 69 83 46
-49.473923 0.49181685 -3.1189001 88 98 59
-49.28149 0.49723828 -3.0847142 68 81 43
-49.106724 0.4882085 -3.0927358 70 82 46
-48.891056 0.50109977 -3.1050148 73 85 48
-48.686523 0.4931663 -3.1284561 69 87 47
-48.51416 0.49764562 -3.1123521 65 87 46
-48.298737 0.5055539 -3.0965221 65 85 47
-48.099594 0.50455099 -3.1105125 60 76 40
-47.894806 0.50391942 -3.1185431 66 81 46
-47.682957 0.51426458 -3.1183434 65 80 46
-47.500031 0.52107167 -3.115268 69 82 49
-47.306259 0.506971 -3.1052866 64 80 46
-47.088772 0.51203293 -3.0828731 62 77 43
-46.906071 0.49945843 -3.0905795 60 76 43
-46.718334 0.5053407 -3.093385 63 77 45
-46.504814 0.48838919 -3.0871124 54 76 42
-46.329788 0.53335184 -3.1169062 41 60 31
-46.114246 0.51318717 -3.079715 46 64 34
-45.911007 0.49504629 -3.1214235 35 54 24
-45.66922 0.53837353 -3.0738487 41 60 29
-45.509819 0.49581799 -3.1063542 44 64 33
-45.279922 0.51076162 -3.1181681 45 66 33
-45.101982 0.51053309 -3.1037991 45 64 31
-44.924469 0.51008797 -3.1191735 55 73 36
-44.719337 0.46038765 -3.0694187 50 68 28
-44.454506 0.51060838 -3.0998816 48 70 30
-44.3004 0.49718732 -3.107688 48 73 34
-44.134815 0.46241677 -3.1278043 57 83 40
-43.872662 0.49000573 -3.1459553 54 81 36
-43.557747 0.56508625 -3.1665871 65 79 47
-43.080338 0.40919924 -3.1365099 61 82 45
-42.927666 0.42240331 -3.1658559 62 82 47
-53.852432 0.66337246 -3.0468416 84 89 49
-53.703377 0.67724258 -3.0631783 95 99 55
-53.476982 0.6878432 -3.0665762 96 101 56
-53.299248 0.71463126 -3.0802195 100 106 55
-53.106724 0.72226852 -3.1069613 97 104 56
-52.909569 0.70382917 -3.1123126 94 103 58
-52.698673 0.70092446 -3.1631532 85 98 51
-52.573055 0.66758776 -3.1249371 92 103 54
-52.321625 0.66586244 -3.1479549 77 94 49
-52.046535 0.66628766 -3.170486 84 99 53
-51.461174 0.77725279 -3.1556861 106 125 69
-51.355366 0.68845874 -3.1930454 94 110 53
-50.877869 0.69827765 -3.172179 64 80 37
-50.702595 0.7018407 -3.1535611 86 95 51
-50.501347 0.70769286 -3.1534414 82 96 50
-50.274879 0.69327384 -3.1119142 77 90 47
-50.117386 0.70162356 -3.129482 82 96 51
-49.914047 0.70106965 -3.1117251 70 88 43
-49.714687 0.72893721 -3.1260235 61 77 34
-49.476109 0.67806786 -3.1575255 90 99 57
-49.309402 0.68163234 -3.1362774 81 91 54
-49.094067 0.70085722 -3.1253951 74 87 48
-48.912308 0.72321993 -3.1112938 71 86 49
-48.672009 0.70671445 -3.1272881 65 85 45
-48.510956 0.69939965 -3.0929823 63 83 44
-48.295155 0.69400531 -3.1002476 63 81 43
-48.105778 0.70532149 -3.1121271 67 83 47
-47.907928 0.71000379 -3.107054 71 87 52
-47.695648 0.70039243 -3.1079047 68 81 50
-47.507221 0.71664286 -3.0870562 70 84 52
-47.316944 0.71558601 -3.0982511 65 78 46
-47.102139 0.70653296 -3.0831342 61 76 44
-46.899818 0.71641648 -3.1007993 54 69 38
-46.715729 0.68728876 -3.0940371 53 72 41
-46.480053 0.6861282 -3.076519 45 63 32
-46.31245 0.71279001 -3.0685639 50 67 39
-46.124561 0.68700337 -3.0694959 57 73 44
-45.937965 0.69279927 -3.0748575 39 54 26
-45.691353 0.71334088 -3.0876381 43 61 30
-45.504368 0.70483524 -3.0693617 47 66 34
-45.328907 0.72494972 -3.1143842 41 63 29
-45.140076 0.70438808 -3.1105525 71 87 52
-44.887096 0.71697253 -3.1358292 71 84 47
-44.66927 0.73209447 -3.171464 70 84 44
-44.518658 0.67361879 -3.1208797 57 76 38
-44.293293 0.70014423 -3.0980041 54 77 36
-44.110165 0.67850977 -3.0927408 56 82 39
-43.952019 0.64954931 -3.1341805 56 84 41
-43.762646 0.76634401 -3.1464989 73 88 55
-42.970486 0.65174878 -3.1029894 65 87 52
-53.904552 0.87004137 -3.0384395 85 93 51
-53.6763 0.84542584 -3.0503325 97 100 59
-53.500233 0.8805216 -3.0785263 102 105 61
-53.295437 0.91298163 -3.0853746 103 109 59
-53.103058 0.9151293 -3.1011093 100 108 59
-52.882889 0.87752575 -3.087214 96 105 62
-52.684566 0.90393239 -3.1380284 85 97 53
-51.419495 0.86422157 -3.1517527 91 108 58
-51.094925 0.87699962 -3.1587367 82 92 51
-50.876122 0.90146858 -3.1286428 79 95 48
-50.698944 0.91821396 -3.1320755 85 96 51
-50.524353 0.90861785 -3.1402061 98 108 60
-50.276066 0.89362663 -3.1319058 101 110 63
-50.10434 0.88467449 -3.1269872 92 104 55
-49.912308 0.90252531 -3.1148396 87 100 54
-49.693501 0.90810221 -3.1048253 78 92 49
-49.51453 0.91435754 -3.1213729 72 86 44
-49.293499 0.91801983 -3.1102519 71 85 44
-49.096359 0.89495814 -3.1030324 73 85 48
-48.919868 0.90714514 -3.1070468 68 85 46
-48.688873 0.91382283 -3.1143715 62 82 42
-48.49992 0.89516234 -3.0956931 58 76 36
-48.294868 0.9076333 -3.0992045 59 77 38
-48.094501 0.90460587 -3.1150999 70 88 50
-47.879524 0.89610827 -3.1138849 65 82 48
-47.699638 0.89505136 -3.1009541 72 86 54
-47.513321 0.90660357 -3.1030493 74 90 55
-47.317043 0.89852059 -3.0920124 66 81 49
-47.083752 0.91017002 -3.1029077 58 72 40
-46.903511 0.89160556 -3.0828016 54 69 39
-46.717781 0.89627755 -3.083405 56 73 41
-46.493572 0.88139784 -3.0522346 48 62 34
-46.300919 0.87796271 -3.0478513 51 65 37
-46.085644 0.89906085 -3.086642 49 61 36
-45.892998 0.9011758 -3.0734377 50 67 38
-45.69545 0.90575469 -3.098542 50 67 36
-45.494381 0.89913422 -3.080622 44 63 30
-45.297527 0.88349706 -3.1154017 55 73 39
-45.073242 0.95661056 -3.0681705 61 77 39
-44.911606 0.89299107 -3.1238227 66 80 42
-44.717197 0.92127204 -3.1229234 80 95 53
-44.53981 0.90925521 -3.1681659 78 97 56
-44.310097 0.89528656 -3.0848532 62 84 41
-44.157841 0.9034003 -3.1128612 59 83 39
-43.844101 0.90958071 -3.1122594 69 87 50
-43.765762 0.9382965 -3.1261902 78 94 57
-43.018589 0.82003886 -3.1231997 61 83 44
-42.91259 0.95922935 -3.1836553 71 99 53
-53.801598 1.0214767 -3.0030856 96 98 61
-53.641659 1.0808276 -3.0685298 95 102 60
-53.469902 1.1277045 -3.0567291 98 106 60
-53.307629 1.1104301 -3.0839159 103 111 64
-53.085514 1.113387 -3.0821435 97 106 61
-52.888935 1.087662 -3.088181 97 107 62
-52.704704 1.0977525 -3.1486995 96 111 66
-51.455017 1.1419668 -3.1374497 78 97 49
-51.222515 1.0788386 -3.0850337 69 89 34
-51.114986 1.0694617 -3.1875474 79 94 48
-50.871563 1.0999843 -3.1018023 83 96 50
-50.69384 1.0960519 -3.0994191 88 99 53
-50.509403 1.1058165 -3.1236882 96 106 57
-50.315788 1.0896777 -3.1085224 105 111 59
-50.098217 1.0948488 -3.1153595 91 104 55
-49.920872 1.0836353 -3.1055238 89 102 54
-49.693951 1.1022086 -3.1084039 80 94 50
-49.514023 1.1018374 -3.0999193 82 95 53
-49.303791 1.1158839 -3.1137524 88 99 54
-49.096886 1.0997475 -3.1025169 80 92 50
-48.944172 1.0924504 -3.1085787 75 91 49
-48.7038 1.1038477 -3.0892034 66 80 40
-48.486538 1.0891079 -3.1049712 70 85 45
-48.305122 1.1119865 -3.1248367 59 77 38
-48.099152 1.1085796 -3.1012533 69 88 50
-47.888618 1.0954727 -3.1045458 64 83 46
-47.701176 1.0996898 -3.1021335 71 89 53
-47.507076 1.1090766 -3.1094732 72 91 55
-47.300598 1.0958298 -3.077569 68 83 50
-47.114891 1.0779781 -3.0788314 58 72 41
-46.922146 1.0865318 -3.0730195 48 62 32
-46.696007 1.0656567 -3.0937808 49 65 35
-46.513557 1.0697842 -3.0522189 53 66 38
-46.275467 1.1123856 -3.0721745 45 59 32
-46.109348 1.1032001 -3.0771422 54 67 39
-45.880062 1.1094778 -3.1041539 47 61 31
-45.711269 1.1130598 -3.0966864 48 68 33
-45.516838 1.1090426 -3.0970275 54 72 36
-45.316608 1.1093994 -3.121331 66 83 44
-45.069653 1.1139377 -3.1447644 72 91 53
-44.907658 1.0633701 -3.1272557 75 91 52
-44.75042 1.0878011 -3.1299057 80 96 56
-44.491825 1.1145712 -3.1304729 77 91 51
-44.310986 1.0763451 -3.1114085 68 88 45
-44.10408 1.1120301 -3.1202536 72 95 53
-43.922874 1.0572973 -3.1114388 74 95 55
-43.204685 1.178226 -3.0141988 68 90 53
-43.175621 1.1931106 -3.1975164 71 94 50
-53.827305 1.2309334 -3.0560648 101 106 65
-53.669106 1.3153888 -3.0482984 86 95 55
-53.508324 1.2897593 -3.0690382 94 101 59
-53.282734 1.3183035 -3.0699303 101 108 65
-53.099899 1.2880762 -3.0797572 87 99 56
-52.912548 1.272923 -3.0929554 91 107 60
-52.740017 1.2858456 -3.1256609 90 109 67
-51.421909 1.2510861 -3.1087925 87 105 55
-51.242474 1.3488362 -3.186307 71 85 45
-51.109245 1.2869427 -3.1038859 89 105 60
-50.860085 1.2582856 -3.0951803 92 103 59
-50.698654 1.2887372 -3.1215374 92 102 56
-50.519276 1.2912685 -3.0981143 90 103 54
-50.296925 1.3027791 -3.1306658 91 102 53
-50.088966 1.2940774 -3.107456 90 104 56
-49.911888 1.3096411 -3.1123636 81 97 50
-49.695133 1.3083551 -3.0862956 77 93 48
-49.524136 1.2961274 -3.1111121 82 96 49
-49.318924 1.2976379 -3.1113296 82 97 53
-49.07951 1.286376 -3.106298 74 88 46
-48.906731 1.3075628 -3.1048157 71 87 44
-48.713791 1.3148743 -3.1067693 75 89 47
-48.508232 1.2781049 -3.086113 81 93 51
-48.285816 1.280265 -3.1111526 72 89 51
-48.099586 1.2794899 -3.1107857 66 87 49
-47.904457 1.2950342 -3.1061287 63 83 45
-47.699783 1.2990327 -3.1003892 65 84 48
-47.502831 1.2980136 -3.0996332 65 83 49
-47.311146 1.3121525 -3.0897062 60 73 43
-47.096645 1.2973989 -3.0962677 58 70 42
-46.901402 1.2960472 -3.0778143 58 71 43
-46.70837 1.3217309 -3.08691 54 68 40
-46.521034 1.3134359 -3.0727603 62 76 46
-46.250225 1.2598566 -3.0826423 54 67 41
-46.089314 1.3125154 -3.0730684 50 63 35
-45.897526 1.2910455 -3.098134 49 66 34
-45.677826 1.2882644 -3.0869265 57 75 40
-45.516582 1.2888477 -3.123863 66 84 45
-45.303028 1.2662129 -3.112232 73 90 50
-45.083439 1.2648633 -3.1199224 77 96 55
-44.903763 1.3213054 -3.1268377 75 96 57
-44.674343 1.3374585 -3.1583843 70 89 52
-44.506851 1.3221697 -3.1120875 74 90 51
-44.329479 1.2996542 -3.1101346 71 94 52
-44.125065 1.3376473 -3.0698497 64 89 47
-43.915638 1.3472272 -3.1442871 93 106 57
-43.748268 1.228999 -3.195374 105 119 72
-53.811001 1.4796119 -3.0666194 114 118 75
-53.678806 1.4843059 -3.0637219 104 109 71
-53.514698 1.4888211 -3.0569406 103 105 70
-53.271729 1.5069736 -3.0770371 91 102 60
-53.064091 1.5181274 -3.0841415 85 101 58
-52.909328 1.4883702 -3.0989015 77 95 56
-52.708344 1.5166937 -3.1355624 92 101 82
-52.514778 1.5795375 -3.1924887 128 124 122
-52.359993 1.445877 -3.1975629 140 141 140
-52.065842 1.55505 -3.1948986 142 135 129
-51.987175 1.4889865 -3.137023 148 148 152
-51.614429 1.5857122 -3.1618814 125 126 131
-50.684235 1.4583862 -3.0971463 90 102 56
-50.490719 1.4891816 -3.1229694 87 102 52
-50.284901 1.4814409 -3.1303964 90 101 54
-50.100616 1.5105555 -3.1180141 92 105 58
-49.899658 1.4920889 -3.1076052 85 99 53
-49.702255 1.5057636 -3.1016564 80 95 50
-49.511753 1.4724029 -3.0929742 74 89 44
-49.341934 1.4446132 -3.0991504 70 88 47
-49.092941 1.4369986 -3.1578014 82 97 53
-48.893162 1.4742446 -3.1057801 71 91 47
-48.715271 1.4792675 -3.1049354 73 90 48
-48.482342 1.5183039 -3.1266432 80 97 55
-48.28661 1.4966855 -3.1423907 68 85 48
-48.088219 1.4736928 -3.1135235 58 78 41
-47.895515 1.5041029 -3.0928335 62 81 45
-47.700344 1.4933639 -3.1045349 61 80 45
-47.495937 1.4919285 -3.0951998 60 75 43
-47.308582 1.499313 -3.0945477 57 70 41
-47.096951 1.4923774 -3.099396 63 72 44
-46.933056 1.4907162 -3.084955 61 74 46
-46.703339 1.4731983 -3.0732367 57 71 42
-46.516289 1.4867485 -3.0804393 58 69 44
-46.300472 1.5140626 -3.0848072 57 68 42
-46.083511 1.513924 -3.0964448 46 63 31
-45.894321 1.508697 -3.1039128 58 77 41
-45.714985 1.4788908 -3.1205354 65 79 46
-45.517315 1.4648024 -3.0871177 65 82 44
-45.301487 1.5024503 -3.1407459 78 93 52
-45.072041 1.5088028 -3.1094475 69 90 50
-44.917698 1.5270662 -3.0901358 67 90 53
-44.750507 1.5000129 -3.1047258 69 89 51
-44.482086 1.4602195 -3.0537112 63 84 42
-44.269951 1.5050609 -3.1261649 59 79 38
-43.856789 1.4169326 -3.0606024 95 105 55
-43.796608 1.4155748 -3.1601477 99 111 63
-43.002754 1.4813883 -3.0820179 103 116 83
-53.711655 1.7100841 -3.0359852 104 113 70
-53.481213 1.7256224 -3.1232903 97 110 62
-53.274239 1.7048181 -3.0808172 86 99 56
-53.079845 1.6965054 -3.1024749 90 102 71
-52.904003 1.6957884 -3.1158681 110 117 102
-52.717926 1.698891 -3.1160717 130 132 127
-52.528824 1.726264 -3.1188726 130 133 133
-52.320652 1.7331111 -3.1737127 126 131 133
-52.150906 1.7010958 -3.1659784 153 154 155
-51.899055 1.7685314 -3.1688538 68 70 65
-51.676682 1.7622236 -3.1896653 92 101 103
-50.453274 1.7134774 -3.1431701 74 87 46
-50.322556 1.6937058 -3.1267402 79 92 47
-50.099705 1.6917212 -3.1099546 89 104 57
-49.880413 1.7048483 -3.1239939 83 98 52
-49.720448 1.6888187 -3.1136961 79 94 51
-49.519531 1.6821691 -3.1251659 79 93 52
-49.278511 1.6939217 -3.0959253 92 102 57
-49.083618 1.7128795 -3.1430492 90 103 55
-48.868671 1.7326926 -3.1120708 70 88 45
-48.742493 1.7267686 -3.1416681 54 74 31
-48.487675 1.7097487 -3.1198888 77 95 53
-48.338245 1.6876233 -3.1328459 72 92 52
-48.09745 1.6857561 -3.1117837 60 77 42
-47.900711 1.7114676 -3.1077445 59 74 40
-47.699833 1.7114626 -3.1004097 60 76 43
-47.492699 1.6939664 -3.1139858 56 71 39
-47.293514 1.7031943 -3.1060867 59 72 44
-47.110565 1.6850277 -3.0805514 63 74 47
-46.884445 1.7514052 -3.1000502 64 76 50
-46.680229 1.7233317 -3.0692322 55 69 40
-46.503284 1.6965305 -3.065937 64 75 47
-46.300705 1.700315 -3.1128328 56 70 42
-46.107273 1.6943468 -3.099139 53 71 39
-45.90963 1.6550006 -3.0888495 59 80 45
-45.700127 1.6659514 -3.1096859 76 93 57
-45.492023 1.6828901 -3.1031621 74 88 51
-45.284008 1.7170577 -3.1291654 69 85 44
-45.112564 1.6960666 -3.1088767 59 79 39
-44.90937 1.7072412 -3.1119468 51 71 33
-44.736889 1.6973842 -3.0923359 61 80 42
-44.542831 1.6916628 -3.1646578 50 71 32
-43.719204 1.6740702 -3.1524513 83 94 51
-43.063835 1.6702039 -3.0230424 84 104 63
-42.988262 1.6187469 -3.196137 77 100 56
-53.631039 1.9135257 -3.0858266 87 102 54
-53.460617 1.8915269 -3.0527105 92 107 60
-53.273735 1.9196107 -3.0793562 90 103 63
-53.069645 1.89214 -3.1059401 123 128 110
-52.912682 1.8767523 -3.1076138 124 124 117
-52.695488 1.8855493 -3.0928955 113 113 108
-52.523884 1.9105146 -3.1181467 114 115 114
-52.31089 1.9145761 -3.1158011 143 142 145
-52.115108 1.8948492 -3.1444414 124 128 131
-51.907841 1.9095939 -3.1691225 101 107 110
-51.7267 1.9095272 -3.161114 109 113 113
-51.508144 1.9437568 -3.1796129 125 128 131
-51.356113 1.9509789 -3.1837146 112 115 116
-50.558804 1.9743174 -3.1907701 74 91 56
-50.259769 1.8918697 -3.1429532 75 89 46
-50.135712 1.8836459 -3.1398008 88 102 55
-49.90538 1.8485004 -3.1007175 80 95 49
-49.7076 1.8729109 -3.1283853 84 99 57
-49.542881 1.8550587 -3.1613069 80 94 51
-49.109291 1.8964822 -3.1256375 87 99 55
-48.906731 1.9101743 -3.1286037 73 86 48
-48.692188 1.9080178 -3.163271 60 78 41
-48.472935 1.8779627 -3.1114786 71 91 51
-48.308281 1.913754 -3.1339183 64 85 48
-48.08247 1.9075632 -3.1242352 68 84 49
-47.890865 1.9026818 -3.1085565 66 79 46
-47.693619 1.8993975 -3.1035426 67 81 50
-47.497471 1.9092847 -3.0902417 61 73 44
-47.312527 1.9018155 -3.0950482 60 75 46
-47.088097 1.8908682 -3.0954695 55 68 41
-46.899563 1.9172313 -3.0928123 53 67 40
-46.706932 1.910342 -3.1079509 59 75 47
-46.483192 1.9241182 -3.0913718 58 72 47
-46.321472 1.8856483 -3.1065583 62 78 49
-46.158421 1.8871528 -3.0722337 68 88 55
-45.929905 1.9034661 -3.0885608 86 100 66
-45.685478 1.8927132 -3.0945897 72 86 50
-45.486214 1.9399922 -3.1093538 74 90 53
-45.301323 1.8710622 -3.1198444 66 79 43
-45.11866 1.8957288 -3.1024158 65 84 46
-44.90873 1.8982888 -3.0671442 65 86 48
-44.722347 1.8988785 -3.1223979 64 85 50
-44.509575 1.8806595 -3.1538086 56 74 40
-44.350277 1.8428864 -3.183322 55 75 39
-43.720451 1.8389783 -3.1196506 96 107 67
-43.571342 1.8486156 -3.1655488 91 106 62
-53.632446 2.0551777 -3.1243858 90 106 57
-53.45787 2.0762317 -3.1605625 81 99 54
-53.262249 2.0811076 -3.0761697 105 114 80
-53.08992 2.080627 -3.1099672 120 121 106
-52.911049 2.0867662 -3.0634477 122 124 117
-52.705688 2.0931385 -3.0726066 111 111 106
-52.502583 2.1143081 -3.0778859 115 116 115
-52.307648 2.113626 -3.0897117 123 125 125
-52.103756 2.1111259 -3.1276009 122 124 124
-51.911087 2.0981176 -3.1283867 101 105 107
-51.713512 2.1066072 -3.1369605 103 107 109
-51.510643 2.0773954 -3.1681054 104 106 108
-51.347744 2.0824423 -3.1777513 108 110 112
-50.558899 2.0536532 -3.1166377 106 121 90
-50.397987 2.0634639 -3.1862824 99 103 78
-49.65155 2.0192521 -3.1346469 70 87 45
-49.270897 2.1292315 -3.0582891 53 67 30
-49.090096 2.0474317 -3.1487322 68 86 47
-48.900097 2.142422 -3.0882142 61 78 40
-48.677078 2.1418564 -3.0956941 54 74 35
-48.481434 2.1052229 -3.0913062 63 83 46
-48.301773 2.0837426 -3.1034019 62 82 45
-48.08604 2.098465 -3.1125958 71 84 51
-47.897072 2.0921321 -3.1014249 66 79 48
-47.698814 2.1082482 -3.0903809 65 78 48
-47.498615 2.1029897 -3.0966783 61 74 46
-47.306068 2.0957308 -3.0970275 58 72 43
-47.093075 2.0898304 -3.0955143 63 78 48
-46.885178 2.1039848 -3.1064029 60 73 47
-46.710136 2.0776401 -3.0875132 59 73 46
-46.493286 2.0821357 -3.0887494 58 75 47
-46.309326 2.0975037 -3.1080847 63 80 50
-46.151169 2.0725229 -3.1285059 69 83 53
-45.893784 2.0740173 -3.1060398 77 92 57
-45.663052 2.1018901 -3.0992346 61 78 42
-45.515484 2.0807703 -3.1177967 70 84 48
-45.285229 2.1088684 -3.126394 72 88 52
-45.09367 2.0969088 -3.0964353 63 83 46
-44.89983 2.0750308 -3.1210337 68 89 52
-44.683525 2.1170423 -3.107322 65 81 48
-44.480808 2.1032269 -3.1029844 69 87 51
-44.323925 2.1384356 -3.0693188 80 97 57
-44.156971 2.1676278 -3.1101513 102 112 75
-53.621063 2.3035052 -3.1047993 86 102 57
-53.496593 2.3390627 -3.1009684 77 96 50
-53.24765 2.3258698 -3.0435636 81 89 69
-53.110474 2.2867293 -3.0583091 110 111 97
-52.88055 2.2812626 -3.0470142 128 126 121
-52.677296 2.2772937 -3.0782518 106 108 106
-52.491325 2.301194 -3.0688016 120 121 117
-52.301949 2.3156371 -3.0758731 126 128 127
-52.101528 2.3025131 -3.073813 133 134 133
-51.889282 2.2922266 -3.103549 117 119 119
-51.720047 2.2973716 -3.1254699 112 114 115
-51.490902 2.3283234 -3.1749322 101 103 106
-51.281841 2.3248413 -3.1648595 106 107 108
-51.187016 2.2845194 -3.1831601 96 98 99
-48.6856 2.2462459 -3.1303461 52 72 34
-48.475952 2.2654438 -3.1465881 55 75 42
-48.271683 2.2844081 -3.0971086 63 80 46
-48.094162 2.3055663 -3.1104462 64 78 46
-47.914127 2.2950735 -3.1050782 74 84 55
-47.712456 2.3078823 -3.0851128 65 77 49
-47.485363 2.2924852 -3.0671523 63 73 47
-47.312134 2.3028872 -3.0826626 62 75 48
