ply
format ascii 1.0
comment PCL generated
element vertex 1094
property float x
property float y
property float z
property uchar red
property uchar green
property uchar blue
element face 0
element camera 0
property float view_px
property float view_py
property float view_pz
property float x_axisx
property float x_axisy
property float x_axisz
property float y_axisx
property float y_axisy
property float y_axisz
property float z_axisx
property float z_axisy
property float z_axisz
property float focal
property float scalex
property float scaley
property float centerx
property float centery
property int viewportx
property int viewporty
property float k1
property float k2
end_header
-108.74618 -57.480537 20.855497 145 145 142
-113.07857 -57.279549 20.834837 144 152 156
-112.87939 -57.339157 20.830912 128 139 145
-112.71132 -57.293854 20.829456 123 133 134
-112.44006 -57.298512 20.854033 136 146 144
-112.30119 -57.299347 20.88343 123 135 133
-112.1023 -57.339031 20.885233 104 121 113
-111.90508 -57.363949 20.934923 119 133 132
-110.47864 -57.304276 20.898552 139 146 136
-110.33502 -57.280067 20.937311 144 152 143
-109.5303 -57.304016 20.992722 91 103 89
-109.03161 -57.309898 20.915234 142 146 141
-108.88076 -57.328232 20.923546 118 121 117
-107.42519 -57.254665 20.855186 109 124 118
-107.27969 -57.276539 20.857765 79 100 85
-107.09077 -57.229736 20.823658 120 135 128
-113.05219 -57.164619 20.833801 123 136 134
-112.88912 -57.170376 20.811489 160 170 169
-112.476 -57.140121 20.890087 145 154 156
-112.30984 -57.171482 20.883503 116 128 128
-112.14472 -57.129433 20.89608 95 106 99
-110.62945 -57.067558 20.849201 133 139 134
-110.51378 -57.099876 20.889845 124 135 124
-110.33456 -57.117046 20.936546 119 126 117
-110.15756 -57.033276 20.988699 117 122 116
-109.90385 -57.064957 20.986193 105 118 103
-109.71761 -57.156578 20.945293 129 136 122
-109.25586 -57.181831 20.850948 145 151 149
-109.14925 -57.086895 20.86648 126 133 126
-108.87682 -57.058552 20.935387 137 141 145
-107.4397 -57.081284 20.875887 141 155 155
-107.31691 -57.092388 20.882015 130 143 142
-107.12177 -57.049397 20.930014 138 153 151
-106.91602 -57.051098 20.816463 98 117 112
-110.62182 -56.998371 20.924437 131 138 133
-110.48091 -56.886852 20.9207 135 142 136
-110.37067 -56.816612 20.832739 112 128 118
-110.08181 -56.945835 20.945723 109 122 109
-109.89532 -56.859409 20.920923 111 122 104
-109.40815 -56.890408 20.847778 91 103 93
-109.29033 -56.905159 20.919592 128 137 130
-109.16098 -56.879219 20.917332 133 138 136
-108.90176 -56.96896 20.989376 184 183 197
-107.45716 -56.923931 20.897161 137 149 149
-107.29676 -56.875183 20.889439 127 138 136
-107.10764 -56.923389 20.912561 106 125 121
-106.85956 -56.872326 20.826962 81 103 92
-106.73462 -56.844494 20.937416 114 139 133
-112.44508 -56.612949 20.821898 173 169 170
-112.27387 -56.630569 20.821133 179 182 189
-110.29344 -56.741016 20.939672 121 129 121
-110.09888 -56.685307 20.951685 113 123 114
-109.9221 -56.700684 20.9298 105 115 104
-109.65942 -56.68853 20.894255 108 118 111
-109.49511 -56.70927 20.920843 103 116 105
-109.26579 -56.715279 20.936985 156 158 155
-109.11631 -56.713852 20.84543 165 162 162
-107.75821 -56.734009 20.804276 120 124 134
-107.44537 -56.703686 20.993757 137 145 137
-107.03079 -56.770554 20.828457 82 104 94
-106.94238 -56.730125 20.813576 90 106 98
-106.72559 -56.733841 20.876568 99 121 115
-112.37585 -56.560471 20.83729 195 191 199
-109.83792 -56.559708 20.933161 135 139 137
-109.69926 -56.50679 20.931948 129 136 133
-109.51973 -56.468945 20.878145 146 150 151
-109.2912 -56.513103 20.890604 158 158 158
-109.18811 -56.414421 20.856712 140 135 139
-106.88443 -56.478676 20.854057 102 123 114
-106.69557 -56.532314 20.809563 101 121 114
-106.49142 -56.532127 20.807632 104 121 111
-110.11966 -56.315456 20.874239 85 101 85
-109.62711 -56.217297 20.833345 141 140 145
-109.45555 -56.27393 20.839848 153 154 153
-109.32352 -56.264332 20.855057 145 150 147
-109.14641 -56.269997 20.828236 100 103 103
-107.48347 -56.235424 20.882145 107 119 105
-106.72655 -56.291294 20.830879 68 80 76
-111.46138 -56.043533 20.864985 175 171 175
-111.34158 -56.104397 20.839361 137 136 138
-110.71582 -56.017799 20.831451 131 126 131
-110.55097 -56.036125 20.81958 113 119 115
-110.20924 -56.010994 20.825737 91 105 90
-110.12733 -56.082855 20.879269 95 105 94
-109.22676 -56.091824 20.867529 215 207 205
-109.14625 -56.054821 20.834999 152 144 149
-108.73393 -56.031464 20.924854 129 143 125
-106.5472 -56.118862 20.859043 130 140 142
-111.68661 -55.88871 20.904518 118 114 108
-111.56167 -55.938843 20.869049 172 171 167
-111.35138 -55.935699 20.906399 106 111 105
-111.13764 -55.84206 20.943178 104 104 99
-110.89192 -55.857281 20.922941 143 140 138
-110.70303 -55.903854 20.872978 154 149 147
-110.51317 -55.906361 20.878035 128 128 125
-110.29569 -55.861801 20.87216 96 108 95
-110.13551 -55.904873 20.898043 117 128 117
-109.90849 -55.895714 20.905531 100 109 99
-109.66917 -55.807766 20.964256 146 155 150
-109.45687 -55.9398 20.869362 135 137 131
-108.87605 -55.804771 20.845175 52 75 47
-108.70315 -55.838772 20.898628 96 101 96
-108.50998 -55.882038 20.872051 85 93 91
-108.33183 -55.829792 20.867863 68 84 76
-108.10417 -55.919327 20.914516 74 86 78
-107.88642 -55.942127 20.879732 97 108 97
-107.73539 -55.900764 20.917315 93 107 103
-107.3168 -55.854111 20.855997 65 77 73
-106.57503 -55.946758 20.842159 147 149 148
-111.88427 -55.654129 20.930351 154 149 144
-111.73262 -55.682995 20.947742 164 161 161
-111.59021 -55.705502 20.960241 143 131 135
-111.24407 -55.699566 20.932676 134 129 124
-111.08469 -55.666157 20.884129 167 164 160
-110.8888 -55.758335 20.960688 138 128 132
-110.70901 -55.728935 20.947727 167 157 160
-110.49911 -55.715622 20.937159 115 116 110
-110.28719 -55.688885 20.921524 117 123 115
-110.16396 -55.784523 20.978336 126 134 121
-109.9175 -55.62513 20.909657 107 113 106
-108.88139 -55.672104 20.88624 97 104 94
-108.70105 -55.678967 20.892183 163 156 161
-108.51524 -55.70837 20.922047 148 147 152
-108.29031 -55.693359 20.891335 95 103 101
-108.14816 -55.686943 20.895803 80 89 88
-107.89538 -55.671593 20.916258 84 98 91
-107.75339 -55.66214 20.887682 98 108 107
-107.56384 -55.662842 20.940426 154 149 159
-106.93076 -55.704624 20.855305 129 137 139
-112.3367 -55.41571 20.907089 124 131 120
-112.05731 -55.504875 20.923559 183 170 169
-111.95617 -55.522827 20.938753 175 165 160
-111.6572 -55.493729 20.951637 147 138 132
-111.50232 -55.495354 20.941702 152 148 149
-111.31506 -55.49741 20.931143 131 132 123
-111.17251 -55.526443 20.940943 111 105 103
-110.47497 -55.539894 20.936878 166 160 161
-110.30585 -55.474789 20.911932 153 151 152
-110.02626 -55.459663 20.814747 81 94 84
-109.83151 -55.473068 20.935493 104 116 102
-109.7092 -55.518158 20.962994 153 142 150
-108.84687 -55.51844 20.87751 169 165 168
-108.66431 -55.49078 20.88933 161 161 162
-108.52426 -55.491894 20.915901 155 154 157
-108.31126 -55.522648 20.946121 145 146 147
-108.10947 -55.525604 20.914993 144 145 148
-107.93516 -55.542107 20.892582 90 101 97
-107.67159 -55.45961 20.923204 106 114 114
-107.52159 -55.477898 20.879274 93 107 101
-107.29806 -55.568027 20.809752 127 137 137
-107.05797 -55.545334 20.942644 87 92 96
-112.87225 -55.210548 20.831291 210 200 208
-112.70817 -55.22937 20.877874 155 148 146
-112.45409 -55.246559 20.847717 140 132 130
-112.30294 -55.286388 20.898411 128 129 127
-112.12942 -55.321499 20.906572 177 168 166
-111.83697 -55.296387 20.985727 120 127 120
-111.73802 -55.356995 20.988119 140 140 131
-111.51364 -55.338932 20.921501 145 141 138
-111.27576 -55.296715 20.90744 140 144 134
-111.11804 -55.241787 20.864349 89 106 90
-110.47707 -55.310547 20.943726 151 147 143
-110.29633 -55.268887 20.884159 114 121 111
-110.18389 -55.281296 20.923859 99 110 97
-109.83104 -55.299522 20.948843 140 140 137
-108.66981 -55.319897 20.888836 148 152 151
-108.49869 -55.286903 20.916956 152 154 155
-108.35815 -55.289738 20.907015 145 147 148
-108.1535 -55.289436 20.960464 134 134 139
-107.80549 -55.251923 20.887274 144 140 142
-107.69318 -55.293522 20.92671 157 160 168
-107.52709 -55.332821 20.918648 125 132 137
-107.3965 -55.332054 20.998039 95 107 103
-113.049 -55.019913 20.837942 130 134 128
-112.84618 -55.091595 20.87808 196 184 185
-112.69887 -55.069855 20.911144 162 156 154
-112.54411 -55.119469 20.912903 162 156 154
-112.33123 -55.197636 20.986538 92 101 84
-112.10531 -55.114731 20.954332 151 150 140
-111.99781 -55.098839 20.969742 147 149 144
-111.42008 -55.055054 20.860855 86 98 84
-111.25981 -55.107426 20.892393 86 99 85
-111.13861 -55.084316 20.925919 91 105 93
-110.53154 -55.124207 20.953852 123 122 121
-110.28238 -55.049011 20.965372 104 109 102
-110.16104 -55.125076 20.865452 75 81 81
-109.67899 -55.044811 20.80077 74 93 89
-109.33327 -55.06131 20.806984 96 112 101
-108.65806 -55.053673 20.868271 114 123 118
-108.5371 -55.093441 20.882187 131 138 136
-108.31905 -55.090694 20.925434 147 150 150
-108.10735 -55.049416 20.914433 149 151 152
-107.88387 -55.110458 20.909624 145 149 152
-107.7895 -55.198696 20.894773 150 148 151
-107.48326 -55.098495 20.897217 106 107 113
-113.07435 -54.894573 20.824738 169 167 161
-112.88867 -54.900276 20.866362 179 173 174
-112.73249 -54.901955 20.913406 159 154 154
-112.46078 -54.840168 20.810366 78 89 75
-111.45034 -54.880829 20.900726 96 108 99
-111.28338 -54.909428 20.91367 89 101 90
-111.14147 -54.889565 20.944944 98 109 99
-110.85034 -54.851189 20.95928 75 81 81
-110.67633 -54.840237 20.945902 137 140 141
-110.51015 -54.911507 20.911446 115 117 114
-110.20608 -54.987286 20.926247 142 139 131
-110.11909 -54.931515 20.885801 137 142 142
-109.91398 -54.927227 20.864384 117 121 125
-109.69949 -54.904991 20.923519 104 112 110
-109.5103 -54.894062 20.905752 101 102 97
-108.87019 -54.945656 20.830666 111 117 117
-108.67062 -54.897869 20.882881 154 156 161
-108.53313 -54.899883 20.887604 140 146 149
-108.26462 -54.927853 20.917522 145 149 149
-108.10871 -54.910488 20.935976 154 155 156
-107.9461 -54.939342 20.94916 152 152 157
-107.64758 -54.863785 20.893431 147 144 150
-107.48608 -54.919395 20.891548 153 153 163
-107.28947 -54.921135 20.811632 156 157 167
-107.13973 -54.855373 20.881165 46 63 45
-113.30544 -54.667595 20.855516 148 152 149
-113.09341 -54.728954 20.856564 141 147 141
-112.90152 -54.706753 20.840744 122 131 125
-112.6749 -54.707886 20.89328 136 138 131
-112.53505 -54.688137 20.877102 145 147 139
-111.45198 -54.698414 20.920967 90 103 92
-111.30107 -54.7076 20.903545 87 98 88
-111.07459 -54.694088 20.941233 91 99 89
-110.91783 -54.712395 20.919559 96 101 94
-110.7125 -54.758595 20.959486 101 108 105
-110.13291 -54.611473 20.820318 49 61 49
-109.70864 -54.638531 20.906031 137 138 139
-109.51423 -54.683468 20.874371 105 110 105
-109.37967 -54.689678 20.829847 100 108 102
-108.6921 -54.73233 20.901297 166 165 172
-108.50826 -54.73085 20.882402 145 151 157
-108.29329 -54.722099 20.845285 133 139 142
-108.10523 -54.723721 20.867268 149 153 154
-107.87357 -54.750847 20.921455 172 162 167
-107.72998 -54.716759 20.89307 183 175 184
-107.49577 -54.716 20.869047 171 168 177
-113.61661 -54.40168 20.859589 80 99 80
-113.22986 -54.501732 20.866768 86 94 83
-113.12079 -54.574036 20.881882 127 141 134
-112.89871 -54.537231 20.848886 89 104 90
-112.65922 -54.560696 20.883589 136 138 134
-112.48476 -54.483894 20.90962 134 139 132
-112.2912 -54.437248 20.914442 108 119 109
-112.0461 -54.427315 20.898144 122 133 125
-111.51488 -54.498257 20.958252 88 106 92
-111.30611 -54.515404 20.930208 91 102 91
-111.18301 -54.512192 20.942278 99 108 99
-110.10901 -54.467133 20.967344 87 98 85
-109.84814 -54.476212 20.8909 121 120 119
-109.73306 -54.525558 20.875227 113 116 116
-109.48459 -54.54792 20.891083 109 119 114
-109.32491 -54.509079 20.966591 150 149 151
-108.44139 -54.427605 20.863419 102 110 107
-108.29485 -54.46431 20.876104 120 128 130
-108.15732 -54.547764 20.823811 132 136 144
-107.38176 -54.441227 20.807766 121 133 126
-114.03662 -54.245819 20.82205 186 180 182
-113.89771 -54.289196 20.860739 157 156 148
-113.70701 -54.261913 20.877043 128 131 125
-113.55611 -54.271088 20.849569 163 172 166
-112.83618 -54.211132 20.812733 76 90 79
-112.71064 -54.225891 20.84659 52 73 56
-112.51864 -54.298634 20.88932 139 141 138
-112.32869 -54.306171 20.912615 128 132 128
-112.07649 -54.251171 20.924 98 103 97
-111.91621 -54.219055 20.964642 107 116 108
-111.71979 -54.32972 20.98267 81 98 85
-111.41296 -54.38937 20.964962 117 132 120
-111.2802 -54.29604 20.919579 93 103 92
-111.18528 -54.313221 20.912405 87 95 81
-110.22291 -54.290939 20.935375 118 129 117
-110.11625 -54.330193 20.910767 150 151 151
-109.88603 -54.338608 20.885715 163 154 157
-109.79114 -54.352047 20.873825 149 154 160
-109.4494 -54.294636 20.918674 123 131 129
-109.15469 -54.27087 20.991573 123 133 132
-108.83796 -54.289124 20.882044 145 145 143
-108.6798 -54.291962 20.86788 137 142 142
-108.49477 -54.295147 20.898289 152 153 157
-108.31129 -54.310432 20.922686 139 142 150
-108.12636 -54.311447 20.833187 108 114 119
-114.06137 -54.101986 20.893589 184 178 174
-113.88686 -54.097103 20.892403 184 180 179
-113.69785 -54.087341 20.913374 172 168 167
-113.55909 -54.102196 20.866165 156 158 152
-113.32726 -54.028595 20.874456 128 139 130
-112.83313 -54.085892 20.89992 105 117 108
-112.70946 -54.070423 20.905968 109 117 107
-112.48151 -54.08551 20.881657 128 135 129
-112.32489 -54.111916 20.911757 145 140 136
-112.11163 -54.089046 20.937197 120 121 116
-111.88049 -54.159855 20.951691 105 113 103
-111.75678 -54.186291 20.938038 86 90 85
-111.45906 -54.099052 20.996834 94 103 96
-111.29185 -54.111572 20.937874 87 98 89
-111.18038 -54.175297 20.966585 78 88 77
-110.26396 -54.08543 20.901789 105 115 114
-110.11945 -54.084454 20.882013 112 117 116
-109.98271 -54.129341 20.865051 157 158 161
-108.89743 -54.119534 20.911488 165 158 161
-108.67567 -54.137772 20.882557 161 163 165
-108.49907 -54.106339 20.913691 174 170 180
-108.32105 -54.11665 20.909922 152 154 166
-108.15756 -54.120289 20.894423 96 106 105
-114.04826 -53.917847 20.862799 171 167 165
-113.87252 -53.901455 20.858162 169 169 166
-113.70753 -53.910999 20.876822 158 159 157
-113.52243 -53.900211 20.872234 136 142 137
-113.32066 -53.863224 20.878906 135 141 137
-113.05949 -53.86488 20.898378 118 127 119
-112.89194 -53.906948 20.910799 153 152 146
-112.68801 -53.931114 20.946352 135 135 129
-112.53956 -53.921234 20.905882 112 115 108
-112.28715 -53.903164 20.926542 106 109 104
-112.10902 -53.915665 20.931669 123 122 116
-110.2418 -53.916107 20.894817 124 128 131
-110.0822 -53.947842 20.960281 106 116 108
-109.68027 -53.834293 20.85515 68 76 64
-109.43336 -53.852135 20.911648 112 119 119
-109.31419 -53.934692 20.90559 113 117 115
-109.11979 -53.987434 20.859283 176 176 174
-108.61246 -53.981831 20.849215 141 137 136
-108.46658 -53.92915 20.934631 176 171 181
-108.30802 -53.899269 20.889446 172 173 181
-108.07198 -53.985157 20.899672 87 103 94
-114.05701 -53.753441 20.830984 154 158 150
-113.86521 -53.72451 20.86754 157 159 151
-113.70648 -53.739624 20.872072 152 158 149
-113.47913 -53.705124 20.863762 129 132 127
-113.32534 -53.681229 20.884869 142 141 137
-113.09141 -53.697414 20.89522 133 140 130
-112.90006 -53.710732 20.904127 150 150 145
-112.73214 -53.712749 20.893873 136 138 129
-112.48943 -53.726307 20.919107 127 131 124
-112.24796 -53.766762 20.927313 184 189 189
-112.08829 -53.755402 20.838036 95 101 98
-111.42065 -53.65707 20.894598 100 97 92
-110.61499 -53.63287 20.859171 131 142 128
-110.46381 -53.638409 20.884718 105 119 112
-110.30059 -53.68364 20.884134 108 120 114
-110.10928 -53.667557 20.869537 106 117 108
-109.90516 -53.666527 20.903982 75 88 78
-109.71864 -53.736057 20.960295 80 91 81
-109.53508 -53.774738 20.947893 122 122 120
-109.30373 -53.727989 20.869074 103 111 105
-109.007 -53.62912 20.872889 103 118 111
-108.35474 -53.762581 20.842159 141 138 149
-108.0994 -53.788162 20.805067 168 169 181
-113.84205 -53.448666 20.834995 106 123 110
-113.6483 -53.515282 20.865503 166 168 162
-113.50111 -53.534737 20.84136 160 157 153
-113.28964 -53.496868 20.883581 113 121 112
-113.1222 -53.474678 20.894676 132 136 129
-112.87404 -53.504223 20.887974 141 142 137
-112.76533 -53.465038 20.928442 143 138 135
-112.34989 -53.419643 20.92433 83 85 85
-111.58916 -53.445206 20.930748 86 98 89
-110.70239 -53.45977 20.915829 94 108 100
-110.49962 -53.517815 20.908028 96 109 101
-110.3098 -53.49625 20.898935 101 114 103
-110.10367 -53.494286 20.894445 114 123 115
-109.93475 -53.497597 20.921274 128 133 124
-109.70126 -53.493195 20.928574 147 144 141
-109.52401 -53.506207 20.940786 86 86 86
-109.27607 -53.530708 20.893108 141 150 149
-109.05789 -53.44416 20.861095 131 139 134
-108.93437 -53.544975 20.816776 111 117 120
-108.77699 -53.44046 20.845152 140 150 152
-113.85311 -53.255783 20.918056 154 150 146
-113.70004 -53.295971 20.88703 149 148 140
-113.50115 -53.285183 20.869194 125 129 121
-113.25139 -53.298283 20.922369 146 146 142
-113.11674 -53.317844 20.900848 144 146 142
-112.91951 -53.331745 20.911003 113 115 112
-112.78264 -53.219856 20.92646 69 86 68
-112.34735 -53.259514 20.986229 98 95 98
-112.06724 -53.235992 20.952232 70 82 73
-111.96687 -53.246796 20.918646 97 104 99
-111.66284 -53.298317 20.871212 67 86 73
-111.46627 -53.27002 20.882267 75 90 78
-111.34444 -53.261002 20.898382 71 89 74
-111.06422 -53.252163 20.9545 93 105 98
-110.98797 -53.213474 20.906721 86 102 92
-110.6726 -53.310528 20.925058 90 106 98
-110.47711 -53.329899 20.895782 90 106 96
-110.28308 -53.284573 20.914362 102 114 104
-110.1031 -53.330414 20.925564 118 124 117
-109.93143 -53.353146 20.925573 159 159 154
-109.68147 -53.284863 20.942711 130 133 130
-109.52639 -53.266911 20.828287 255 246 255
-109.30289 -53.266548 20.84642 151 154 156
-109.13778 -53.335518 20.923403 168 165 170
-114.07359 -53.037144 20.886103 168 166 164
-113.9269 -53.106434 20.909431 185 179 179
-113.7001 -53.126122 20.929052 135 137 129
-113.50927 -53.092049 20.889706 124 129 123
-113.30389 -53.090664 20.903204 132 135 131
-113.10916 -53.099888 20.89904 148 152 145
-112.87872 -53.191704 20.930817 106 119 110
-112.05143 -53.086666 20.894018 80 89 82
-111.87035 -53.107746 20.948349 86 93 87
-111.70689 -53.108269 20.911907 68 84 72
-111.48965 -53.114029 20.916943 74 89 79
-111.28247 -53.118713 20.93021 76 91 81
-111.1088 -53.073097 20.903933 97 103 104
-110.90144 -53.065346 20.995241 128 141 132
-110.6566 -53.091621 20.82806 122 134 123
-110.48376 -53.100292 20.893904 88 104 95
-110.29089 -53.099934 20.901302 93 108 96
-110.10111 -53.056301 20.919121 120 128 119
-109.91161 -53.056225 20.912863 120 128 122
-109.67541 -53.06686 20.889835 130 135 130
-109.56225 -53.099468 20.895281 139 143 141
-109.38606 -53.187553 20.999065 131 138 141
-114.21683 -52.844452 20.994596 187 186 181
-114.08907 -52.876083 20.903685 180 175 171
-113.89789 -52.890274 20.907789 162 163 161
-113.65456 -52.888123 20.93362 137 141 139
-113.49625 -52.910629 20.914095 129 134 131
-113.3202 -52.909294 20.89554 131 137 134
-113.10354 -52.905041 20.910587 112 126 118
-112.98964 -52.848511 20.991756 107 108 105
-112.03131 -52.976551 20.924559 86 95 92
-111.88778 -52.940056 20.876211 81 90 86
-111.69925 -52.909073 20.922415 78 91 83
-111.5202 -52.918446 20.906034 92 99 94
-111.24929 -52.866241 20.933882 104 113 110
-111.07684 -52.884106 20.922585 93 96 98
-110.96543 -52.929203 20.978979 125 127 132
-110.46918 -52.916332 20.906933 107 116 109
-110.31664 -52.897236 20.894245 107 118 111
-110.09526 -52.937786 20.902872 119 127 118
-109.88672 -52.937794 20.899208 132 138 134
-109.71383 -52.943047 20.913921 138 143 139
-109.57467 -52.974091 20.900631 159 162 160
-114.06729 -52.727547 20.928516 180 177 176
-113.9072 -52.707626 20.899544 159 159 159
-113.69376 -52.667168 20.911278 158 159 162
-113.51994 -52.701672 20.910553 128 134 132
-113.25848 -52.692055 20.888359 120 129 123
-113.14809 -52.7211 20.894911 141 147 142
-112.91906 -52.683147 20.937325 83 94 86
-112.69806 -52.618317 20.897774 125 137 135
-112.55384 -52.605877 20.946651 102 113 107
-112.35616 -52.635735 20.999594 62 79 69
-111.87767 -52.729149 20.907238 79 88 86
-111.66898 -52.69907 20.90102 75 82 81
-111.48933 -52.705231 20.895813 88 101 93
-111.31638 -52.676891 20.886093 94 104 98
-111.09184 -52.72049 20.882353 100 114 108
-110.89534 -52.674374 20.887846 94 105 99
-110.76424 -52.664547 20.884651 109 117 113
-110.46349 -52.672379 20.923378 121 131 126
-110.33039 -52.715954 20.896025 111 119 114
-110.10392 -52.655037 20.861597 124 129 122
-109.93089 -52.636524 20.83695 125 129 129
-114.01514 -52.52108 20.910362 228 214 224
-113.84952 -52.56633 20.882595 157 155 156
-113.70008 -52.550076 20.870058 162 163 165
-113.52419 -52.544949 20.868725 135 142 136
-113.28532 -52.525021 20.894222 140 145 141
-113.13742 -52.471264 20.911123 153 158 155
-112.8797 -52.487309 20.940729 119 128 128
-112.70257 -52.483967 20.903898 101 113 107
-112.51256 -52.501568 20.888889 112 123 120
-112.32845 -52.586662 20.994776 79 98 85
-111.65839 -52.476562 20.901373 86 102 93
-111.49078 -52.499748 20.898775 86 99 90
-111.29059 -52.514629 20.901546 94 108 102
-111.11163 -52.503231 20.906326 104 118 111
-110.9362 -52.539474 20.881918 89 103 96
-110.72085 -52.486992 20.868624 107 119 111
-110.47536 -52.484211 20.900295 115 124 121
-110.29018 -52.486023 20.894955 112 121 113
-110.08939 -52.497425 20.912924 136 139 132
-109.9456 -52.523697 20.887342 133 136 134
-113.62366 -52.398079 20.882196 161 159 147
-113.47758 -52.223209 20.834175 125 130 126
-113.3139 -52.29287 20.904242 171 172 171
-113.09884 -52.308159 20.900146 152 157 152
-112.90788 -52.311691 20.906767 128 139 132
-112.70945 -52.284328 20.901289 113 121 116
-112.54454 -52.302624 20.884743 106 116 111
-112.09937 -52.23521 20.961498 112 136 122
-111.83031 -52.252846 20.948017 67 85 76
-111.74464 -52.320255 20.934002 86 97 89
-111.46869 -52.306229 20.919703 96 108 102
-111.34871 -52.290417 20.894728 120 125 123
-111.06364 -52.316399 20.901236 105 114 109
-110.89254 -52.332153 20.882561 135 150 142
-110.67205 -52.310577 20.902779 108 120 114
-110.50556 -52.314991 20.902494 114 122 115
-110.30356 -52.328159 20.931549 112 119 110
-110.07446 -52.336185 20.94346 144 146 142
-109.92359 -52.297504 20.905323 128 133 130
-113.63516 -52.054367 20.862171 184 180 182
-113.49261 -52.05983 20.854416 154 154 150
-113.2991 -52.08345 20.901192 148 151 148
-113.13058 -52.09425 20.854504 160 163 158
-112.87158 -52.114159 20.900522 115 125 115
-112.71785 -52.099297 20.91646 111 122 113
-112.54574 -52.120026 20.912493 112 125 120
-111.87637 -52.116734 20.942272 82 96 87
-111.72334 -52.129421 20.929436 94 102 95
-111.48854 -52.09861 20.899014 91 106 97
-111.30383 -52.10561 20.88201 108 111 109
-111.1144 -52.081409 20.882111 114 119 117
-110.86929 -52.076138 20.868319 110 119 111
-110.68439 -52.092934 20.874779 117 127 120
-110.49746 -52.101421 20.890749 133 137 131
-110.30418 -52.081615 20.897432 142 143 138
-110.09525 -52.06773 20.899466 127 133 127
-109.89478 -52.106213 20.899 141 144 139
-109.76869 -52.063477 20.931778 150 157 153
-113.64622 -51.858398 20.83135 173 168 169
-113.50141 -51.896084 20.890726 170 169 167
-113.31149 -51.891659 20.888716 147 152 148
-113.10423 -51.908272 20.889034 146 153 148
-112.8513 -51.892319 20.906799 126 136 125
-112.71332 -51.898975 20.917908 126 135 124
-112.57912 -51.909569 20.927347 128 138 131
-112.08566 -51.845783 20.988758 205 210 216
-111.80672 -51.943699 20.966219 96 104 97
-111.70445 -51.944336 20.933302 96 104 97
-111.49064 -51.905663 20.897707 89 104 94
-111.2992 -51.870098 20.890152 97 108 99
-111.07907 -51.862411 20.88912 119 126 119
-110.9026 -51.900223 20.879757 121 129 123
-110.7145 -51.917671 20.869684 110 121 111
-110.49438 -51.938396 20.865772 136 142 137
-110.27345 -51.911339 20.901239 143 147 142
-110.10017 -51.894882 20.8773 156 157 156
-109.95003 -51.921684 20.89142 156 152 154
-113.8168 -51.683979 20.826664 217 214 210
-113.68465 -51.723267 20.851248 179 171 174
-113.50231 -51.702946 20.871923 178 171 172
-113.3171 -51.707703 20.896227 155 157 154
-113.16646 -51.73217 20.908295 157 169 165
-112.8288 -51.672657 20.896387 158 165 163
-112.72953 -51.705517 20.912136 143 146 141
-112.37222 -51.640606 20.858212 133 140 137
-111.64906 -51.789886 20.908503 110 121 112
-111.45875 -51.737732 20.90679 95 107 94
-111.30717 -51.723141 20.915113 107 117 107
-111.07578 -51.698437 20.905161 132 138 133
-110.93874 -51.714233 20.867102 126 129 125
-110.70386 -51.709747 20.937117 102 117 103
-110.49339 -51.714497 20.847458 104 119 103
-110.30359 -51.746979 20.888224 124 133 124
-110.05173 -51.716705 20.919584 167 158 160
-109.9155 -51.755981 20.930979 164 160 163
-113.46041 -51.585114 20.872606 184 169 172
-113.32009 -51.567169 20.891754 166 166 167
-113.09202 -51.47295 20.882963 215 218 215
-112.8373 -51.509747 20.915623 159 163 159
-112.73707 -51.472397 20.908449 165 165 162
-112.50047 -51.466129 20.918789 126 129 129
-112.2994 -51.471077 20.906693 118 125 122
-112.11451 -51.476006 20.902149 110 121 116
-111.90583 -51.492207 20.893227 126 137 131
-111.75887 -51.485416 20.870539 121 128 117
-111.45155 -51.532547 20.971769 116 127 119
-111.2852 -51.501747 20.933641 131 142 134
-111.1059 -51.507092 20.906044 121 129 125
-110.9836 -51.480175 20.909714 81 96 86
-110.0349 -51.499718 20.917572 165 155 163
-113.23057 -51.257519 20.828484 182 182 178
-113.11015 -51.280479 20.833645 164 163 164
-112.8694 -51.262733 20.861036 138 143 138
-112.69509 -51.309914 20.888367 142 148 144
-112.4833 -51.306366 20.885641 134 141 137
-112.31024 -51.29493 20.908707 115 125 120
-112.10541 -51.314148 20.94463 120 127 123
-111.9165 -51.327869 20.932652 122 128 125
-111.71078 -51.269966 20.891296 132 141 134
-111.54554 -51.249535 20.899336 136 144 135
-111.27386 -51.308846 20.962954 139 145 141
-111.07503 -51.296047 20.894808 136 140 137
-110.96579 -51.282043 20.896824 141 144 142
-113.21485 -51.028324 20.808308 172 176 170
-113.05079 -51.096264 20.856359 143 146 140
-112.87403 -51.08276 20.886703 147 151 147
-112.71288 -51.107914 20.896837 135 141 133
-112.5019 -51.100658 20.902569 129 138 132
-112.31394 -51.114243 20.903528 133 141 136
-112.10287 -51.074902 20.917532 146 148 144
-111.88176 -51.073597 20.912153 126 132 129
-111.70764 -51.085274 20.906363 131 136 133
-111.50038 -51.086399 20.908924 139 143 139
-111.30391 -51.068817 20.918983 159 158 154
-111.09694 -51.094612 20.896544 154 155 151
-110.95999 -51.123764 20.877033 160 156 155
-113.21371 -50.82473 20.833937 155 159 149
-113.07086 -50.875191 20.892387 164 165 158
-112.89496 -50.929646 20.915579 161 159 156
-112.6853 -50.907097 20.902649 143 145 142
-112.5151 -50.890331 20.885235 137 145 141
-112.29587 -50.918716 20.883629 123 135 131
-112.08936 -50.907986 20.895794 142 148 145
-111.90965 -50.900791 20.918062 136 140 137
-111.70175 -50.906281 20.912994 122 129 127
-111.52129 -50.89146 20.884953 114 123 122
-111.30041 -50.91243 20.898268 158 159 156
-111.12494 -50.922325 20.909388 153 157 152
-110.96014 -50.962238 20.895958 148 149 142
-113.06202 -50.733055 20.894819 183 182 179
-112.8787 -50.728249 20.868896 189 182 182
-112.68787 -50.726349 20.888151 163 164 162
-112.53809 -50.748856 20.882833 145 155 149
-112.26639 -50.70385 20.908144 137 146 137
-112.07763 -50.682304 20.909512 160 164 159
-111.91512 -50.692429 20.935078 170 168 165
-111.68527 -50.695385 20.918465 141 143 140
-111.54028 -50.690582 20.915583 133 138 133
-111.34064 -50.737057 20.846601 108 115 110
-112.08572 -50.533962 20.885473 170 171 167
-111.89406 -50.527122 20.91283 169 167 166
-111.69264 -50.529926 20.907049 166 165 166
-111.52317 -50.522961 20.874727 154 157 154
-112.24548 -50.354916 20.807102 130 139 134
-112.02798 -50.323753 20.839336 90 79 75
-111.9035 -50.347992 20.864117 151 149 147
-111.67664 -50.39938 20.897604 166 161 164
-110.78062 -58.827507 21.027494 204 198 208
-109.8597 -58.668892 21.052471 151 154 147
-109.71866 -58.640724 21.006517 170 168 162
-109.59969 -58.622215 21.010113 184 177 183
-110.24375 -58.428532 21.012199 153 166 156
-110.09076 -58.455521 21.082901 141 147 142
-109.91074 -58.479279 21.099854 162 161 159
-109.69351 -58.49905 21.075047 193 190 193
-109.55782 -58.470039 21.027344 160 159 160
-109.36443 -58.41925 21.073164 161 160 156
-111.6628 -58.279346 21.015471 153 165 162
-110.26372 -58.258038 21.104706 159 155 149
-110.11906 -58.360085 21.111042 139 142 141
-109.90572 -58.378754 21.164276 155 155 162
-109.69097 -58.314507 21.131145 175 170 175
-109.50291 -58.282459 21.051632 155 154 157
-109.29349 -58.276802 21.066977 139 143 135
-111.68952 -58.111511 21.113369 154 160 166
-111.48501 -58.079098 21.089752 147 152 153
-111.35281 -58.104836 21.048536 105 109 105
-110.33672 -58.078136 21.130793 194 187 188
-109.69765 -58.087139 21.184801 160 159 158
-109.47621 -58.103569 21.154497 171 170 176
-109.29396 -58.075233 21.11268 165 164 170
-109.11241 -58.152683 21.024368 123 133 127
-112.4873 -57.865582 21.16996 155 157 149
-111.48714 -57.86013 21.126314 146 151 162
-110.48761 -57.867851 21.071049 160 167 162
-110.35119 -57.979164 21.041155 166 168 161
-109.49042 -57.919777 21.173141 160 156 162
-109.35184 -57.926441 21.081285 170 164 172
-112.43953 -57.641918 21.097803 156 161 159
-112.34467 -57.632671 21.040735 117 132 124
-112.07699 -57.634941 21.053516 122 135 128
-111.45521 -57.686245 21.087488 150 157 160
-111.38651 -57.752987 21.083839 129 135 138
-110.51222 -57.71336 21.084564 154 154 149
-109.43909 -57.778023 21.161898 142 135 132
-109.31596 -57.672314 21.084955 141 144 138
-109.17245 -57.608067 21.068127 122 129 121
-112.26868 -57.514614 21.11042 128 142 136
-112.08389 -57.506218 21.115442 114 127 120
-111.90913 -57.439835 21.110664 125 138 135
-111.72335 -57.479939 21.093723 120 130 130
-111.53656 -57.534954 21.128347 130 139 139
-110.60957 -57.423782 21.173031 98 106 106
-110.51656 -57.50341 21.124069 128 133 127
-109.43842 -57.557217 21.164555 114 127 128
-109.29112 -57.491962 21.153006 142 148 144
-109.11005 -57.48254 21.091928 138 141 136
-108.97279 -57.521702 21.012236 151 143 136
-112.34742 -57.334545 21.048634 95 116 101
-112.06613 -57.340168 21.104757 103 118 110
-111.90484 -57.336586 21.104717 115 128 126
-110.53623 -57.293377 21.141232 163 167 161
-109.66909 -57.258339 21.156324 106 115 97
-109.51639 -57.277573 21.154272 138 142 133
-109.04881 -57.335899 21.112324 138 138 132
-108.90865 -57.322086 21.049988 146 145 142
-112.36124 -57.060493 21.030661 121 136 139
-110.48719 -57.079132 21.114302 163 167 161
-110.327 -57.035789 21.061869 154 158 149
-110.06219 -57.025059 21.066013 135 147 134
-109.89552 -57.056976 21.051769 118 127 113
-109.70858 -57.093292 21.119967 101 110 96
-109.45694 -57.130089 21.16354 160 157 152
-109.20926 -57.000828 21.135139 218 209 214
-109.08838 -57.118267 21.10412 164 164 166
-108.92715 -57.139942 21.081926 91 99 97
-112.54047 -56.991539 21.038254 139 144 148
-110.47186 -56.878922 21.106142 142 148 141
-110.27973 -56.891911 21.112892 110 120 109
-110.11443 -56.885189 21.107035 116 125 114
-109.8935 -56.901955 21.09989 107 118 105
-109.73775 -56.906048 21.145134 122 134 121
-109.49404 -56.810074 21.102982 134 140 131
-109.29582 -56.945572 21.135019 133 135 131
-109.10649 -56.911987 21.073574 145 147 148
-108.90665 -56.986786 21.183109 78 89 85
-110.46693 -56.7575 21.121044 129 137 132
-110.28866 -56.735588 21.106319 111 122 113
-110.10417 -56.716503 21.114456 116 128 118
-109.92448 -56.718307 21.132595 113 124 113
-109.66943 -56.621044 21.086775 125 134 128
-109.51173 -56.696957 21.102715 129 137 131
-109.31458 -56.711117 21.126532 161 158 161
-109.14254 -56.770061 21.056219 164 156 164
-110.04507 -56.556099 21.148567 141 148 145
-109.88385 -56.530651 21.113214 153 154 153
-109.71589 -56.46917 21.101261 151 151 149
-109.49805 -56.516602 21.112223 144 149 148
-109.35574 -56.531929 21.091475 157 165 160
-110.17483 -56.217644 21.075497 72 86 69
-109.90026 -56.341213 21.172787 96 104 96
-109.68196 -56.365044 21.14669 154 153 156
-110.72369 -56.055885 21.169071 106 111 107
-110.26102 -56.085445 21.036633 190 195 191
-111.80438 -55.853111 21.161524 92 104 104
-111.65968 -55.850605 21.123028 138 138 133
-111.53358 -55.886791 21.060753 195 186 187
-111.3815 -55.84481 21.035374 95 108 99
-111.01048 -55.806587 21.015467 126 133 125
-110.90277 -55.921234 21.16622 81 94 85
-110.74924 -55.826694 21.000032 140 141 139
-110.56033 -55.803478 21.004337 150 156 150
-110.29092 -55.85878 21.074232 129 133 125
-110.09818 -55.858288 21.00025 104 114 105
-108.72034 -55.838215 21.040272 181 181 190
-107.90096 -55.81229 21.004547 91 117 106
-107.63963 -55.904243 21.119957 62 79 60
-112.00664 -55.702488 21.07679 180 172 175
-111.87179 -55.683666 21.10874 175 167 167
-111.70937 -55.7033 21.138636 153 148 147
-111.50647 -55.676937 21.117147 106 107 104
-111.27526 -55.678623 21.111866 161 157 154
-111.08516 -55.676517 21.13615 156 153 151
-110.90627 -55.682423 21.131121 171 159 160
-110.70964 -55.677658 21.114038 139 136 135
-110.49683 -55.719799 21.117558 122 125 119
-110.29018 -55.729855 21.050594 93 107 96
-110.0381 -55.731644 21.059011 94 104 92
-109.90373 -55.690002 21.136372 168 169 165
-108.6668 -55.685986 21.082035 174 170 177
-108.54076 -55.663868 21.099962 78 89 82
-108.25911 -55.669884 21.080984 89 100 97
-108.12455 -55.706837 21.129137 94 108 96
-107.8995 -55.657665 21.08639 96 105 105
-107.64217 -55.741989 21.13876 65 79 64
-107.51852 -55.723122 21.032845 70 84 69
-112.07128 -55.454559 21.110533 173 162 162
-111.91221 -55.527431 21.118477 164 160 156
-111.70142 -55.489006 21.13254 158 156 151
-111.5217 -55.509007 21.119284 152 148 143
-111.26657 -55.474182 21.112059 131 130 125
-111.15639 -55.523621 21.138357 159 154 153
-110.86822 -55.561573 21.143419 157 147 149
-110.76777 -55.565014 21.120533 118 114 113
-110.49567 -55.479626 21.116219 132 131 127
-110.35109 -55.495739 21.065762 130 131 127
-109.85139 -55.418518 21.011883 86 98 82
-109.77239 -55.45649 21.023836 122 132 121
-108.83932 -55.485397 21.101097 139 128 125
-108.66249 -55.511475 21.097065 184 175 183
-108.50091 -55.494556 21.088703 148 149 151
-108.2999 -55.479332 21.074842 154 153 155
-108.11875 -55.47942 21.130217 117 123 124
-107.92785 -55.483055 21.113287 98 106 106
-107.6729 -55.480038 21.084812 120 125 124
-107.53031 -55.467812 21.065727 147 139 153
-112.24284 -55.256954 21.052324 172 164 165
-112.07498 -55.287251 21.112175 175 166 160
-111.88184 -55.31226 21.130905 142 143 135
-111.73228 -55.278522 21.14259 148 146 141
-111.53281 -55.310749 21.123848 101 104 99
-111.273 -55.321503 21.129738 138 140 131
-111.17173 -55.334991 21.184689 153 153 143
-110.51111 -55.314453 21.13179 140 135 133
-110.36584 -55.380489 21.033806 166 162 167
-110.04992 -55.28241 21.068518 98 112 99
-109.92548 -55.272671 21.121346 96 106 92
-108.62437 -55.313644 21.109676 176 172 178
-108.50286 -55.316231 21.114725 176 172 175
-108.29876 -55.299332 21.103123 164 163 165
-108.11608 -55.313099 21.151131 175 171 177
-107.88479 -55.305138 21.142406 130 133 138
-107.70848 -55.291607 21.090652 126 131 135
-107.53222 -55.268951 21.043917 108 117 117
-107.32672 -55.295776 21.086639 127 129 128
-112.80739 -55.033497 21.052902 231 216 218
-112.70329 -55.080242 21.085392 159 154 152
-112.48306 -55.068802 21.090725 152 149 148
-112.30334 -55.076893 21.132891 135 132 128
-112.09792 -55.103954 21.131384 134 132 123
-111.91726 -55.158302 21.153719 159 157 151
-111.65781 -55.141094 21.181078 140 141 133
-111.53352 -55.123924 21.158768 170 167 158
-111.27428 -55.104839 21.123741 102 111 100
-111.10712 -55.059395 21.103476 92 104 91
-110.64051 -55.044041 21.147547 139 140 137
-110.50445 -55.065609 21.111153 147 148 143
-110.30452 -55.109352 21.06724 105 111 103
-110.14133 -55.139603 21.094812 119 121 113
-108.44082 -55.12447 21.111012 163 165 165
-108.3121 -55.095303 21.107943 159 161 161
-108.11535 -55.065624 21.143211 166 163 168
-107.88728 -55.112659 21.117908 172 171 178
-107.7178 -55.14484 21.121748 157 156 165
-107.52463 -55.163742 21.091497 152 156 161
-112.8483 -54.890629 21.039526 190 180 189
-112.69064 -54.896225 21.096407 165 159 157
-112.51506 -54.980507 21.16777 167 164 156
-112.28094 -54.983131 21.198046 192 179 176
-112.07813 -54.912636 21.160727 127 129 122
-111.46659 -54.896091 21.101023 161 166 163
-111.28166 -54.874775 21.109266 91 101 90
-111.0794 -54.892681 21.105024 105 115 105
-110.91723 -54.853893 21.130344 120 124 121
-110.71741 -54.852955 21.120197 135 133 134
-110.47874 -54.900928 21.142994 130 129 126
-110.32117 -54.917877 21.131742 105 109 104
-110.07992 -54.882671 21.122507 133 130 129
-109.90228 -54.869167 21.097933 147 149 149
-109.70975 -54.885078 21.119795 107 115 105
-108.72475 -54.830631 21.04998 106 118 114
-108.49849 -54.883987 21.096542 142 152 150
-108.28036 -54.933025 21.090662 154 156 155
-108.10451 -54.897694 21.118877 161 159 162
-107.92439 -54.926304 21.090786 165 163 169
-107.7197 -54.890507 21.138124 149 148 155
-107.54331 -54.896626 21.091869 135 139 146
-112.66028 -54.714535 21.129599 149 150 143
-112.53749 -54.664738 21.125977 149 151 143
-112.38026 -54.62862 21.169779 122 126 123
-111.48983 -54.682629 21.136003 105 115 106
-111.27253 -54.715939 21.128263 108 115 105
-111.09725 -54.712101 21.124014 95 104 94
-110.90419 -54.717316 21.107838 108 113 108
-110.768 -54.738895 21.156511 139 141 137
-110.52587 -54.771862 21.163336 153 149 149
-110.37524 -54.709721 21.184816 136 136 132
-110.10081 -54.705521 21.124947 153 148 150
-109.87814 -54.688614 21.137041 129 126 127
-109.74932 -54.703011 21.106106 156 152 154
-109.37785 -54.602131 21.068161 185 190 196
-108.65675 -54.751026 21.053925 140 145 152
-108.23797 -54.77919 21.014082 128 131 132
-108.12728 -54.7813 21.102142 150 144 147
-107.89899 -54.731754 21.101078 187 179 190
-107.74426 -54.731461 21.077208 196 188 197
-112.63364 -54.557716 21.092413 154 155 149
-112.50024 -54.502117 21.108257 134 137 129
-112.30116 -54.469925 21.117781 120 128 118
-112.14313 -54.433071 21.111935 117 129 117
-111.73119 -54.444035 21.151758 92 104 98
-111.46958 -54.518826 21.129086 83 93 84
-111.31485 -54.508671 21.110172 112 119 108
-111.13234 -54.49823 21.1404 106 115 104
-110.22859 -54.463326 21.158558 156 159 151
-110.11582 -54.513996 21.106243 119 123 120
-109.90145 -54.500553 21.137196 115 117 117
-109.7047 -54.553562 21.08316 125 136 130
-109.45216 -54.508396 21.138342 157 159 154
-109.36774 -54.499962 21.032734 111 108 103
-113.81287 -54.202347 21.00374 55 66 52
-113.71739 -54.23526 21.04328 144 149 142
-112.44678 -54.31139 21.052759 129 133 124
-112.29532 -54.298828 21.125011 130 134 127
-112.11475 -54.307285 21.122316 108 116 107
-111.88615 -54.287979 21.102644 109 117 109
-111.73823 -54.290066 21.131413 112 118 107
-111.48759 -54.210541 21.133757 88 99 87
-111.29281 -54.323936 21.109928 102 112 102
-111.1193 -54.321537 21.151993 101 110 100
-110.97498 -54.237209 21.184307 126 130 124
-110.42204 -54.230934 21.132858 105 115 100
-110.13294 -54.383148 21.121651 123 127 121
-109.93302 -54.319363 21.082916 114 114 112
-108.4436 -54.244488 21.071747 167 167 179
-108.34814 -54.272396 21.052557 136 141 147
-113.8655 -54.071255 21.03986 171 170 168
-113.70427 -54.085709 21.050461 162 160 158
-113.54979 -54.07988 21.08452 169 178 171
-113.38555 -54.045437 21.039848 137 151 138
-113.00323 -54.007042 21.031609 110 127 117
-112.89171 -54.034672 21.012503 72 86 72
-112.7205 -54.051723 21.059513 119 127 119
-112.46045 -54.090191 21.037008 136 133 132
-112.29482 -54.111904 21.099751 151 146 141
-112.08536 -54.108185 21.090599 108 112 105
-111.91383 -54.130917 21.108105 96 106 95
-111.75281 -54.166069 21.164816 121 122 114
-111.47599 -54.132862 21.130949 108 116 107
-111.31834 -54.082859 21.139189 104 113 102
-111.11227 -54.096249 21.142166 105 112 102
-110.95904 -54.156708 21.186535 126 128 118
-110.29212 -54.047737 21.110348 122 133 131
-110.11465 -54.083412 21.127968 182 181 182
-109.1433 -54.051762 21.074783 160 158 154
-108.63818 -54.099609 21.052982 135 128 136
-108.47921 -54.108051 21.074984 171 169 180
-108.32285 -54.120708 21.040478 111 122 120
-113.89902 -53.958515 21.014202 182 182 183
-113.68806 -53.945766 21.070929 177 174 171
-113.56802 -53.919323 21.088495 144 149 142
-112.86054 -53.90136 21.069904 145 146 140
-112.70058 -53.896721 21.087618 134 135 128
-112.51138 -53.893253 21.13763 113 121 111
-112.32126 -53.86311 21.097807 107 111 107
-112.10405 -53.912594 21.130711 124 124 118
-111.96545 -53.819962 21.067606 177 173 165
-111.29256 -53.942459 21.11018 89 97 86
-111.14022 -53.916916 21.165165 109 115 103
-110.27032 -53.833805 21.086178 141 149 147
-110.15797 -53.925045 21.123705 132 137 136
-109.49741 -53.904934 21.153687 154 155 149
-108.60127 -53.893108 21.058935 63 63 65
-108.48568 -53.951801 21.081526 131 135 136
-108.34061 -53.877899 21.035988 129 137 141
-113.8278 -53.705128 21.028969 139 143 144
-113.30195 -53.731583 21.001163 151 140 136
-113.0506 -53.635643 21.090359 148 155 143
-112.86668 -53.689167 21.074524 146 148 140
-112.72946 -53.736862 21.118305 155 153 148
-112.49601 -53.743286 21.132763 119 123 117
-112.31607 -53.773605 21.137259 116 119 119
-112.08886 -53.771526 21.113129 90 90 87
-111.93251 -53.659164 21.174356 112 120 114
-111.49686 -53.683701 21.120714 77 83 83
-111.34058 -53.692848 21.081774 105 108 105
-110.62466 -53.60339 21.000559 120 135 132
-110.4554 -53.610798 21.056156 124 134 135
-110.31729 -53.675415 21.098289 130 137 138
-109.87267 -53.632816 21.056767 73 88 77
-109.68357 -53.654026 21.095554 93 98 94
-109.50661 -53.679302 21.110888 108 112 108
-109.3717 -53.689877 21.127884 86 101 96
-108.34846 -53.742931 21.042418 106 103 124
-113.78316 -53.419712 21.049879 104 109 105
-113.2699 -53.46954 21.068169 148 151 146
-113.10244 -53.498543 21.085691 123 132 123
-112.86436 -53.515705 21.067299 158 158 154
-112.74036 -53.510544 21.117588 164 162 158
-112.40714 -53.455048 21.141788 86 96 88
-112.30936 -53.505688 21.154448 106 106 109
-112.04556 -53.45351 21.144791 119 116 113
-111.86591 -53.405121 21.155558 70 74 83
-111.50117 -53.494843 21.093657 89 97 88
-110.64115 -53.490849 21.080252 81 101 93
-110.4911 -53.512218 21.106504 106 119 111
-110.28783 -53.527218 21.099083 136 139 135
-110.07059 -53.474628 21.044975 107 117 107
-109.89915 -53.487152 21.114855 126 131 122
-109.73676 -53.484169 21.126144 123 123 117
-109.47667 -53.470242 21.121305 126 129 128
-109.30359 -53.465446 21.118586 126 135 134
-109.15029 -53.479237 21.06942 107 121 117
-113.85071 -53.244099 21.0979 181 169 174
-113.71363 -53.265343 21.061142 156 153 147
-113.4549 -53.255836 21.121674 141 147 139
-113.26823 -53.283596 21.100008 168 167 161
-113.10838 -53.310558 21.092279 144 143 136
-112.89169 -53.3078 21.109577 130 135 127
-112.76865 -53.321075 21.116777 142 147 137
-112.45093 -53.307636 21.138163 89 101 95
-112.34032 -53.309616 21.107588 100 107 106
-112.05637 -53.302021 21.149752 104 113 104
-111.88537 -53.253532 21.11161 102 111 107
-111.69198 -53.252407 21.132269 83 98 89
-111.4754 -53.287704 21.085766 70 87 77
-111.32774 -53.25235 21.098658 77 92 80
-111.09952 -53.23645 21.085899 88 99 94
-110.47633 -53.304329 21.101725 104 116 107
-110.25165 -53.295273 21.088638 122 132 123
-110.09045 -53.274757 21.083637 111 120 110
-109.88946 -53.304863 21.134487 134 137 128
-109.73068 -53.318092 21.113585 140 140 136
-109.47173 -53.284309 21.129412 153 149 151
-109.32653 -53.297535 21.13917 114 117 117
-109.15685 -53.384903 21.055874 98 105 108
-114.02197 -53.045456 21.040962 224 219 223
-113.88082 -53.074471 21.091074 175 171 172
-113.70575 -53.112305 21.093758 148 149 145
-113.52945 -53.074642 21.083933 137 140 136
-113.29574 -53.117641 21.099731 150 150 148
-113.12778 -53.108788 21.092749 142 144 137
-112.88939 -53.095757 21.11661 104 116 105
-112.76197 -53.070408 21.117714 91 108 100
-112.54689 -53.088642 21.111841 77 91 85
-112.31826 -53.123615 21.152384 98 109 105
-112.10238 -53.108471 21.08308 78 83 81
-111.89058 -53.109993 21.108171 86 95 90
-111.69936 -53.084473 21.09721 84 98 87
-111.48062 -53.073753 21.086258 88 99 91
-111.30516 -53.088764 21.083567 76 92 81
-111.11565 -53.112648 21.101091 76 90 82
-110.95459 -53.118919 21.112511 89 101 94
-110.61928 -53.159195 21.132229 91 99 94
-110.50319 -53.096592 21.109274 115 126 118
-110.28483 -53.127052 21.089207 114 124 112
-110.10374 -53.100548 21.095415 133 138 128
-109.89707 -53.096981 21.114998 137 141 135
-109.70383 -53.069893 21.108679 133 138 134
-109.51041 -53.119968 21.105417 147 150 151
-109.36567 -53.154068 21.148945 144 142 144
-114.05978 -52.876469 21.067457 182 180 178
-113.91888 -52.909496 21.10508 180 176 177
-113.67242 -52.905125 21.11149 152 152 155
-113.53614 -52.907604 21.075928 142 146 144
-113.28752 -52.890244 21.091787 150 153 149
-113.10493 -52.888542 21.096472 129 138 131
-112.89928 -52.917606 21.14369 111 122 116
-112.71105 -52.941742 21.149998 110 121 115
-112.56858 -52.935402 21.129311 118 133 129
-112.07717 -52.901356 21.078146 87 95 90
-111.86481 -52.928505 21.108509 98 106 102
-111.70766 -52.907612 21.089556 83 97 88
-111.48195 -52.904018 21.111492 90 103 93
-111.3082 -52.913357 21.126869 92 103 96
-111.08833 -52.904613 21.118771 120 124 126
-110.90209 -52.909771 21.143778 102 107 102
-110.65038 -52.850769 21.159433 116 125 117
-110.46839 -52.938423 21.115635 105 114 109
-110.34059 -52.891106 21.105267 119 129 122
-110.09406 -52.948475 21.097708 135 141 136
-109.87115 -52.958519 21.096918 136 141 135
-109.72779 -52.94693 21.089237 142 146 142
-109.5375 -52.9828 21.124897 170 171 172
-114.22788 -52.79586 21.091064 150 139 137
-114.08468 -52.753368 21.066204 129 125 123
-113.87824 -52.712086 21.081455 175 172 175
-113.70885 -52.715469 21.087362 164 162 167
-113.53159 -52.721687 21.092491 146 152 153
-113.29394 -52.681938 21.116892 173 175 172
-113.10912 -52.6959 21.102398 129 136 130
-112.89958 -52.704163 21.150019 124 127 122
-112.72157 -52.69627 21.163847 123 123 119
-112.39384 -52.627289 21.132017 126 149 133
-111.86969 -52.707924 21.083504 79 88 80
-111.68105 -52.71347 21.118961 82 94 87
-111.48098 -52.699451 21.078642 98 109 102
-111.30893 -52.687263 21.096245 104 112 107
-111.11514 -52.681915 21.086437 98 107 102
-110.91537 -52.649883 21.10342 112 119 116
-110.461 -52.670639 21.087858 138 144 140
-110.36521 -52.693321 21.092241 130 135 133
-110.13324 -52.713623 21.030434 138 136 133
-109.69383 -52.793762 21.192556 107 121 108
-113.89126 -52.564838 21.026638 183 175 180
-113.65161 -52.59668 21.137386 117 122 119
-113.49084 -52.560204 21.114319 159 169 164
-113.25249 -52.509682 21.092461 145 151 147
-113.12872 -52.49868 21.109056 156 157 154
-112.90975 -52.468555 21.128136 132 137 130
-112.73826 -52.475723 21.114702 123 128 124
-112.53822 -52.469124 21.090744 102 115 108
-112.34851 -52.501522 21.111607 101 115 106
-111.68131 -52.452663 21.114399 90 108 96
-111.49059 -52.495472 21.093573 96 108 101
-111.28986 -52.510181 21.105589 116 123 120
-111.10716 -52.520515 21.081821 104 117 112
-110.89462 -52.519135 21.102098 115 126 122
-110.74947 -52.494675 21.096937 111 119 111
-110.47721 -52.490299 21.122623 126 133 131
-110.31142 -52.50489 21.067875 126 129 123
-110.0676 -52.476566 21.048414 140 142 137
-109.97327 -52.457405 21.068592 136 139 135
-113.20429 -52.315933 21.088575 168 165 162
-113.09756 -52.313862 21.071672 144 148 144
-112.89032 -52.312138 21.092039 138 144 140
-112.7065 -52.307354 21.109718 119 125 121
-112.53707 -52.300087 21.093319 125 133 126
-112.27278 -52.396519 21.190086 80 98 102
-111.85187 -52.252571 21.095999 80 96 89
-111.70288 -52.292023 21.079855 77 91 82
-111.49654 -52.292358 21.088558 104 117 109
-111.2877 -52.339924 21.085197 124 129 126
-111.08639 -52.317909 21.072113 120 117 121
-110.88267 -52.300404 21.12501 134 144 137
-110.67483 -52.333477 21.112633 131 139 133
-110.50219 -52.312592 21.070787 120 128 122
-110.30698 -52.271332 21.069141 130 133 126
-110.10323 -52.289951 21.096106 142 144 140
-109.94296 -52.267502 21.079382 106 109 109
-113.13189 -52.088017 21.081041 149 154 152
-112.85811 -52.093182 21.099634 114 120 114
-112.67789 -52.085243 21.09199 141 145 140
