ply
format ascii 1.0
comment PCL generated
element vertex 1140
property float x
property float y
property float z
property uchar red
property uchar green
property uchar blue
element face 0
element camera 0
property float view_px
property float view_py
property float view_pz
property float x_axisx
property float x_axisy
property float x_axisz
property float y_axisx
property float y_axisy
property float y_axisz
property float z_axisx
property float z_axisy
property float z_axisz
property float focal
property float scalex
property float scaley
property float centerx
property float centery
property int viewportx
property int viewporty
property float k1
property float k2
end_header
17.092922 -43.850418 14.960517 68 74 72
7.1569471 -43.676319 14.906771 136 140 145
7.2562642 -43.665119 14.967363 139 143 147
7.5489607 -43.704933 14.904541 139 149 146
7.6899934 -43.687389 14.92043 137 144 142
7.9053764 -43.691608 14.866494 122 134 136
8.1846666 -43.743095 14.834211 123 133 138
8.2880516 -43.705158 14.852634 122 133 137
8.4296522 -43.671436 14.837835 111 124 125
8.6963139 -43.735733 14.823126 139 142 149
13.683271 -43.687599 14.880002 87 89 90
13.929043 -43.709126 14.906647 106 102 103
14.127149 -43.684315 14.925944 82 81 81
14.297691 -43.709057 14.94105 99 98 101
14.511679 -43.698406 14.89669 79 82 83
14.6604 -43.670349 14.913211 64 73 74
15.12276 -43.664566 14.876126 59 71 70
15.316839 -43.720524 14.891223 58 70 68
15.485739 -43.662937 14.905945 69 79 77
15.708222 -43.675522 14.897992 62 74 73
16.342142 -43.656822 14.917433 65 72 68
16.493404 -43.645348 14.961169 83 87 84
16.717722 -43.641994 14.915509 67 73 71
16.850588 -43.715965 14.901369 66 74 70
17.078802 -43.786217 14.843166 77 68 69
6.4346304 -43.427906 14.840627 111 126 124
6.6052523 -43.416073 14.868876 98 112 112
7.174212 -43.500252 14.865987 116 121 124
7.3127027 -43.497433 14.917975 140 142 146
7.5200243 -43.49432 14.927649 156 158 162
7.6747932 -43.516914 14.888044 161 165 170
7.8571606 -43.508846 14.907535 147 148 156
13.362936 -43.441593 14.882966 128 121 130
13.47525 -43.452694 14.872842 111 112 119
13.706912 -43.490849 14.896628 118 115 123
13.891596 -43.495049 14.898293 105 101 106
14.075892 -43.510288 14.890735 113 107 111
14.285365 -43.511204 14.899539 95 98 96
14.552697 -43.495445 14.936689 51 59 53
14.718191 -43.51284 14.940112 64 69 71
14.877227 -43.498775 14.924069 64 73 73
15.097374 -43.527412 14.879697 65 75 72
15.299403 -43.560593 14.946734 56 67 64
15.498978 -43.520084 14.901478 59 70 67
15.713116 -43.497417 14.906475 64 77 73
15.879984 -43.477879 14.927948 67 77 75
16.278088 -43.467148 14.924605 60 65 60
16.420042 -43.57959 14.999542 111 116 110
16.781071 -43.570328 14.872937 65 68 69
16.874716 -43.560658 14.959982 60 61 61
17.079355 -43.438725 14.907516 96 102 98
17.216373 -43.462635 14.880427 74 69 73
6.4315181 -43.350548 14.848427 90 100 101
6.6218548 -43.383064 14.80061 132 145 147
7.1266842 -43.393482 14.835471 68 80 80
7.3148642 -43.29789 14.85772 160 152 159
7.4841747 -43.341976 14.89323 161 160 165
7.7134094 -43.373405 14.897455 161 160 166
13.167013 -43.388664 14.91276 118 119 124
13.309211 -43.310501 14.942649 108 108 117
13.524887 -43.291142 14.893666 115 117 127
13.68923 -43.290451 14.915924 120 120 132
13.899794 -43.298946 14.908122 106 105 114
14.079038 -43.264004 14.884245 93 96 103
14.278414 -43.294182 14.877603 75 82 86
14.517734 -43.277576 14.933187 83 85 88
14.689627 -43.216476 14.917166 134 128 133
14.931906 -43.290936 14.899579 73 79 82
15.087953 -43.286922 14.910387 79 85 86
15.248339 -43.272461 14.925924 79 82 83
15.546009 -43.291073 14.898166 65 76 73
15.673737 -43.292229 14.923416 58 72 70
15.936352 -43.287022 14.883972 88 93 94
16.038834 -43.231941 14.97094 79 82 83
16.289612 -43.399208 14.928186 91 87 86
6.124279 -43.033272 14.813603 145 146 154
6.318995 -43.032463 14.873016 135 145 147
13.137359 -43.099216 14.98249 72 73 77
13.304203 -43.088631 14.915012 118 122 130
13.519008 -43.115692 14.918702 91 98 105
13.677899 -43.119732 14.886499 122 122 134
13.89992 -43.093235 14.934476 104 107 119
14.099451 -43.095676 14.934565 95 97 107
14.279482 -43.094517 14.892188 87 91 100
14.45786 -43.136436 14.940649 82 85 92
14.636007 -43.090492 14.946773 107 101 112
14.981781 -43.129341 14.898608 72 82 79
15.102661 -43.093094 14.91962 91 100 101
15.301734 -43.083439 14.931262 80 89 90
15.488203 -43.117275 14.918283 75 89 87
15.628909 -43.130291 14.944667 62 77 75
15.957037 -43.059372 14.984629 63 70 73
16.100523 -43.098068 14.887987 65 66 69
6.2127123 -42.983261 14.800013 120 118 133
13.180793 -42.953842 14.93364 87 96 102
13.300054 -42.914013 14.907179 81 90 96
13.525544 -42.887203 14.862273 95 100 107
13.688835 -42.88805 14.900257 98 106 116
13.902102 -42.874664 14.910147 103 107 118
14.095408 -42.895596 14.913885 95 97 108
14.27474 -42.873558 14.898956 99 102 112
14.473625 -42.903492 14.895414 92 96 105
14.693774 -42.907909 14.929797 114 112 118
14.955618 -42.97406 14.989145 69 72 77
15.126154 -42.947723 14.936851 90 99 98
15.277648 -42.958904 14.91201 79 91 88
15.553886 -42.890266 14.879704 59 65 67
15.710573 -42.905617 14.944565 64 71 75
15.897407 -42.892937 14.945675 66 72 74
16.044537 -42.98217 14.923918 79 85 87
13.382188 -42.673706 14.965576 94 103 108
13.511889 -42.716919 14.936771 77 85 92
13.723359 -42.725853 14.890124 75 86 92
13.899353 -42.743683 14.9098 85 94 103
14.103264 -42.738426 14.910136 96 105 114
14.287819 -42.753586 14.897178 101 109 118
14.477725 -42.741009 14.903696 94 101 112
15.160852 -42.682384 14.907703 55 58 59
15.275348 -42.662151 14.890409 91 89 93
15.476113 -42.702225 14.928124 91 85 93
15.714818 -42.753567 14.893153 118 118 124
15.864872 -42.730461 14.922346 78 80 77
16.019905 -42.635189 14.941715 161 154 161
16.276466 -42.751667 14.987506 81 81 71
12.792643 -42.424229 14.819136 95 97 102
12.918049 -42.477879 14.882963 99 101 106
13.116939 -42.481045 14.876757 137 129 137
13.272214 -42.453999 14.848143 158 148 159
13.77317 -42.524273 14.879224 86 95 101
15.147223 -42.518482 14.870433 120 113 119
15.290051 -42.501514 14.930058 135 124 129
15.488619 -42.534981 14.954912 109 99 104
15.674822 -42.583466 14.943141 147 135 139
15.958684 -42.550774 14.933876 81 76 76
12.797015 -42.264778 14.951687 129 130 135
12.892336 -42.299763 14.893867 117 119 124
13.107125 -42.303921 14.900457 119 117 123
13.296064 -42.268452 14.915905 125 123 131
13.480992 -42.276157 14.895411 103 106 113
13.737923 -42.360092 14.858012 90 97 102
13.894361 -42.263485 14.912569 98 105 113
14.391803 -42.362652 14.808645 82 86 95
14.486363 -42.295841 14.884021 89 95 103
14.693396 -42.239494 14.896158 90 92 101
14.903467 -42.279305 14.887677 127 127 131
15.101204 -42.289551 14.918347 136 127 133
15.242611 -42.325565 14.95184 145 136 138
16.326147 -42.291767 14.85313 90 91 87
12.728175 -42.043259 14.87966 76 75 81
12.921147 -42.07563 14.900417 90 90 96
13.087046 -42.092041 14.886674 96 97 104
13.305362 -42.102509 14.911055 107 107 115
13.468219 -42.09594 14.893862 114 113 123
13.652779 -42.046978 14.861992 107 108 116
14.183824 -42.039371 14.88437 129 122 130
14.306988 -42.0783 14.919262 112 108 111
14.511487 -42.122223 14.908618 117 117 125
14.703233 -42.068222 14.92742 145 135 141
14.87208 -42.079937 14.924479 125 114 119
15.044069 -42.117092 14.91736 135 128 132
16.295551 -42.191017 14.965494 73 79 71
16.449787 -42.076927 14.926715 78 82 78
12.37738 -41.880142 14.85191 118 119 126
12.515165 -41.867397 14.884577 128 122 129
12.681218 -41.857758 14.861542 93 90 96
12.906601 -41.899769 14.909653 79 78 85
13.101384 -41.909492 14.906898 86 86 93
13.290055 -41.918076 14.877367 104 104 112
13.505391 -41.931767 14.869606 109 109 119
13.673629 -41.922165 14.894817 108 112 120
13.93592 -41.870583 14.889055 110 113 121
14.086536 -41.904953 14.937901 116 111 113
14.30352 -41.875256 14.941957 124 120 119
14.478141 -41.897736 14.942983 138 133 134
14.700488 -41.929386 14.978771 165 156 157
14.879557 -41.905621 14.967547 156 142 142
15.038563 -41.956661 14.963253 137 131 135
16.349277 -41.904449 14.864179 52 62 54
16.52508 -41.912678 14.947568 73 84 78
12.087163 -41.62738 14.845216 105 112 119
12.323606 -41.669437 14.850575 107 106 110
12.504517 -41.696064 14.898399 112 110 116
12.715298 -41.708393 14.905182 123 119 126
12.884211 -41.696342 14.906738 99 103 109
13.096044 -41.759853 14.922785 86 90 96
13.294006 -41.736706 14.908302 89 91 99
13.737144 -41.682034 14.91288 94 101 107
13.912007 -41.700066 14.910864 117 114 119
14.144318 -41.705677 14.919381 146 141 146
14.292013 -41.699745 14.949564 131 128 126
14.490768 -41.705078 14.946006 142 137 133
14.674372 -41.704727 14.961413 128 128 119
14.869223 -41.725559 14.953824 166 156 155
16.556612 -41.722507 14.928474 68 73 71
12.108121 -41.515808 14.887798 101 105 112
12.323639 -41.504086 14.892871 117 115 121
12.504898 -41.498348 14.905079 117 114 121
12.69268 -41.506916 14.904532 119 117 123
12.878922 -41.510025 14.910994 98 104 112
13.063177 -41.495682 14.95332 115 121 130
13.592628 -41.549286 14.814617 101 104 113
13.722568 -41.498631 14.908006 131 126 127
13.877831 -41.465382 14.926681 129 119 123
14.100705 -41.511158 14.924672 158 152 157
14.265623 -41.501728 14.955581 146 143 141
14.47082 -41.467472 14.933762 126 124 118
14.66786 -41.440063 14.964604 161 158 155
14.898333 -41.543633 14.983257 128 123 120
15.019538 -41.513245 14.979862 137 133 133
16.364529 -41.418724 14.969423 59 64 58
16.410118 -41.516037 14.897567 46 53 50
16.678875 -41.484604 14.899222 104 106 102
16.932625 -41.443321 14.967226 64 72 66
17.1703 -41.577099 14.963619 55 62 54
19.303186 -41.524662 14.994751 63 71 58
12.131934 -41.296471 14.900265 119 121 128
12.305997 -41.295044 14.897676 119 118 125
12.497323 -41.285824 14.8932 99 102 108
12.703067 -41.3074 14.896567 96 101 109
12.931467 -41.325703 14.890104 94 100 110
13.016865 -41.258507 14.914288 93 102 115
13.351589 -41.281452 14.830902 82 70 80
13.537911 -41.231625 14.89341 99 92 99
13.711161 -41.290089 14.895867 123 116 120
13.901731 -41.307163 14.93571 144 133 134
14.058164 -41.309391 14.916245 150 139 137
14.360666 -41.335712 14.957342 152 146 143
14.471886 -41.355633 14.96867 166 161 160
16.590277 -41.365391 14.874258 71 60 66
16.731899 -41.304989 14.908109 61 67 62
16.90798 -41.361523 14.980542 77 85 78
17.04451 -41.285919 14.961084 77 83 76
11.97262 -41.125153 14.845419 74 80 88
12.120922 -41.092628 14.892956 106 110 117
12.291369 -41.096329 14.895869 107 112 120
12.480419 -41.112823 14.898589 98 105 112
12.679724 -41.118984 14.866581 99 103 111
12.887805 -41.103893 14.914864 103 103 113
13.488559 -41.074566 14.874934 72 75 82
13.735831 -41.12114 14.909216 121 114 120
13.897515 -41.084019 14.919516 115 107 109
14.075042 -41.085739 14.941221 141 131 128
14.243905 -41.151024 14.998412 91 92 84
14.567261 -41.080841 14.958591 113 110 104
14.650478 -41.003704 14.941245 193 188 184
16.750467 -41.161049 14.946138 78 84 79
11.701417 -40.804466 14.822291 130 125 137
11.994192 -40.908279 14.89134 47 60 59
12.130877 -40.938957 14.89402 89 94 102
12.217834 -40.985466 14.85836 93 99 107
12.401695 -40.96669 14.906269 83 91 101
13.381866 -40.959232 14.840893 126 111 119
13.512137 -40.899456 14.856562 130 119 126
13.688776 -40.903622 14.855211 112 105 112
13.911247 -40.913357 14.879706 116 109 109
14.08541 -40.889603 14.935895 122 117 113
14.233864 -40.894009 14.989982 174 161 168
14.63129 -40.821434 14.988171 114 110 101
16.520546 -40.856522 14.953606 68 67 68
16.851048 -40.992683 14.975789 98 95 93
11.759619 -40.656456 14.904812 170 153 165
11.86062 -40.675396 14.877476 137 122 133
12.044365 -40.642406 14.843163 132 119 127
12.381361 -40.601227 14.885854 66 67 71
13.569177 -40.670719 14.888206 128 122 123
13.670728 -40.662498 14.902517 131 126 124
13.905282 -40.685719 14.886254 128 124 123
14.076127 -40.698246 14.942251 127 122 121
16.85821 -40.770393 14.981874 58 52 52
17.924353 -40.677814 14.963378 96 98 96
18.073601 -40.770615 14.990898 71 72 66
11.389719 -40.49231 14.944706 150 134 148
11.477977 -40.518238 14.865005 144 135 146
11.688665 -40.483719 14.888485 141 125 133
11.93022 -40.504616 14.912571 161 141 153
12.090184 -40.46677 14.904776 134 122 129
12.283085 -40.442791 14.923306 122 113 121
12.51078 -40.502556 14.952511 121 109 116
13.3846 -40.450592 14.828204 165 160 165
13.523695 -40.489178 14.927714 152 145 147
13.713882 -40.504745 14.905437 143 137 137
13.913489 -40.497986 14.924093 132 127 125
14.070579 -40.511715 14.921446 121 120 117
14.268192 -40.432541 14.914929 108 99 95
16.734133 -40.43483 14.940739 66 65 63
17.489433 -40.452301 14.989751 109 115 111
17.659086 -40.483562 14.974645 94 98 95
17.821161 -40.532524 14.988656 97 97 95
18.100742 -40.570694 14.984577 111 117 115
18.326883 -40.424297 14.982317 124 128 129
11.512271 -40.302879 14.948798 162 139 148
11.675422 -40.32093 14.898625 178 158 170
11.934361 -40.309761 14.901852 144 128 132
12.093128 -40.288486 14.882928 135 126 131
12.26132 -40.26173 14.890333 135 124 127
13.354737 -40.296314 14.858379 145 140 143
13.494773 -40.296406 14.908857 152 140 143
13.715701 -40.342529 14.907335 142 132 129
13.880319 -40.375011 14.919955 129 128 124
14.217248 -40.389305 14.903238 172 163 158
17.582041 -40.337643 14.949641 88 89 88
17.690552 -40.234295 14.992775 96 97 94
17.830572 -40.312172 14.966609 118 116 112
18.123589 -40.286732 14.997414 124 133 130
18.207067 -40.254303 14.978271 52 61 60
11.276388 -40.13578 14.905946 148 125 133
11.442243 -40.136841 14.902603 155 135 134
11.607351 -40.197567 14.909616 186 169 179
11.92599 -40.140797 14.903343 119 112 114
12.095737 -40.08707 14.911714 140 129 133
12.288106 -40.058323 14.870693 146 135 138
12.410773 -40.009254 14.832891 127 113 119
13.322463 -40.10656 14.878124 152 144 147
13.490542 -40.09964 14.899694 155 143 144
13.694991 -40.066792 14.898316 116 111 109
13.878139 -40.081783 14.907649 116 112 108
17.277397 -40.125355 14.92404 99 101 98
17.536543 -40.095497 14.955007 84 84 80
17.845783 -40.142166 14.98641 89 89 89
11.120553 -39.884396 14.89279 173 145 151
11.209349 -39.95713 14.937555 205 175 182
11.59064 -39.905525 14.964788 111 107 104
12.124334 -39.96814 14.9308 130 127 132
12.321223 -39.903862 14.899366 139 130 135
12.493453 -39.870033 14.867105 131 121 123
12.69862 -39.825882 14.855033 146 123 129
12.893757 -39.830856 14.897169 133 118 120
13.021693 -39.849014 14.833778 64 60 57
13.328906 -39.935081 14.903438 124 117 120
13.529908 -39.895931 14.905012 119 116 113
13.692463 -39.894726 14.876365 103 101 97
13.890765 -39.868824 14.911267 100 97 92
14.073364 -39.83073 14.949913 147 140 139
16.44541 -39.802528 14.982317 94 99 94
16.702625 -39.873356 14.946136 63 67 65
17.279533 -39.885101 14.934787 132 135 133
17.429476 -39.917419 14.907654 80 80 77
18.110292 -39.922504 14.979074 116 117 119
18.581123 -39.925873 14.99663 107 107 109
18.753492 -39.96413 14.992758 101 103 100
10.941467 -39.687717 14.969647 140 123 125
11.039913 -39.715748 14.881966 151 132 133
12.175715 -39.672077 14.965668 131 111 116
12.338687 -39.720299 14.903681 116 109 113
12.502785 -39.695591 14.902867 134 125 127
12.697649 -39.70573 14.901434 155 136 141
12.873543 -39.705029 14.914602 157 133 140
13.076614 -39.679577 14.900698 131 114 116
13.347601 -39.654793 14.896776 114 108 105
13.514566 -39.700291 14.893377 94 93 95
13.719533 -39.713264 14.908754 117 112 112
13.901215 -39.712788 14.883027 106 103 99
14.106593 -39.69722 14.90534 118 115 114
14.203222 -39.725315 14.889378 173 170 168
16.635328 -39.717491 14.940287 92 96 93
16.917044 -39.686077 14.923302 115 117 113
17.101042 -39.674625 14.959308 121 121 121
17.281372 -39.711239 14.938505 125 120 120
17.492914 -39.668945 14.9376 108 101 101
17.729212 -39.603901 14.962097 115 114 111
18.34557 -39.735291 14.989037 143 144 144
10.935988 -39.552238 14.904242 159 141 142
11.035733 -39.562008 14.913403 177 156 155
12.339828 -39.555717 14.918434 98 97 98
12.504379 -39.530376 14.93001 112 105 109
12.724751 -39.509609 14.922876 152 134 138
12.8986 -39.491947 14.909924 157 134 140
13.092915 -39.536644 14.914881 134 116 119
13.252102 -39.487026 14.92484 141 126 124
13.502678 -39.579208 14.966893 59 61 60
13.712839 -39.507339 14.895976 126 119 120
13.886977 -39.49157 14.895248 106 105 103
14.10189 -39.475201 14.905252 97 95 92
14.24436 -39.502762 14.937159 101 101 97
14.40591 -39.531647 14.936731 90 92 86
16.692003 -39.48407 14.949515 89 94 88
17.084389 -39.544716 14.973821 132 127 129
17.307539 -39.487816 14.976788 135 125 125
17.481152 -39.509266 14.991754 148 138 142
17.660814 -39.53915 14.969836 131 127 126
11.851598 -39.213982 14.868122 71 74 71
12.561405 -39.379841 14.940802 117 109 112
12.775372 -39.299095 14.979144 159 144 144
12.959226 -39.302067 14.903069 132 120 123
13.082524 -39.29435 14.921215 140 122 124
13.28171 -39.283092 14.931764 132 118 116
13.419924 -39.32299 14.845088 146 140 136
13.741343 -39.34 14.913594 145 136 142
13.888414 -39.329464 14.887403 127 119 123
14.067632 -39.305679 14.9322 146 139 140
16.517042 -39.264427 14.929436 89 93 86
16.683229 -39.272072 14.911103 96 98 95
16.934013 -39.285858 14.86764 131 133 130
17.081488 -39.282654 14.920075 99 95 92
17.387054 -39.335884 14.99037 181 167 167
17.497688 -39.289406 14.975777 146 129 131
17.717943 -39.279881 14.966751 141 140 136
17.840124 -39.224209 14.993236 98 103 96
10.834871 -39.122219 14.905334 152 123 131
11.867747 -39.146164 14.909068 97 97 98
12.150951 -39.103203 14.968355 80 80 82
12.22703 -39.068855 14.982034 96 97 97
12.759046 -39.092999 14.930111 165 153 156
12.931201 -39.079056 14.910557 123 117 118
13.090213 -39.132759 14.922831 145 131 133
13.304789 -39.080353 14.972865 165 149 152
13.491275 -39.023842 14.896575 160 151 158
13.7552 -39.138317 14.899516 147 140 145
13.883783 -39.091446 14.906543 127 120 119
14.079774 -39.112217 14.970862 119 114 113
14.292751 -39.09882 14.952365 136 128 127
14.49074 -39.061695 14.994244 133 129 127
16.505762 -39.103035 14.95665 103 106 96
16.652288 -39.095451 14.89485 117 119 112
16.976097 -39.106709 14.922592 135 139 140
17.173368 -39.051773 14.846913 96 108 106
17.277506 -39.161491 14.886106 145 148 144
17.679302 -39.146248 14.976907 119 111 113
19.040869 -39.129765 14.998227 68 69 71
10.39564 -38.846046 14.834538 113 93 103
10.549338 -38.838074 14.910567 152 128 137
10.943446 -38.811569 14.929667 109 109 107
12.287267 -38.924931 14.990187 116 114 113
12.527048 -38.864502 14.875935 84 86 87
12.725919 -38.90237 14.892326 108 109 109
12.877772 -38.945423 14.866517 138 130 131
13.024433 -38.958214 14.97813 139 129 130
13.279425 -38.908165 14.8981 130 115 116
13.53675 -38.898056 14.873013 98 93 94
13.767733 -38.89949 14.848911 168 154 155
13.87885 -38.9627 14.928823 118 108 108
14.150075 -38.889542 14.861636 153 141 143
14.265396 -38.931084 14.933058 132 122 119
14.760683 -38.857666 14.938408 121 114 116
14.800668 -38.818054 14.949295 77 79 76
15.177347 -38.823814 14.87569 81 79 79
15.31258 -38.87167 14.938724 109 109 106
15.475723 -38.839905 14.935138 84 84 79
15.627031 -38.925194 14.99504 157 156 154
16.487707 -38.966309 14.877497 122 123 115
16.77146 -38.896137 14.918365 126 129 123
16.895855 -38.876663 14.931966 109 111 110
17.014259 -38.832645 14.977139 96 101 97
10.283198 -38.688641 14.823672 83 72 77
10.47037 -38.66222 14.852898 131 112 120
10.688039 -38.656441 14.886126 150 133 140
10.933659 -38.700237 14.893676 133 126 128
11.062852 -38.680592 14.892655 135 125 127
12.532713 -38.740974 14.863935 101 101 98
12.687765 -38.680107 14.897305 114 114 114
12.812096 -38.770512 14.868027 135 144 139
13.120337 -38.75676 14.970621 106 79 88
13.29162 -38.707981 14.896179 132 120 124
13.495584 -38.707451 14.903687 161 154 160
13.72401 -38.656826 14.853519 164 149 157
13.878575 -38.678871 14.897311 155 140 144
14.120054 -38.663689 14.90239 126 120 120
14.277224 -38.653992 14.922632 135 125 125
14.500596 -38.656288 14.951503 157 142 146
14.706993 -38.68338 14.919894 139 132 133
14.899942 -38.677891 14.957767 116 115 115
15.110548 -38.698524 14.915258 85 83 81
15.298421 -38.681572 14.886328 100 97 95
15.480787 -38.671207 14.931121 99 98 94
15.693835 -38.665703 14.948583 103 100 94
15.837123 -38.673786 14.94706 88 85 84
16.929371 -38.767223 14.980925 127 132 131
17.058296 -38.728664 14.973574 108 114 110
10.353448 -38.488045 14.86731 95 87 93
10.501534 -38.491306 14.865299 135 121 125
10.626847 -38.523071 14.901138 157 140 145
10.930175 -38.510212 14.890525 120 112 117
11.074642 -38.502041 14.908286 135 125 129
11.312146 -38.484245 14.926943 123 122 125
11.49487 -38.499046 14.908674 138 124 131
11.608321 -38.468517 14.938547 147 124 140
12.157923 -38.4338 14.93674 102 101 104
12.306683 -38.441315 14.903876 123 115 120
12.713301 -38.494793 14.898252 122 119 121
13.269475 -38.532856 14.895229 89 88 91
13.739351 -38.498695 14.894663 159 143 148
13.930002 -38.480671 14.894021 136 121 126
14.126281 -38.534351 14.911397 139 127 131
14.304605 -38.497074 14.905216 155 143 146
14.520955 -38.468529 14.897625 128 124 126
14.7102 -38.528507 14.918255 121 117 118
14.88725 -38.52 14.915998 106 104 105
15.1516 -38.539646 14.890255 133 130 132
15.359658 -38.524483 14.855723 115 107 107
15.49557 -38.46188 14.909794 119 114 111
15.622918 -38.495514 14.955357 136 125 124
16.575069 -38.442001 14.92482 93 93 93
16.702408 -38.492493 14.941321 114 113 110
16.906483 -38.557987 14.93692 132 134 127
10.250289 -38.376106 14.830067 51 61 60
10.47965 -38.361038 14.85548 72 74 74
10.903063 -38.350414 14.879757 63 70 72
11.178221 -38.33387 14.91455 128 119 128
11.334769 -38.286228 14.904599 123 119 122
11.480244 -38.279308 14.88686 101 102 101
11.700839 -38.272732 14.899008 113 105 108
11.920632 -38.278286 14.895266 115 115 116
12.08761 -38.299583 14.929184 95 97 95
12.311488 -38.292484 14.932359 122 119 120
12.513973 -38.320923 14.894027 130 127 130
12.681742 -38.308083 14.937063 140 128 132
13.076637 -38.245487 14.997694 95 102 94
13.756166 -38.362823 14.989815 188 175 182
14.189881 -38.246758 14.841002 130 125 121
14.258792 -38.331394 14.914643 129 122 124
14.476928 -38.349506 14.896851 142 138 142
14.713092 -38.342926 14.920744 131 133 137
15.190937 -38.213497 14.934614 168 146 144
15.336268 -38.274975 14.923538 151 137 135
15.497231 -38.290504 14.895402 136 128 125
15.676245 -38.288036 14.923127 135 129 126
16.292578 -38.272282 14.985844 177 148 150
16.67063 -38.295116 14.937796 127 125 122
16.913311 -38.236259 14.963436 134 129 129
11.112254 -38.085262 14.839437 109 109 104
11.299485 -38.142822 14.90639 113 112 104
11.553407 -38.058468 14.862465 58 62 65
11.690839 -38.102806 14.924523 127 120 120
11.905284 -38.12204 14.926156 103 105 101
12.053101 -38.088436 14.885083 106 105 101
12.308532 -38.142792 14.866883 128 125 127
12.473243 -38.135822 14.888726 140 137 137
12.728608 -38.112431 14.96402 137 127 127
12.805683 -38.123726 14.909934 154 144 153
14.323501 -38.08316 14.986477 145 145 150
15.17128 -38.110268 14.855128 161 138 139
15.302555 -38.104973 14.929269 164 147 149
15.478705 -38.103718 14.944035 147 136 138
15.673505 -38.032345 14.947841 150 133 136
15.809926 -38.047443 14.9321 148 138 147
16.141642 -38.061756 14.883086 144 125 127
16.265612 -38.094288 14.970078 140 128 129
16.715752 -38.085194 14.897137 148 143 147
16.916698 -38.087406 14.934112 128 128 131
17.041531 -38.132572 14.950205 122 126 126
18.422234 -38.073952 14.999959 81 91 89
11.398597 -37.847546 14.885284 197 192 198
11.562587 -37.90387 14.834828 135 129 132
11.722134 -37.876095 14.901282 134 127 124
11.888079 -37.901081 14.92546 139 132 129
12.091205 -37.864899 14.903772 107 110 102
12.242895 -37.940105 14.825153 83 87 86
12.730602 -37.927891 14.924492 155 144 149
12.927277 -37.838791 14.921348 144 141 136
13.250552 -37.994984 14.944151 57 58 50
15.150114 -37.891647 14.883375 159 147 150
15.293345 -37.907879 14.894467 161 149 153
15.509297 -37.901585 14.919041 141 130 133
15.681023 -37.906704 14.904701 165 146 149
15.924533 -37.896111 14.902754 133 119 126
16.107494 -37.913727 14.91206 151 134 138
16.274134 -37.849018 14.926391 143 131 135
16.475216 -37.879963 14.948351 131 124 131
16.69208 -37.890366 14.913831 148 146 150
16.857113 -37.874092 14.964279 137 139 139
18.069138 -37.832821 14.964986 89 96 93
18.283695 -37.891693 14.977586 82 87 84
18.495283 -37.839729 14.983013 91 93 91
11.030589 -37.627384 14.987743 127 131 125
11.320667 -37.661587 14.91824 130 126 123
11.500341 -37.731369 14.909458 138 135 129
11.723964 -37.744431 14.913274 133 131 124
11.890505 -37.66647 14.891076 118 118 111
12.08563 -37.691998 14.920532 109 111 104
12.242001 -37.690613 14.809515 114 119 111
15.102095 -37.78923 14.823566 176 162 168
15.264205 -37.715019 14.889389 156 148 153
15.481545 -37.775486 14.865947 144 135 139
15.716472 -37.739674 14.900798 140 129 133
15.834054 -37.763603 14.905869 155 144 147
16.158331 -37.774864 14.916255 145 133 133
16.298302 -37.707546 14.888202 155 142 142
16.523623 -37.749519 14.898014 113 108 110
16.716087 -37.792168 14.949181 108 109 112
16.836308 -37.76429 14.963097 81 88 88
17.869833 -37.648518 14.93817 95 99 101
18.057892 -37.748974 14.94317 67 73 73
18.206059 -37.739643 14.975458 83 89 88
10.950668 -37.515408 14.889805 136 133 132
11.080041 -37.51828 14.864567 127 127 121
11.300557 -37.56599 14.885077 133 130 123
11.492146 -37.479256 14.958874 97 101 93
11.633204 -37.504723 14.937754 149 147 145
11.936511 -37.546841 14.933357 112 115 109
12.110853 -37.512249 14.90272 130 130 125
12.266337 -37.510719 14.91321 113 116 110
12.70805 -37.40234 14.943653 129 127 115
15.338373 -37.592472 14.909869 64 66 65
16.36602 -37.591953 14.951675 146 137 137
17.758434 -37.484016 14.925469 111 114 116
17.882872 -37.523327 14.929771 104 107 107
10.722057 -37.299419 14.873544 123 124 121
10.92591 -37.30582 14.899595 116 118 113
11.089074 -37.285812 14.943968 108 111 105
11.548243 -37.28257 14.894621 88 93 84
11.695382 -37.285831 14.902321 95 97 90
11.864782 -37.239338 14.963567 128 130 117
12.129847 -37.332848 14.854647 139 139 137
12.300095 -37.31546 14.899501 133 130 129
12.495202 -37.312969 14.917431 137 133 132
12.68884 -37.311195 14.918473 124 122 116
12.837603 -37.264465 14.912108 107 109 99
17.751766 -37.306698 14.953667 106 112 112
17.80838 -37.326736 14.935563 94 99 98
18.958868 -37.267242 14.964895 47 63 62
10.578714 -37.052235 14.855915 157 153 151
10.691874 -37.090813 14.869891 130 131 125
10.896439 -37.066761 14.897699 108 113 105
11.114088 -37.13068 14.873429 93 96 89
11.238995 -37.111427 14.935204 126 121 115
11.550081 -37.11562 14.86591 105 105 98
11.6984 -37.121967 14.888053 97 99 89
11.89205 -37.107517 14.924219 125 125 113
12.058447 -37.103065 14.956657 138 139 132
12.202588 -37.015335 14.996988 98 101 95
12.528682 -37.112103 14.896145 107 110 103
12.721767 -37.102982 14.868489 113 111 101
12.912109 -37.10677 14.908849 124 125 117
13.015636 -37.025249 14.892534 138 140 137
17.471472 -37.038597 14.977152 101 107 103
17.671104 -37.134926 14.941758 89 95 96
19.013557 -37.110302 14.966036 39 55 52
10.557931 -36.908997 14.91679 153 151 146
10.723127 -36.988476 14.908988 123 124 118
10.928226 -36.954887 14.871288 114 118 109
11.070001 -36.920284 14.876791 120 124 113
11.225304 -36.899857 14.897263 127 128 116
11.669917 -36.972378 14.818587 125 122 114
11.999997 -36.891846 14.982142 132 130 118
12.105786 -36.885738 14.954764 102 104 96
12.295547 -36.887035 14.94006 104 108 103
12.495574 -36.959438 14.912428 116 117 109
12.706176 -36.891445 14.912769 121 119 111
12.915132 -36.904331 14.902246 136 132 125
13.062441 -36.890778 14.933181 119 121 113
13.22086 -36.922928 14.937046 109 115 108
13.645295 -36.816002 14.866679 98 105 108
15.081698 -36.808674 14.820703 88 85 80
15.3208 -36.84515 14.90202 107 105 99
15.434337 -36.848553 14.899382 100 98 94
17.556124 -36.913494 14.960641 113 115 118
17.64336 -36.920692 14.953846 109 110 115
10.460597 -36.768177 14.860392 158 150 147
11.778303 -36.676403 14.881311 74 76 71
11.935061 -36.666191 14.932953 93 92 84
12.103953 -36.690197 14.90269 100 104 94
12.285734 -36.677547 14.906072 87 94 86
12.450024 -36.718266 14.905602 104 110 105
12.76299 -36.636356 14.932915 131 132 122
12.910965 -36.703865 14.939855 128 125 116
13.109818 -36.654743 14.921107 133 133 124
13.309947 -36.695778 14.926333 129 129 124
13.491633 -36.68552 14.899973 136 134 135
13.793814 -36.721516 14.81358 47 61 61
15.103851 -36.753475 14.855499 96 91 86
15.335386 -36.727737 14.906518 108 105 101
15.460812 -36.674023 14.913568 94 92 87
15.797459 -36.638214 14.8875 84 80 77
15.887558 -36.629124 14.934703 108 105 104
17.485184 -36.719528 14.976302 129 128 136
17.626818 -36.699123 14.934513 74 80 82
11.930375 -36.497169 14.922832 122 125 115
12.061766 -36.541405 14.905533 113 119 110
12.375422 -36.539463 14.908308 91 99 92
12.458872 -36.538052 14.804663 107 114 107
12.79192 -36.413746 14.838547 114 115 107
12.896652 -36.53109 14.904925 117 117 108
13.137819 -36.551327 14.84746 130 127 120
13.328989 -36.478802 14.888732 143 141 136
13.491492 -36.480247 14.918357 143 139 138
14.737653 -36.434296 14.867065 103 103 99
14.911781 -36.50349 14.904995 85 88 84
15.129529 -36.464981 14.921074 91 91 87
15.298231 -36.479374 14.929113 105 101 96
15.483536 -36.488304 14.924803 99 98 92
15.706778 -36.509727 14.913811 108 106 101
15.871348 -36.526997 14.91855 117 115 113
16.002148 -36.500103 14.866888 114 111 111
17.719883 -36.52763 14.961676 108 110 117
10.500528 -36.272163 14.895495 145 141 142
11.720621 -36.225925 14.901439 79 85 76
11.913795 -36.276272 14.955805 119 124 113
12.160838 -36.22646 14.969113 103 108 101
12.76878 -36.33007 14.906667 102 107 98
12.921049 -36.284943 14.879847 112 115 101
13.079252 -36.292225 14.879736 112 114 108
13.308529 -36.340061 14.869075 154 147 143
13.499964 -36.305283 14.902298 147 140 140
13.686367 -36.318642 14.945068 86 89 88
14.732398 -36.353481 14.865032 104 102 99
14.872789 -36.299946 14.935395 98 96 90
15.10293 -36.307346 14.899386 87 88 79
15.237854 -36.336876 14.939002 116 115 105
15.521551 -36.340508 14.872069 103 104 97
15.683069 -36.325668 14.890391 103 102 97
15.854447 -36.304958 14.902976 83 85 82
16.016949 -36.233856 14.89624 99 98 93
16.280714 -36.21307 14.97262 115 114 114
17.959375 -36.230476 14.912071 78 83 86
11.595637 -36.185806 14.887012 89 97 84
11.69636 -36.108955 14.905655 92 96 87
11.91923 -36.122192 14.950625 109 112 105
12.086622 -36.090225 14.915797 120 124 121
12.246098 -36.103432 14.945366 111 112 106
12.793375 -36.072819 14.953335 100 102 91
12.92949 -36.115887 14.895501 117 117 109
13.061775 -36.082893 14.902328 112 116 108
13.327659 -36.092957 14.897004 155 148 148
13.50619 -36.093906 14.901846 135 132 132
13.673776 -36.097569 14.90521 90 93 92
13.826534 -36.065464 14.964659 88 94 94
14.739779 -36.093765 14.880507 93 92 86
14.885881 -36.112114 14.929076 85 88 80
15.076761 -36.176971 14.93804 97 98 88
15.552011 -36.085266 14.904386 97 98 91
15.688204 -36.133556 14.921532 99 100 97
15.951025 -36.077488 14.875109 119 119 111
16.113338 -36.095455 14.89992 122 117 115
16.245655 -36.072933 14.940057 114 107 106
17.92658 -36.176159 14.899823 78 81 84
10.769396 -35.864994 14.931507 164 164 165
11.555133 -35.961414 14.873631 87 91 82
11.714185 -35.956917 14.876948 93 100 89
12.093888 -35.927269 14.90215 112 118 117
12.214444 -35.999992 14.975277 169 165 162
12.781398 -35.98336 14.830542 135 130 124
12.915681 -35.909359 14.904088 132 125 119
13.110419 -35.873661 14.882602 128 130 127
13.293889 -35.898766 14.906448 110 110 110
13.483147 -35.915932 14.873303 100 99 100
13.711246 -35.925385 14.955173 73 80 78
14.709217 -35.915562 14.928765 93 95 87
14.853677 -35.946991 14.870979 85 88 78
15.551152 -35.915855 14.899195 92 91 84
15.67628 -35.89283 14.90781 87 87 81
15.962082 -35.897396 14.89378 128 120 116
16.139534 -35.940784 14.923384 120 116 114
16.236343 -35.871754 14.901593 96 93 91
18.347834 -35.928585 14.918493 80 90 88
18.452618 -35.817856 14.915031 84 94 94
19.59063 -35.900665 14.974827 45 55 50
10.851559 -35.737148 14.902487 166 159 162
12.932878 -35.68214 14.912678 134 131 128
13.132078 -35.721951 14.891019 134 136 134
13.299438 -35.67778 14.859241 110 116 113
13.448099 -35.69239 14.892129 97 102 99
14.550673 -35.625038 14.8382 113 110 101
14.670593 -35.691643 14.899206 100 99 92
14.872993 -35.686443 14.928089 90 93 86
15.548928 -35.661617 14.934363 89 87 81
15.687556 -35.651047 14.910093 103 102 96
15.892468 -35.662395 14.939411 109 105 101
16.081224 -35.733856 14.915757 105 106 105
16.246422 -35.606529 14.948111 59 66 58
12.159238 -35.455357 14.875524 97 102 95
12.274482 -35.448101 14.906064 114 120 115
12.454584 -35.428638 14.95927 127 125 126
12.945823 -35.472824 14.924084 150 151 146
13.077971 -35.485645 14.900105 134 133 129
13.283841 -35.49292 14.944336 136 136 138
13.457369 -35.470871 14.939733 120 119 124
14.591518 -35.566494 14.832235 141 133 130
14.669174 -35.497631 14.893179 97 96 89
14.868853 -35.472321 14.890514 89 97 84
15.526707 -35.547581 14.943932 118 117 111
15.730748 -35.53664 14.96089 95 92 88
15.950612 -35.551277 14.949081 112 107 104
16.098978 -35.493725 14.921352 100 100 100
16.257191 -35.493988 14.907544 74 79 77
18.401808 -35.407177 14.95183 134 141 144
12.124962 -35.281391 14.886141 103 108 99
12.305336 -35.296879 14.882633 125 124 123
12.505065 -35.294376 14.911942 155 146 147
12.677049 -35.261269 14.955757 157 148 151
12.914434 -35.310177 14.925292 140 139 133
13.100837 -35.31992 14.877561 147 145 144
13.272112 -35.322487 14.911692 147 141 147
13.471134 -35.233803 14.934666 67 67 77
14.50382 -35.239891 14.949281 88 94 84
14.702794 -35.290863 14.901843 95 96 88
14.843489 -35.360523 14.859875 110 113 103
15.675591 -35.327301 14.940768 94 94 88
16.069407 -35.38089 14.947029 69 74 69
17.915884 -35.251881 14.956354 98 105 105
18.052076 -35.295761 14.957005 109 115 114
18.292856 -35.320084 14.920561 99 110 110
12.13312 -35.129753 14.947713 120 122 114
12.319024 -35.124123 14.84178 131 129 129
12.549191 -35.093212 14.935075 170 165 170
12.699256 -35.07851 14.948688 139 136 140
12.907696 -35.082237 14.935365 151 147 148
13.115769 -35.099186 14.864639 166 158 160
13.271836 -35.103519 14.890893 141 139 141
13.454753 -35.07056 14.848086 69 79 82
14.394817 -35.033443 14.927864 107 106 100
14.505086 -35.110298 14.869086 100 100 93
14.672706 -35.113045 14.92028 97 98 89
14.816483 -35.15712 14.824282 116 118 108
15.672114 -35.123013 14.945396 118 116 109
15.918274 -35.031525 14.961224 102 101 95
16.122343 -35.082867 14.957644 96 94 93
16.250282 -35.055405 14.927494 81 86 88
17.948303 -35.148415 14.929472 90 99 97
18.083923 -35.112083 14.902054 92 99 102
12.398563 -34.945328 14.820948 154 153 149
12.536877 -34.908604 14.881722 163 157 157
12.701758 -34.932522 14.877454 150 147 146
12.893422 -34.931431 14.901965 135 133 134
13.131445 -34.951622 14.854154 164 157 159
13.25496 -34.960293 14.871639 145 141 143
13.492335 -34.930538 14.800605 63 74 77
14.389808 -34.925236 14.802351 120 117 112
14.494945 -34.888084 14.862522 99 97 90
14.654003 -34.887573 14.924183 97 94 84
14.827697 -34.859173 14.969719 122 120 108
15.752304 -34.931141 14.94492 104 102 95
15.906307 -34.94508 14.961834 102 99 94
16.091459 -34.895752 14.943277 75 75 76
18.286469 -34.888046 14.941413 82 91 89
12.792331 -34.793087 14.85608 181 177 178
14.34152 -34.731285 14.984842 98 101 94
14.513632 -34.720177 14.819275 129 122 118
14.714905 -34.674305 14.89877 121 117 112
14.855254 -34.682545 14.945575 119 116 111
15.740604 -34.796658 14.834778 105 96 87
15.85218 -34.609802 14.923016 111 106 103
16.060617 -34.712158 14.910857 70 73 72
18.276997 -34.733822 14.910063 84 93 91
14.542918 -34.508587 14.833413 92 88 87
14.697668 -34.481686 14.904978 108 106 106
14.860808 -34.483589 14.993811 89 89 91
15.35811 -34.42778 14.998438 113 122 121
15.502658 -34.47736 14.95808 63 63 69
15.71172 -34.483208 14.923822 67 68 70
15.916086 -34.473183 14.893539 84 86 85
16.074823 -34.458305 14.912559 69 71 73
16.574736 -34.408001 14.942493 100 101 99
16.642483 -34.457962 14.93124 104 107 111
17.96641 -34.582806 14.802871 101 99 101
18.237436 -34.449234 14.830723 122 126 127
14.708959 -34.368443 14.895049 112 110 113
14.898233 -34.237968 14.955218 100 100 104
15.070068 -34.232521 14.917317 89 93 97
15.331702 -34.255054 14.922468 82 87 89
15.436918 -34.282459 14.939994 74 79 80
15.647806 -34.392506 14.85213 69 70 72
15.958233 -34.354687 14.864674 88 89 89
16.090528 -34.358345 14.969217 89 96 95
16.494997 -34.314373 14.922813 95 99 100
16.709152 -34.318073 14.94617 104 106 110
16.87394 -34.305885 14.957648 116 115 121
17.077065 -34.247456 14.928267 96 100 104
17.22925 -34.225311 14.910275 78 87 88
18.182842 -34.383793 14.870923 97 109 107
18.216175 -34.396431 14.896435 147 151 154
18.58535 -34.332886 14.981705 133 138 141
14.889881 -34.156944 14.856063 76 81 84
15.109196 -34.141048 14.864841 95 98 102
15.282943 -34.10664 14.863057 104 108 110
15.498237 -34.126488 14.916359 66 72 69
15.615156 -34.047169 14.843922 66 74 72
16.344992 -34.081627 14.978439 101 103 108
16.441881 -34.115337 14.95197 87 91 95
16.764648 -34.169235 14.939404 82 90 93
17.127903 -34.102165 14.944088 101 105 110
15.963619 -33.849281 14.961557 90 96 98
16.09297 -33.86359 14.927587 80 87 89
16.303516 -33.940945 14.922023 84 89 91
17.187075 -33.988834 14.934204 100 103 108
17.215893 -33.9025 14.928827 111 115 121
18.190411 -33.92252 14.938549 91 97 93
19.609249 -33.912697 14.902133 82 88 88
15.895795 -33.684528 14.903533 87 93 95
16.07659 -33.711254 14.928187 81 87 89
16.312851 -33.684422 14.926513 102 104 109
16.430155 -33.736805 14.953779 99 102 111
17.273081 -33.701759 14.922024 106 107 114
18.838692 -33.720234 14.906636 64 75 72
15.313932 -33.415295 14.853039 82 88 90
15.48694 -33.460613 14.873946 98 101 105
15.700994 -33.520969 14.913734 103 105 109
15.897178 -33.508305 14.937331 93 97 99
16.086029 -33.504063 14.94224 96 99 104
16.303406 -33.494301 14.886576 86 93 96
16.423828 -33.57737 14.869845 97 102 109
17.386889 -33.504967 14.951702 113 115 122
17.481491 -33.409462 14.912163 116 119 126
19.85095 -33.451416 14.930874 66 67 72
15.31444 -33.322868 14.84926 90 95 96
15.508517 -33.27808 14.894267 95 97 101
15.675099 -33.309753 14.925473 98 99 104
15.926735 -33.321556 14.958386 82 89 91
16.08173 -33.286789 14.962881 84 89 92
16.286369 -33.224571 14.910693 78 86 90
16.407907 -33.254154 14.905651 84 92 93
15.529668 -33.103146 14.890023 101 104 108
15.676272 -33.147667 14.914679 96 100 104
15.925034 -33.124737 14.912142 79 87 88
16.12686 -33.160679 14.963305 101 102 105
16.694822 -33.194016 14.976046 91 100 105
16.829418 -33.05616 14.937094 67 76 78
17.518721 -33.1562 14.939091 67 73 63
19.092514 -33.024189 14.931594 120 122 115
15.520349 -32.931416 14.927239 96 99 104
15.714028 -32.898178 14.923054 94 99 105
15.923349 -32.922173 14.943307 103 107 114
16.046751 -32.952 14.884902 118 122 129
17.349255 -32.860245 14.984926 152 149 144
17.433125 -32.905689 14.944153 89 97 86
19.09337 -32.928944 14.873786 120 119 115
15.197307 -32.611614 14.88714 119 118 124
15.270803 -32.635109 14.940608 118 117 123
15.528628 -32.692554 14.914074 65 74 76
15.726298 -32.719273 14.935689 93 96 102
15.970822 -32.711582 14.903217 114 115 124
16.02729 -32.677395 14.982306 101 107 116
17.397684 -32.799335 14.964869 125 125 119
17.577345 -32.795227 14.930482 100 104 89
15.308185 -32.521858 14.880426 114 112 118
15.478651 -32.536518 14.866771 85 90 95
15.691454 -32.464123 14.884161 87 91 96
15.92214 -32.530151 14.937778 106 106 118
16.038521 -32.538357 14.909256 89 96 106
16.241283 -32.544773 14.931576 108 112 121
17.196348 -32.451744 14.968842 105 109 100
15.487205 -32.307381 14.907205 98 102 108
15.719666 -32.280941 14.968356 101 105 111
15.871012 -32.311401 14.944366 98 104 110
16.090912 -32.293907 14.932271 104 110 119
16.240175 -32.330593 14.910069 84 94 103
16.509815 -32.311146 14.93098 78 85 91
17.336048 -32.36401 14.893944 94 98 84
15.59159 -32.108963 14.928988 96 102 105
15.699789 -32.100735 14.923514 92 97 101
15.868039 -32.113533 14.87748 84 92 95
16.13715 -32.078655 14.888824 76 85 88
16.372311 -32.180332 14.886692 107 113 122
17.322458 -32.123177 14.915626 82 94 81
17.464535 -32.124538 14.986979 117 120 113
15.551053 -31.860241 14.954256 111 109 117
15.723162 -31.889774 14.930971 102 102 108
15.883618 -31.918278 14.93075 89 94 96
16.165934 -31.915024 14.940117 94 99 103
16.343771 -31.884899 14.981025 88 93 98
15.557299 -31.704239 14.95866 110 108 119
15.731362 -31.738737 14.926074 107 107 113
15.871334 -31.718018 14.902225 102 103 108
16.094385 -31.636835 14.88208 109 114 115
16.263939 -31.746632 14.975218 107 109 111
16.492588 -31.68416 14.918936 100 103 105
16.624886 -31.695183 14.99139 52 62 53
17.55654 -31.740551 14.918346 104 108 97
17.654007 -31.606506 14.868471 96 99 88
15.677799 -31.474297 14.95435 126 126 134
15.857161 -31.497353 14.930766 111 112 116
16.11338 -31.466721 14.968466 120 122 125
16.397455 -31.435337 14.882734 108 111 120
16.594362 -31.411987 14.938246 103 104 93
16.611668 -31.48988 14.982484 94 100 88
15.712395 -31.318783 14.917091 122 123 128
15.928555 -31.295654 14.934506 120 118 112
16.075895 -31.243113 14.988094 137 120 115
16.518869 -31.280699 14.955331 115 118 107
16.723949 -31.297359 14.957453 101 109 97
15.788041 -31.169458 14.909631 91 92 84
15.886187 -31.109287 14.916973 140 135 129
16.234045 -31.12899 14.898697 162 138 138
16.50856 -31.116199 14.985188 120 122 112
16.678106 -31.021473 14.899657 92 100 89
16.180075 -30.959011 14.995238 154 133 130
16.393389 -30.973755 14.913236 128 119 110
16.860016 -30.988729 14.989351 134 130 119
17.25947 -30.831205 14.999987 133 110 105
17.001204 -30.72266 14.969547 127 123 112
12.220472 -50.956646 15.171418 71 79 82
12.677223 -50.860485 15.152506 66 75 79
12.800263 -50.802563 15.077415 64 74 75
12.326596 -50.654694 15.036398 79 91 91
12.472214 -50.612476 15.178736 82 86 88
12.61856 -50.77887 15.139877 81 90 92
12.86356 -50.704102 15.116879 62 72 74
12.08747 -50.545811 15.183943 73 84 86
12.397607 -50.489056 15.107086 86 96 97
12.539732 -50.506615 15.112663 63 73 73
12.924954 -50.439735 15.144066 48 59 59
12.494076 -50.286839 15.11824 76 87 90
12.994804 -50.292488 15.078693 81 85 85
13.121478 -50.285351 15.071257 80 90 92
13.27887 -50.271618 15.091197 61 72 71
13.468572 -50.267139 15.054826 83 93 95
13.741005 -50.302761 15.134511 64 74 77
13.899405 -50.318691 15.105225 64 76 79
14.049963 -50.256393 15.06641 62 70 73
11.99467 -50.139217 15.150434 82 101 99
12.092758 -50.139366 15.047331 90 106 108
12.288649 -50.146332 15.12867 94 106 107
12.451647 -50.046066 15.085199 128 140 147
13.144245 -50.161041 15.125922 63 71 73
13.282619 -50.106003 15.134079 68 77 78
13.491426 -50.141232 15.04945 77 88 88
13.659433 -50.126015 15.168301 69 79 83
13.921764 -50.103241 15.100822 77 83 86
14.138078 -50.090279 15.003492 71 81 83
14.200451 -50.075172 15.055788 61 69 73
11.768572 -49.903622 15.089042 105 115 118
12.336327 -49.986542 15.125734 107 118 120
12.445217 -49.973339 15.166182 115 127 133
12.974653 -49.861408 15.129721 69 77 79
13.11794 -49.897945 15.177814 60 70 69
13.285163 -49.84251 15.124499 73 84 86
13.493968 -49.897278 15.107835 84 90 93
13.742959 -49.825191 15.116636 75 84 82
13.943685 -49.917042 15.124266 62 67 70
14.053198 -49.893173 15.096585 77 87 85
14.274062 -49.910412 15.165219 79 90 95
11.283958 -49.787075 15.140121 59 68 73
11.415468 -49.782307 15.107552 127 136 133
12.968509 -49.654114 15.031235 101 110 111
13.064499 -49.713551 15.134145 76 86 90
13.300344 -49.657784 15.09449 109 118 125
13.509251 -49.711628 15.102783 70 81 86
13.692731 -49.681576 15.109314 88 96 103
13.834414 -49.742779 15.177923 94 104 105
14.057111 -49.728863 15.141811 103 107 112
14.285459 -49.656414 15.169159 78 82 90
14.405097 -49.68457 15.111119 82 94 100
14.867271 -49.640556 15.064199 65 76 80
13.143638 -49.572144 15.069997 73 86 93
13.319539 -49.485252 15.153577 110 113 119
13.472208 -49.474323 15.104204 99 109 116
13.656158 -49.455894 15.07069 92 101 111
13.889458 -49.509792 15.181114 93 100 104
14.160748 -49.401562 15.034071 82 84 87
14.324926 -49.497799 15.128599 82 88 94
14.504436 -49.484951 15.126129 78 87 92
14.661381 -49.458981 15.093292 84 95 99
14.9293 -49.506573 15.101584 80 94 96
15.080396 -49.506844 15.019703 84 95 100
13.309814 -49.322937 15.053333 85 95 99
13.465198 -49.262165 15.114022 86 96 102
13.682135 -49.312332 15.088298 86 98 105
13.887999 -49.302578 15.086698 90 100 104
14.061533 -49.305595 15.115775 83 91 95
14.284296 -49.350517 15.092328 83 83 88
14.527158 -49.318836 15.093163 83 93 98
14.634438 -49.328129 15.097959 70 84 87
14.847769 -49.2509 15.067157 109 124 129
13.33179 -49.120434 15.064188 98 107 113
13.505219 -49.137234 15.113881 77 91 99
13.736536 -49.094254 15.087011 76 88 92
13.866574 -49.171535 15.103333 75 86 88
14.055601 -49.10957 15.103743 81 90 94
14.245152 -49.077168 15.094872 88 100 104
14.500947 -49.179661 15.105062 65 78 86
14.712274 -49.103245 15.082604 74 87 91
14.871776 -49.030636 15.130215 61 75 78
13.607994 -48.983543 15.16214 90 104 116
13.943161 -48.935272 15.046908 83 93 97
14.096388 -48.887615 15.045641 94 100 107
14.286855 -48.919228 15.088442 106 113 121
14.537654 -48.904442 15.051077 77 87 90
14.731814 -48.907738 15.10213 95 105 109
14.899692 -48.883953 15.114716 70 82 85
15.13034 -48.928585 15.111945 67 82 86
15.242326 -48.839493 15.051262 81 91 94
13.959291 -48.608627 15.001061 89 95 95
14.116617 -48.676575 15.081088 109 113 121
14.341458 -48.741447 15.076877 94 102 108
14.506416 -48.713917 15.092148 105 115 119
14.687357 -48.687096 15.083303 84 88 94
14.903412 -48.701645 15.121078 83 92 99
15.114806 -48.724438 15.094708 77 84 89
15.326286 -48.655704 15.098834 77 87 90
15.512978 -48.770298 15.019772 34 53 49
15.666438 -48.609329 15.035169 80 91 97
15.936084 -48.775425 15.057445 127 135 138
13.97539 -48.599529 15.146108 71 83 85
14.129821 -48.50436 15.067639 85 89 92
14.314074 -48.471729 15.123226 96 103 106
14.498621 -48.474785 15.09541 102 111 116
14.705607 -48.558857 15.136674 93 102 108
14.917092 -48.513737 15.093928 107 113 117
15.084776 -48.451187 15.118311 102 105 110
15.279355 -48.509415 15.108653 87 97 99
15.462491 -48.480247 15.048382 75 81 87
16.06926 -48.562122 15.173944 75 94 92
12.876589 -48.246246 15.016208 58 67 74
13.977951 -48.322277 15.046447 111 110 115
14.12285 -48.313335 15.105998 85 88 89
14.255929 -48.30933 15.110516 93 95 100
14.495074 -48.307255 15.080768 87 95 99
14.695091 -48.300789 15.110734 98 105 109
14.873581 -48.313503 15.101058 93 99 104
15.071662 -48.262035 15.091919 88 99 102
15.327991 -48.305557 15.090183 88 98 103
15.453964 -48.274895 15.069956 105 114 122
15.641214 -48.309795 15.127337 81 92 97
12.927462 -48.077496 15.077688 98 100 102
13.046576 -48.060234 15.06886 112 115 115
13.42443 -48.184391 15.030058 53 58 54
13.672919 -48.06739 15.116306 35 37 36
13.952515 -48.112766 15.100571 89 88 93
14.098791 -48.090443 15.081501 109 103 108
14.291004 -48.09639 15.103573 96 95 99
14.477963 -48.107712 15.101392 91 93 97
14.684916 -48.111855 15.067334 79 84 88
14.870878 -48.101501 15.096527 88 96 101
15.09462 -48.132664 15.073955 77 91 95
15.297141 -48.095078 15.095504 86 97 101
15.531917 -48.003017 15.099229 54 68 73
15.68712 -48.142204 15.115208 83 93 98
12.763224 -47.906269 15.055751 89 92 89
12.933667 -47.923466 15.097482 101 104 103
13.073436 -47.889099 15.08241 101 103 104
13.299908 -47.88028 15.074498 94 92 95
13.427574 -47.915157 15.121464 121 120 122
13.744324 -47.869518 15.133365 81 82 86
13.909154 -47.92979 15.156842 90 88 92
14.089062 -47.886337 15.096732 92 89 93
14.261703 -47.939682 15.104533 112 106 111
14.485363 -47.918324 15.108831 92 90 95
14.698889 -47.872227 15.077753 110 108 112
14.866588 -47.91449 15.075419 81 79 84
15.09554 -47.909809 15.077535 79 88 93
15.289768 -47.943287 15.102379 100 107 111
15.430156 -47.967995 15.077259 87 96 101
15.71417 -47.872025 15.173723 83 97 97
12.73973 -47.723469 15.074399 115 121 120
12.903605 -47.708794 15.077708 100 107 105
13.093606 -47.722088 15.122336 107 111 111
13.30501 -47.72897 15.093538 89 92 93
13.434808 -47.667343 15.184357 91 89 89
13.937083 -47.728107 15.139184 95 97 93
14.092936 -47.762718 15.148458 104 98 102
14.268888 -47.710278 15.159225 115 110 112
