ply
format ascii 1.0
comment PCL generated
element vertex 1111
property float x
property float y
property float z
property uchar red
property uchar green
property uchar blue
element face 0
element camera 0
property float view_px
property float view_py
property float view_pz
property float x_axisx
property float x_axisy
property float x_axisz
property float y_axisx
property float y_axisy
property float y_axisz
property float z_axisx
property float z_axisy
property float z_axisz
property float focal
property float scalex
property float scaley
property float centerx
property float centery
property int viewportx
property int viewporty
property float k1
property float k2
end_header
-30.840424 -8.1065302 17.126879 134 130 134
-30.70512 -8.1098118 17.096737 100 114 105
-29.502138 -8.0649872 17.005047 64 74 65
-31.423681 -7.802948 17.145411 131 142 148
-31.337 -7.8564491 17.080088 134 132 141
-31.175678 -7.8701124 17.050186 151 132 152
-30.857864 -7.86691 17.083755 111 114 113
-30.749334 -7.902833 17.115086 113 126 121
-29.687235 -7.8503189 17.049131 74 85 76
-29.522276 -7.8825383 17.124062 68 84 70
-29.294737 -7.9368658 17.099014 90 103 97
-31.417183 -7.7278953 17.042404 114 133 131
-31.318872 -7.686522 17.055349 123 131 135
-31.103315 -7.695539 17.086273 122 131 131
-30.887852 -7.7097092 17.112232 117 126 125
-30.729853 -7.676537 17.116663 108 122 116
-30.489595 -7.6302114 17.108191 80 98 86
-30.393906 -7.6344419 17.113338 55 75 59
-29.831839 -7.6658683 17.11141 74 78 76
-29.693653 -7.7105312 17.118444 75 88 77
-29.568592 -7.7667513 17.115082 70 88 71
-28.887903 -7.6393838 17.157879 87 104 93
-28.696995 -7.6090312 17.086735 157 154 178
-31.400627 -7.4094067 17.150543 149 132 148
-31.308836 -7.4784241 17.059858 132 139 142
-31.083426 -7.5020471 17.060316 130 137 141
-30.904381 -7.5369911 17.088657 109 118 116
-30.670288 -7.4983292 17.084717 91 103 93
-30.510916 -7.5127592 17.119427 81 98 88
-30.391317 -7.508142 17.103104 113 125 120
-29.89769 -7.5466347 17.159237 80 79 86
-29.760334 -7.5378084 17.16687 54 66 57
-29.211641 -7.4183793 17.144457 107 111 105
-29.069267 -7.4659348 17.11549 89 100 95
-28.906115 -7.4764032 17.092949 110 119 119
-28.694221 -7.495306 17.06904 131 133 145
-28.491524 -7.5453119 17.092381 103 109 111
-31.468977 -7.2538061 17.113712 129 131 136
-31.289705 -7.2519746 17.088449 115 117 123
-31.135996 -7.3711677 17.116964 152 143 155
-30.89748 -7.2843232 17.109894 93 101 99
-30.667931 -7.2855902 17.106319 110 123 117
-30.535475 -7.319068 17.13868 114 127 124
-30.293407 -7.2125258 17.137285 104 121 114
-29.463417 -7.2470994 17.157846 90 106 100
-29.287634 -7.2738643 17.122063 95 108 102
-29.099352 -7.3142605 17.105661 115 126 124
-28.910191 -7.2691569 17.099056 94 98 95
-28.685801 -7.2970018 17.041624 97 98 100
-31.482489 -7.0730677 17.043217 78 89 95
-31.280792 -7.078094 17.066471 130 131 137
-31.090788 -7.0724163 17.1145 108 117 119
-30.89093 -7.0930328 17.116947 79 94 87
-30.684464 -7.1043735 17.11355 100 113 108
-30.489508 -7.0722656 17.115788 93 113 105
-30.306774 -7.0864844 17.095469 82 103 93
-30.120384 -7.0939274 17.097464 78 95 85
-29.973288 -7.0335617 17.073956 97 113 108
-29.682686 -7.0470781 17.114847 93 108 102
-29.51623 -7.1000624 17.072117 84 98 91
-29.283035 -7.1190453 17.071783 88 102 95
-29.086042 -7.090004 17.088583 94 104 99
-28.951025 -7.1108279 17.074453 88 94 89
-28.797913 -7.1540713 17.069447 109 107 108
-31.431061 -6.8678045 17.085445 110 121 119
-31.297941 -6.920155 17.081415 124 127 131
-31.056982 -6.9590783 17.115423 103 115 112
-30.9114 -6.8703933 17.105541 100 113 111
-30.682606 -6.8948975 17.078444 83 97 88
-30.498875 -6.8902178 17.108597 102 113 109
-30.301884 -6.9037981 17.09923 91 104 97
-30.100985 -6.901968 17.116795 92 106 98
-29.878067 -6.8935213 17.106504 110 121 120
-29.722584 -6.8996339 17.093931 80 91 85
-29.494211 -6.8772907 17.101786 88 96 92
-29.328592 -6.9275002 17.113104 75 85 79
-29.009073 -6.9941936 17.075317 74 80 76
-28.979214 -6.9937768 17.138807 122 121 117
-31.241234 -6.7324381 17.116835 87 101 93
-31.052538 -6.7543726 17.067272 95 110 107
-30.943621 -6.7247806 17.06929 108 124 118
-30.679758 -6.6950207 17.08016 85 92 89
-30.484814 -6.7110376 17.1113 108 115 113
-30.292393 -6.6989069 17.096058 100 109 104
-30.113859 -6.6894755 17.129452 117 127 124
-29.889584 -6.7118025 17.124907 124 132 132
-29.755365 -6.6959023 17.098476 104 110 110
-29.510595 -6.7620745 17.105749 87 95 91
-29.368435 -6.7837973 17.09586 71 74 72
-31.124308 -6.5334244 17.008251 151 163 161
-30.897211 -6.5117888 17.099922 111 122 120
-30.69068 -6.5369902 17.080414 109 115 112
-30.495771 -6.5173779 17.117599 104 111 110
-30.309105 -6.516583 17.091658 93 99 95
-30.097593 -6.4726367 17.111555 110 117 116
-29.902132 -6.4932299 17.107983 106 113 112
-29.787682 -6.566812 17.135393 123 124 129
-28.242502 -6.5779572 17.095139 243 215 255
-30.847828 -6.2588549 17.011217 108 111 114
-30.623524 -6.3146706 17.031549 116 128 126
-30.270695 -6.3258801 17.091516 100 107 105
-30.11908 -6.3555269 17.136517 103 108 108
-29.926689 -6.3646803 17.166689 88 96 93
-27.885035 -6.3072243 17.117126 252 210 250
-27.622576 -6.2652192 17.026369 140 140 146
-27.049797 -6.2633843 17.075352 138 143 152
-30.891979 -6.1363497 17.027653 80 90 86
-30.684357 -6.040967 17.078588 111 121 116
-30.503061 -6.129374 17.04706 103 107 107
-27.866171 -6.0280437 17.123278 107 122 120
-27.728083 -6.0849757 17.111694 129 134 137
-27.527243 -6.0860085 17.054207 114 123 122
-27.262712 -6.0516357 17.079426 98 111 102
-27.108557 -6.1596107 17.155254 104 114 106
-26.868889 -6.1904984 17.108559 101 100 108
-30.589367 -5.8662286 17.082874 107 109 114
-28.059608 -5.93329 17.072933 95 99 110
-27.874496 -5.9029937 17.076746 108 120 119
-27.722858 -5.9313917 17.136093 113 124 124
-27.537773 -5.9080238 17.119844 109 120 122
-27.324055 -5.9048929 17.131897 108 121 114
-27.007723 -5.8764148 17.197908 114 124 122
-26.902348 -5.8621588 17.119213 123 133 131
-26.693119 -5.8429379 17.041851 129 140 146
-30.719954 -5.7264004 17.054455 99 109 102
-29.668772 -5.6270623 17.045759 120 129 121
-28.533064 -5.6471305 17.160297 249 205 254
-28.06163 -5.7192659 17.041782 105 121 117
-27.868259 -5.7019854 17.095592 99 115 111
-27.714243 -5.679029 17.107523 82 104 92
-27.522024 -5.667345 17.053097 88 108 99
-27.270145 -5.6697721 17.091 94 107 104
-27.117884 -5.7148752 17.120705 97 111 107
-26.893864 -5.760272 17.093828 106 120 113
-26.663204 -5.7115097 17.065516 133 138 147
-26.562746 -5.6433029 17.031612 111 115 116
-25.808691 -5.6152277 17.022728 140 134 127
-25.664787 -5.7636828 17.034039 117 106 96
-30.026936 -5.5134673 17.019348 84 103 92
-29.86924 -5.4420485 17.099504 89 99 87
-29.696772 -5.5370126 17.067812 106 113 105
-28.96413 -5.4803967 17.086857 85 84 87
-28.70064 -5.4684658 17.092281 80 85 88
-28.512823 -5.4579234 17.033785 71 84 79
-28.237244 -5.4881864 17.097551 101 112 111
-28.122133 -5.491993 17.071245 98 111 105
-27.917536 -5.5083613 17.102709 106 123 114
-27.707214 -5.4433703 17.117224 87 104 96
-27.341076 -5.5654397 17.174366 101 117 116
-27.149925 -5.4617987 17.129398 126 136 129
-26.820755 -5.4838815 17.081095 74 80 76
-26.750393 -5.4758096 17.104607 126 130 122
-25.197697 -5.4393387 17.0243 130 119 113
-31.046146 -5.2148499 17.051968 108 133 114
-30.032757 -5.2829409 17.017889 108 118 114
-29.916119 -5.2731218 17.031958 102 113 106
-29.786093 -5.283134 17.005253 70 80 75
-29.03841 -5.2958817 17.132206 79 82 80
-28.876728 -5.3189702 17.102547 85 94 91
-28.694429 -5.2971148 17.113239 116 127 126
-28.474173 -5.2863874 17.073168 107 120 114
-28.324192 -5.3108273 17.108555 97 114 107
-28.105434 -5.3606157 17.144211 100 110 106
-27.895275 -5.3396897 17.136616 94 112 100
-27.688757 -5.2546897 17.10726 108 126 113
-26.208113 -5.2688828 17.044964 115 126 120
-25.29772 -5.2740078 17.096182 159 140 133
-24.938404 -5.319499 17.032793 143 121 115
-31.004992 -5.1864638 17.009212 10 39 21
-29.85862 -5.0923638 17.024189 58 68 59
-29.23621 -5.0216928 17.077581 119 122 127
-29.117208 -5.0837989 17.12929 87 93 91
-28.908182 -5.112206 17.103479 102 118 109
-28.699816 -5.092155 17.128328 103 117 110
-28.526175 -5.1630511 17.154165 103 120 115
-28.398932 -5.1550632 17.052383 74 94 83
-26.294838 -5.1394892 17.072834 87 90 95
-26.13588 -5.114965 17.038078 96 103 94
-25.407654 -5.1212177 17.051409 141 133 122
-25.131346 -5.1615825 17.058601 158 138 134
-30.890795 -4.8099756 17.008877 103 112 109
-30.138847 -4.8621974 17.04108 75 85 77
-29.228991 -4.8629856 17.103626 93 98 98
-29.128891 -4.8864655 17.113541 94 112 102
-28.964682 -4.9722176 17.102018 117 136 127
-26.405943 -4.841083 17.113077 153 153 153
-26.291689 -4.8719654 17.09852 94 104 96
-25.664438 -4.8255253 17.107031 122 129 113
-25.53887 -4.8509026 17.135574 110 111 97
-25.304642 -4.8893528 17.067051 125 117 105
-25.125816 -4.8755622 17.004059 156 139 126
-24.674242 -4.8517694 17.060812 150 124 115
-30.99633 -4.7787557 17.108257 99 104 105
-29.219938 -4.738935 17.145594 90 103 94
-29.116606 -4.6917086 17.11108 87 103 92
-28.950222 -4.6141839 17.069801 83 102 90
-26.471453 -4.7417541 17.119678 99 105 101
-26.29657 -4.688622 17.104635 91 103 92
-25.907276 -4.6360097 17.090118 103 115 104
-25.663248 -4.7204947 17.087393 112 115 101
-25.514971 -4.6804166 17.076118 109 112 98
-25.392775 -4.6456394 17.043049 120 115 104
-25.125397 -4.70576 17.084654 144 134 116
-24.901493 -4.7864633 17.051706 149 132 124
-24.76742 -4.7295122 17.047777 147 130 117
-24.520271 -4.7934709 17.096205 153 135 123
-29.075178 -4.5084157 17.125729 87 106 94
-28.932764 -4.5177794 17.053741 68 91 76
-28.740639 -4.5551786 17.151157 91 112 98
-26.302399 -4.5455327 17.120224 67 80 68
-26.10117 -4.5071487 17.040443 84 96 81
-25.876451 -4.5563459 17.057007 120 119 112
-25.708916 -4.508101 17.043865 80 92 79
-25.369034 -4.5477505 17.179543 140 129 109
-36.263084 -4.285893 17.078011 167 161 156
-36.065212 -4.2072339 17.132666 162 165 165
-29.209314 -4.2155156 17.042532 97 108 101
-29.101233 -4.2614841 17.044334 89 111 99
-28.977585 -4.3614454 17.124939 73 92 78
-26.427444 -4.2620564 17.089233 74 84 76
-26.294563 -4.3083267 17.084679 71 87 76
-26.149788 -4.3211613 17.081856 93 107 92
-37.648647 -4.0517106 17.174198 116 116 106
-36.253899 -4.0939817 17.101463 164 150 143
-36.11414 -4.0827813 17.103819 184 163 160
-35.941547 -4.0657215 17.057074 163 141 138
-35.706219 -4.0508342 17.062645 140 126 123
-34.276745 -4.0062094 17.024857 173 168 176
-29.22879 -4.1281347 17.127855 92 113 102
-29.106415 -4.1063089 17.094404 90 107 98
-28.967077 -4.1000791 17.119051 98 119 110
-28.764158 -4.0088372 17.146519 60 82 67
-26.754065 -4.0857611 17.163527 64 82 71
-26.496016 -4.0631261 17.042702 76 93 85
-26.321741 -4.1657152 17.09713 53 71 59
-25.412378 -4.1586003 17.080292 123 134 120
-36.221596 -3.9214232 17.120884 161 141 132
-36.087605 -3.9181232 17.106594 161 142 133
-35.941185 -3.9251676 17.093113 156 139 134
-35.696388 -3.9185653 17.142334 133 124 125
-35.505352 -3.8778603 17.018494 141 123 113
-35.326748 -3.856936 17.041763 177 165 176
-34.861893 -3.8092833 17.032843 187 178 183
-34.694901 -3.8384895 17.107258 163 154 161
-34.468941 -3.8654377 17.127024 169 157 164
-34.302956 -3.8436797 17.107283 161 151 158
-29.665739 -3.9016809 17.092426 92 96 92
-29.437429 -3.8248224 17.01689 70 78 80
-29.221737 -3.9499564 17.09449 86 109 92
-29.062836 -3.9517756 17.04512 71 91 77
-28.876781 -3.8938785 17.042301 65 86 73
-28.715544 -3.8957517 17.144484 56 80 64
-28.59339 -3.8548472 17.03396 57 77 65
-26.670223 -3.8797917 17.087486 75 88 80
-26.558666 -3.9297168 17.06019 62 79 70
-24.553638 -3.8832462 17.094212 84 91 75
-37.473202 -3.6312764 17.017414 187 143 144
-37.035583 -3.688081 17.085867 179 156 148
-36.930664 -3.7033544 17.093254 164 142 139
-36.439041 -3.7252531 17.068665 124 115 107
-36.289516 -3.7158251 17.089361 167 144 138
-36.100849 -3.7103605 17.124626 151 136 136
-35.924648 -3.66257 17.069822 162 147 142
-35.678146 -3.6866934 17.106371 162 150 154
-35.517433 -3.6750889 17.115086 183 167 169
-35.30312 -3.7104273 17.132332 160 150 157
-35.076077 -3.70258 17.121836 177 165 171
-34.886349 -3.703974 17.10774 149 142 144
-34.718243 -3.7250547 17.13464 144 141 143
-34.50227 -3.7554245 17.129419 148 142 142
-34.306366 -3.728668 17.127237 161 151 156
-34.149666 -3.6549947 17.083118 160 155 163
-33.928093 -3.6210003 17.068598 132 133 149
-29.826685 -3.6533046 17.068043 88 95 92
-29.664906 -3.6860394 17.109001 132 144 133
-29.508486 -3.6617095 17.142834 79 94 85
-29.345516 -3.6489644 17.069168 85 102 95
-29.039133 -3.6457253 17.110516 74 91 82
-28.917059 -3.6749268 17.052172 81 100 88
-28.724625 -3.7594006 17.127407 64 84 72
-28.588673 -3.7320347 17.015789 112 135 119
-27.303467 -3.7762387 17.091648 93 100 96
-26.951889 -3.6165569 17.189369 97 118 103
-26.694006 -3.7356915 17.116457 100 111 105
-26.577133 -3.6687789 17.021484 79 91 80
-25.685352 -3.6524131 17.099419 116 112 114
-38.10899 -3.4130242 17.003666 157 146 139
-37.543121 -3.4662378 17.088446 192 180 158
-37.054604 -3.5172827 17.078146 175 153 144
-36.896244 -3.4843607 17.065544 176 150 150
-36.661682 -3.4607444 17.07181 170 150 154
-36.547806 -3.43979 17.079306 176 162 163
-36.281387 -3.4530358 17.096291 159 147 154
-36.115643 -3.4733117 17.105989 152 143 149
-35.894005 -3.4907887 17.104836 147 138 145
-35.711357 -3.4883609 17.101679 150 146 151
-35.491138 -3.5026503 17.132563 131 126 130
-35.291237 -3.5322273 17.124683 111 107 112
-34.8778 -3.5456245 17.153046 159 153 156
-34.746452 -3.4840236 17.160072 142 142 141
-34.537098 -3.4754951 17.139322 117 121 119
-34.303741 -3.4986718 17.106066 142 139 137
-34.147083 -3.5091453 17.088104 162 160 165
-33.905685 -3.4756408 17.102945 133 133 139
-33.749294 -3.4950135 17.069233 139 144 155
-29.85371 -3.5012636 17.114233 92 104 96
-29.732166 -3.4545515 17.043354 105 122 110
-29.492941 -3.5026486 17.122568 109 113 108
-29.303923 -3.4759111 17.071329 83 97 89
-29.076906 -3.5385559 17.099348 80 101 90
-28.986115 -3.5657589 17.072525 72 95 79
-28.781525 -3.577888 17.158772 72 96 77
-26.809402 -3.4424224 17.163025 65 79 74
-26.712524 -3.4747987 17.139652 101 114 107
-26.555561 -3.5468078 17.141811 78 83 77
-26.074833 -3.5682933 17.118103 97 98 98
-25.935509 -3.5141656 17.150463 51 57 55
-25.643433 -3.4528635 17.054668 117 110 115
-37.400181 -3.2016716 17.057991 152 125 114
-37.316399 -3.2082415 17.025246 208 184 182
-36.860691 -3.297641 17.104063 151 138 136
-36.681755 -3.3193691 17.090727 152 141 141
-36.507156 -3.3231847 17.125061 149 141 143
-36.338352 -3.3344991 17.130709 150 144 148
-36.097538 -3.3172357 17.166298 157 152 155
-35.642056 -3.3268483 17.152422 149 147 147
-35.493378 -3.3823044 17.133604 117 116 117
-34.900105 -3.278734 17.167902 107 112 107
-34.681747 -3.3217404 17.165627 116 117 114
-34.502903 -3.268285 17.159075 83 91 85
-34.288006 -3.29391 17.147396 109 113 108
-34.088066 -3.3043175 17.133017 114 115 113
-33.899601 -3.2997618 17.085777 119 119 121
-33.739849 -3.278271 17.05089 141 135 142
-33.484692 -3.2404499 17.014578 173 175 187
-32.723858 -3.363152 17.100521 41 61 60
-29.832169 -3.2678242 17.075272 95 115 106
-29.758392 -3.3023794 17.092999 115 128 120
-29.447598 -3.3394151 17.137922 110 114 110
-29.341726 -3.3140831 17.117857 99 113 109
-29.157423 -3.3269715 17.12508 90 103 97
-26.86499 -3.3026805 17.138971 69 80 73
-26.710814 -3.2826931 17.148891 75 89 79
-26.333555 -3.2790627 17.108273 114 124 113
-26.161526 -3.3381233 17.044807 109 108 100
-25.875814 -3.2721334 17.132292 104 103 97
-38.07935 -3.016047 17.036835 206 183 180
-37.96838 -3.0567076 17.107878 100 91 84
-37.449997 -3.1567745 17.055016 147 137 123
-37.318916 -3.0965862 17.098791 173 155 157
-37.066418 -3.0504224 17.091595 152 148 153
-36.898464 -3.047111 17.117382 146 140 142
-36.688557 -3.1093724 17.112226 149 143 147
-36.52816 -3.1313477 17.16255 162 155 162
-36.301205 -3.1839387 17.137264 122 121 126
-35.085003 -3.0672948 17.119062 95 102 93
-34.924046 -3.0881698 17.142937 91 97 89
-34.714531 -3.098012 17.155226 103 107 102
-34.50806 -3.0906453 17.133474 108 111 108
-34.30006 -3.1172128 17.119253 109 111 106
-34.095047 -3.118741 17.089901 118 117 116
-33.908836 -3.1151497 17.119282 127 127 128
-33.702435 -3.1347733 17.092297 142 139 144
-33.483475 -3.1393623 17.067677 148 144 152
-33.332661 -3.0633626 17.078278 136 139 146
-33.069759 -3.0634181 17.119331 142 151 156
-32.959911 -3.0204878 17.011719 150 153 160
-32.709328 -3.071943 17.000507 155 168 176
-29.864445 -3.1128802 17.084736 94 116 109
-29.719097 -3.1007946 17.087261 111 119 117
-29.520733 -3.0422773 17.0993 97 112 106
-29.351669 -3.0842986 17.102297 90 102 96
-29.085379 -3.1130841 17.137089 83 90 86
-28.959106 -3.0159965 17.114462 77 89 85
-28.562853 -3.1961179 17.110765 82 92 91
-28.259178 -3.0605583 17.076359 67 88 78
-28.194216 -3.0806768 17.047096 62 86 72
-27.24542 -3.1187558 17.135475 84 92 84
-27.131733 -3.0844369 17.059029 79 85 80
-26.837933 -3.1262991 17.163973 104 109 106
-26.723181 -3.0723724 17.09284 99 109 104
-26.525095 -3.0981371 17.106777 108 120 112
-26.372444 -3.1688058 17.074661 94 107 95
-38.115726 -2.921098 17.036217 184 161 151
-37.4534 -2.8906982 17.10519 145 132 122
-37.329788 -2.911876 17.113077 160 152 157
-37.056942 -2.9777451 17.141651 135 134 137
-36.908878 -2.9583163 17.133629 127 123 124
-36.745903 -2.9708312 17.125071 157 150 156
-36.239376 -2.8144703 17.005089 78 88 77
-36.0285 -2.8395684 17.191492 68 73 69
-35.092377 -2.8743465 17.113562 89 99 89
-34.934723 -2.9902737 17.159883 97 100 95
-34.638359 -2.9769793 17.153179 144 144 142
-34.480244 -2.9631553 17.103224 102 104 98
-34.313229 -2.9692388 17.111238 121 120 117
-34.096725 -2.9293208 17.125063 129 129 126
-33.932652 -2.9237204 17.122627 106 113 107
-33.638645 -2.8976092 17.096779 113 111 111
-33.518959 -2.8966596 17.11293 126 124 124
-33.281845 -2.9128492 17.091589 140 136 140
-33.130161 -2.9150834 17.09268 147 150 153
-32.918091 -2.9394186 17.102339 154 159 167
-32.718678 -2.8369651 17.055855 121 131 139
-29.869188 -2.9051447 17.110245 96 120 110
-29.699091 -2.901705 17.078831 96 119 107
-29.502251 -2.8924491 17.097982 95 108 103
-29.305635 -2.846947 17.103764 86 102 92
-29.091835 -2.8891456 17.104837 92 103 96
-28.941605 -2.9123118 17.101141 77 91 83
-28.31526 -2.9990034 17.090443 81 87 85
-28.011318 -2.8200369 17.156586 81 95 94
-27.47373 -2.8342938 17.117331 57 75 63
-27.280163 -2.866909 17.059559 92 100 94
-27.089703 -2.8863692 17.120028 75 89 82
-26.84971 -2.9315827 17.159403 98 112 105
-26.727468 -2.9565525 17.133755 103 116 111
-25.888449 -2.8547039 17.140862 121 128 126
-25.785097 -2.822767 17.012873 79 90 82
-38.418056 -2.7068944 17.005005 151 154 139
-38.287609 -2.7714021 17.060463 193 179 172
-37.504776 -2.6735761 17.10387 160 148 148
-37.342312 -2.6953752 17.151232 163 157 164
-36.084053 -2.7631943 17.124094 67 78 66
-34.910759 -2.7734208 17.168903 68 84 69
-34.014736 -2.7615781 17.155176 173 162 160
-33.833733 -2.694308 17.149807 110 113 109
-33.696438 -2.7315083 17.102552 102 107 102
-33.529984 -2.7256775 17.113781 115 119 118
-33.242641 -2.6955607 17.064564 133 131 140
-33.099297 -2.7393711 17.14896 150 149 157
-32.901596 -2.6654472 17.066956 125 126 133
-32.699997 -2.6826522 17.081797 146 151 161
-32.517162 -2.6446304 17.05224 127 130 139
-30.003942 -2.6916335 17.113461 118 135 129
-29.896688 -2.7260516 17.095047 96 114 111
-29.710119 -2.7248616 17.114288 90 109 105
-29.571724 -2.7500803 17.067005 77 99 92
-29.26302 -2.7276838 17.112612 84 95 89
-29.144039 -2.7331185 17.069294 90 107 95
-28.934523 -2.7285631 17.108788 84 98 92
-28.791733 -2.6839364 17.051052 101 120 109
-28.274525 -2.656064 17.101448 86 99 92
-28.12521 -2.6614707 17.07099 95 107 101
-27.935419 -2.6397314 17.092567 83 100 93
-27.66147 -2.7168872 17.085011 104 118 107
-27.447203 -2.709337 17.086647 72 86 78
-27.26512 -2.7085288 17.115225 86 100 91
-27.121412 -2.7753887 17.131872 98 113 105
-25.8505 -2.7418561 17.071472 184 188 187
-25.647696 -2.7289653 17.008713 120 128 115
-38.386131 -2.4999404 17.034199 136 136 112
-38.154789 -2.4133425 17.064596 149 145 126
-37.847458 -2.5433302 17.043716 158 153 140
-37.695461 -2.5240192 17.13595 158 151 148
-37.525417 -2.4880967 17.128729 156 150 159
-36.062744 -2.4439685 17.173925 122 110 103
-35.990387 -2.4637537 17.166031 113 111 99
-35.732059 -2.4063053 17.180317 106 107 96
-35.07769 -2.5651753 17.158888 86 92 82
-34.905949 -2.509382 17.141401 94 102 89
-33.841415 -2.5592093 17.127077 164 154 153
-33.776688 -2.5016205 17.159117 114 125 117
-33.265263 -2.4799011 17.111132 93 96 94
-33.053963 -2.5572515 17.056196 123 123 128
-32.889687 -2.5351572 17.097824 144 140 147
-32.702503 -2.5106997 17.102407 143 140 150
-32.539566 -2.4684794 17.095566 122 128 130
-32.352787 -2.4631777 17.067177 124 127 130
-29.247683 -2.5224953 17.119326 114 125 120
-29.119793 -2.5288267 17.062012 93 114 100
-28.875023 -2.4877555 17.054222 106 125 110
-28.730484 -2.5648947 17.037313 72 93 78
-28.477015 -2.510442 17.117605 88 101 95
-28.298634 -2.5148685 17.09185 99 113 104
-28.101463 -2.5365939 17.084538 91 105 98
-27.924139 -2.5453014 17.076614 75 94 85
-27.69886 -2.4978747 17.082781 74 90 80
-27.465996 -2.4594264 17.101948 86 105 96
-27.309725 -2.5017722 17.107719 87 104 93
-25.546078 -2.4192941 17.050861 153 155 150
-38.246258 -2.3649037 17.028118 208 205 190
-38.059422 -2.2663696 17.063231 158 155 149
-37.899796 -2.2621796 17.078831 154 155 160
-37.693317 -2.2645249 17.115444 162 159 169
-37.548378 -2.3407691 17.125244 184 175 186
-37.233574 -2.2003496 17.177252 93 96 93
-35.930473 -2.3478079 17.076054 104 106 98
-35.749725 -2.3189125 17.13966 100 103 95
-35.299545 -2.3287761 17.085978 83 93 79
-35.142448 -2.3341596 17.070772 109 116 106
-34.934959 -2.3174012 17.076946 55 66 52
-33.757626 -2.2518959 17.198051 47 60 43
-33.518604 -2.2908065 17.103149 107 110 105
-33.320198 -2.3771858 17.146215 127 124 122
-33.061581 -2.3153331 17.158142 113 117 118
-32.887974 -2.2476959 17.140947 128 128 130
-32.720692 -2.2759449 17.105621 138 133 142
-32.542599 -2.2939796 17.100222 132 133 138
-32.256413 -2.2404246 17.060064 132 135 145
-32.178665 -2.3015094 17.052933 174 181 191
-29.562998 -2.3944666 17.005329 71 86 79
-29.212799 -2.3512585 17.140297 75 93 89
-29.117147 -2.3296344 17.115419 88 101 93
-28.929983 -2.2837789 17.106827 87 102 94
-28.675137 -2.2817824 17.126209 89 98 94
-28.504818 -2.2798257 17.08667 89 96 91
-28.285048 -2.371129 17.103054 65 85 71
-27.851835 -2.3383694 17.111597 81 98 88
-27.666134 -2.2693555 17.102987 71 89 78
-27.451483 -2.273433 17.099659 76 96 83
-27.346155 -2.2909901 17.07548 74 91 81
-26.508371 -2.2481792 17.170889 94 111 105
-26.34223 -2.3767209 17.098007 93 103 99
-38.064701 -2.1068635 17.088511 152 147 144
-37.88047 -2.0854883 17.110071 158 154 161
-37.740765 -2.0984271 17.126144 142 139 147
-37.263336 -2.0997877 17.154697 111 111 110
-37.157162 -2.1254282 17.17737 109 112 109
-35.435089 -2.1415455 17.128868 184 171 166
-33.827477 -2.0809753 17.169563 56 65 51
-33.720322 -2.1014454 17.17811 66 76 64
-33.048252 -2.1294169 17.140991 117 111 114
-32.894131 -2.1102743 17.14397 110 107 107
-32.67514 -2.103322 17.095551 133 127 134
-32.547638 -2.0679412 17.086163 118 113 118
-32.296295 -2.0892704 17.096651 125 127 130
-32.135353 -2.0939741 17.067408 128 130 139
-31.858788 -2.0784988 17.042158 139 141 136
-31.719332 -2.0246494 17.030733 136 141 137
-31.504559 -2.0269632 17.086779 153 146 154
-29.059139 -2.0747166 17.120712 98 107 97
-28.909233 -2.0802145 17.096167 107 111 106
-28.690739 -2.1003942 17.089666 109 110 108
-28.510593 -2.0891688 17.117443 121 119 117
-28.340977 -2.0892017 17.040033 80 87 80
-27.706486 -2.0484107 17.072582 83 105 93
-27.49754 -2.0969069 17.072239 90 107 98
-27.289946 -2.0832381 17.163076 85 105 93
-27.19507 -2.0353992 17.109119 90 106 95
-26.454449 -2.1042933 17.093727 98 112 105
-26.325691 -2.1241214 17.100401 84 97 89
-26.11289 -2.0850952 17.14073 100 99 96
-25.877094 -2.0552006 17.036945 124 125 120
-39.237965 -1.8782282 17.003952 140 140 134
-39.056301 -1.8273983 17.112825 163 161 151
-38.937214 -1.8141903 17.142328 155 159 153
-38.649242 -1.9732436 17.019135 173 164 154
-38.049934 -1.9141605 17.073469 150 146 141
-37.86813 -1.9117589 17.111801 151 145 152
-37.720688 -1.8941765 17.138159 138 134 142
-37.514893 -1.942178 17.184528 134 131 137
-37.27512 -1.8822277 17.114502 100 101 98
-37.157894 -1.8671473 17.143652 113 115 114
-33.832546 -1.9590801 17.159536 155 150 154
-33.692581 -1.9344947 17.096403 75 84 74
-33.559124 -1.8924029 17.151737 86 92 84
-33.013062 -1.8187975 17.12748 50 61 45
-32.868568 -1.8831356 17.136782 98 100 101
-32.67033 -1.8829535 17.113045 120 119 123
-32.550171 -1.8516531 17.101435 113 113 112
-32.292599 -1.8724014 17.079185 143 139 143
-32.116905 -1.8753891 17.077267 141 136 144
-31.894836 -1.8643819 17.065754 139 140 143
-31.685919 -1.8921888 17.071459 119 121 123
-31.533237 -1.8822407 17.068502 154 154 155
-31.34889 -1.8605113 17.072996 156 154 158
-31.111568 -1.8344777 17.032154 160 161 153
-29.244617 -1.8406754 17.025204 99 114 109
-29.097881 -1.8980658 17.114559 116 126 117
-28.904964 -1.9153348 17.125954 116 120 114
-28.698315 -1.9360501 17.12228 127 126 121
-28.517076 -1.8927354 17.102074 101 108 101
-28.347004 -1.8919579 17.081598 87 94 90
-27.861496 -1.8445704 17.058645 103 117 103
-27.706959 -1.8915442 17.083702 89 108 97
-27.501152 -1.9312825 17.075617 86 106 96
-27.301649 -1.9191445 17.074724 81 100 89
-27.093279 -1.9278452 17.073246 85 102 94
-26.939039 -1.8612845 17.087662 95 107 99
-26.727623 -1.8699205 17.087694 71 94 80
-26.583555 -1.8583362 17.058428 89 109 96
-26.291288 -1.9987779 17.058668 80 85 78
-26.189009 -1.8325783 17.091415 99 105 105
-39.230499 -1.7519668 17.104538 65 78 58
-39.087826 -1.728483 17.088146 149 147 140
-38.916183 -1.6858513 17.097286 161 159 151
-38.700249 -1.6200961 17.092981 168 165 146
-38.471329 -1.6895542 17.040749 147 152 135
-38.36097 -1.6225559 17.073811 173 165 162
-38.067974 -1.7502079 17.084394 147 150 134
-37.884388 -1.7151645 17.111082 137 136 133
-37.704632 -1.6957692 17.116142 147 142 146
-37.514481 -1.6845475 17.118523 124 124 127
-37.287342 -1.6964177 17.129267 118 120 120
-37.121208 -1.7262825 17.143408 138 140 142
-34.068268 -1.6802965 17.070608 104 99 93
-33.982307 -1.6356175 17.181927 68 71 60
-33.236774 -1.6611161 17.087076 60 70 65
-33.103329 -1.6980296 17.101133 68 76 70
-32.901443 -1.7109592 17.121664 72 78 74
-32.681202 -1.7254649 17.114443 128 131 132
-32.457336 -1.6887985 17.078682 102 102 99
-32.300472 -1.7043666 17.156038 128 126 128
-32.098541 -1.6936147 17.112148 139 134 140
-31.913731 -1.6988381 17.09481 132 132 137
-31.684689 -1.7016299 17.043047 127 132 126
-31.510782 -1.69954 17.099443 133 131 131
-31.335041 -1.7095925 17.067732 116 118 115
-31.176117 -1.6525468 17.035927 116 120 124
-29.574196 -1.7280186 17.059734 72 99 84
-29.257923 -1.6814886 17.077654 79 100 91
-29.083031 -1.7079476 17.111275 97 115 105
-28.932663 -1.7044176 17.11195 118 129 118
-28.471359 -1.6853677 17.102131 110 120 112
-28.320074 -1.6380743 17.049377 106 120 111
-28.100878 -1.6718847 17.125908 78 93 83
-27.872768 -1.7215375 17.089024 103 118 106
-27.717098 -1.725629 17.084938 88 108 95
-27.488087 -1.7262388 17.094694 74 97 85
-27.295584 -1.6870338 17.05703 85 103 94
-27.09938 -1.693978 17.044731 87 101 93
-26.91342 -1.728465 17.045506 107 122 112
-26.4888 -1.7431691 17.110353 96 110 101
-26.33124 -1.6918809 17.013033 80 97 88
-39.20063 -1.4913139 17.004448 125 127 114
-39.095356 -1.4657928 17.09297 97 104 92
-38.923386 -1.49175 17.111063 108 115 98
-38.732025 -1.5312417 17.074747 164 161 143
-38.485138 -1.502827 17.080425 176 172 165
-38.307106 -1.4911158 17.089548 156 156 146
-38.027012 -1.5196248 17.111288 113 119 108
-37.89283 -1.4985712 17.069315 114 116 115
-37.718884 -1.5395521 17.092604 125 123 118
-37.49263 -1.5155075 17.14139 132 135 130
-37.316994 -1.5345342 17.145416 169 168 171
-34.403282 -1.5711718 17.131523 50 62 48
-34.281811 -1.5146722 17.092512 83 86 74
-34.132027 -1.4958068 17.15155 89 94 82
-33.905163 -1.5298073 17.084801 161 158 150
-33.690006 -1.4489986 17.167353 125 126 121
-33.465511 -1.412552 17.102121 65 70 59
-33.272591 -1.4906588 17.131599 71 78 73
-33.120621 -1.5105252 17.116179 100 99 97
-32.876713 -1.4832624 17.111504 122 111 115
-32.700558 -1.4976411 17.120277 92 96 95
-32.513397 -1.5396342 17.070652 106 108 106
-32.300243 -1.5104843 17.085665 100 104 105
-32.100006 -1.5041484 17.10025 100 105 107
-31.894814 -1.5172886 17.107836 97 106 105
-31.654863 -1.5484116 17.073383 104 110 107
-31.518915 -1.5554225 17.113209 117 119 117
-29.431194 -1.4588287 17.078094 88 116 101
-29.274731 -1.5028185 17.095215 97 117 105
-29.088751 -1.4950039 17.112425 104 121 109
-28.951141 -1.4966335 17.097078 112 121 113
-28.464411 -1.531866 17.155205 116 125 117
-28.293589 -1.5428957 17.062214 110 123 114
-28.085678 -1.5201862 17.091541 68 84 76
-27.838919 -1.4875236 17.017227 58 70 60
-27.627642 -1.4419889 17.115448 76 99 84
-27.492249 -1.5026916 17.120478 98 114 102
-27.305483 -1.4861691 17.086607 124 126 119
-27.153479 -1.5170033 17.054035 88 98 92
-39.071175 -1.3040563 17.085112 148 144 138
-38.916492 -1.2579459 17.074652 140 136 130
-38.669773 -1.2860748 17.097305 145 146 131
-38.490543 -1.2930315 17.112129 149 150 139
-38.351295 -1.320689 17.080402 154 156 145
-38.016907 -1.3814403 17.044655 119 124 111
-37.922592 -1.3565459 17.021641 145 140 129
-37.315754 -1.2906327 17.095926 87 87 89
-35.360649 -1.3565086 17.149593 162 149 158
-34.400433 -1.3409438 17.199183 92 99 93
-34.275063 -1.2964592 17.170349 89 100 88
-33.934986 -1.3872285 17.114635 59 70 56
-33.618511 -1.2655455 17.08143 101 105 95
-33.481403 -1.2979392 17.105104 73 79 68
-33.294792 -1.3100851 17.148504 80 84 75
-33.091644 -1.3029559 17.157284 110 108 105
-32.893028 -1.2990754 17.113218 118 115 115
-32.712742 -1.308387 17.091238 90 93 90
-32.523052 -1.3016399 17.097456 98 103 103
-32.286236 -1.2967927 17.10401 104 109 110
-32.160397 -1.3099811 17.080544 115 119 124
-29.435528 -1.3301677 17.130754 86 112 96
-29.286028 -1.3148856 17.091413 108 128 117
-29.106102 -1.3097531 17.085917 112 124 115
-28.881315 -1.3162502 17.108343 97 111 102
-28.709187 -1.2627283 17.109705 98 115 103
-28.53694 -1.2232876 17.090057 68 89 76
-28.29755 -1.326995 17.124409 135 136 128
-28.099075 -1.2673081 17.083321 95 101 96
-27.932741 -1.3336177 17.073877 75 93 80
-27.604164 -1.3951645 17.172321 71 95 77
-27.471317 -1.3492166 17.129358 76 91 77
-27.296452 -1.3654755 17.093449 102 103 98
-27.140226 -1.3850857 17.028189 82 98 88
-26.87286 -1.2445782 17.0961 108 97 93
-26.738688 -1.3071685 17.069223 149 121 133
-39.210571 -1.1145813 17.065027 138 143 136
-39.093742 -1.1448987 17.119169 111 116 107
-38.878429 -1.1235182 17.100185 98 105 93
-38.705883 -1.1170805 17.099226 134 137 125
-38.482811 -1.088793 17.080721 155 146 139
-38.369987 -1.091472 17.17502 135 141 128
-37.981354 -1.0738814 17.127033 136 127 120
-37.411739 -1.1086086 17.19751 187 166 175
-37.354164 -1.0065689 17.131664 95 108 99
-36.163723 -1.1043478 17.027704 43 55 43
-34.629646 -1.0575967 17.098991 51 66 49
-34.524418 -1.0814654 17.153128 46 60 42
-34.231892 -1.0269772 17.175659 160 159 164
-34.194687 -1.0728209 17.151333 128 131 124
-33.87825 -1.0922971 17.04438 57 63 51
-33.715496 -1.1784298 17.117573 89 99 86
-33.494312 -1.1582712 17.131504 103 106 103
-33.365437 -1.1682438 17.152624 87 92 85
-33.101246 -1.0874356 17.150473 109 109 104
-32.924377 -1.1001011 17.126768 106 105 103
-32.694553 -1.092479 17.069555 106 106 103
-32.49107 -1.097874 17.076385 130 125 125
-32.303104 -1.0844995 17.084139 132 128 132
-32.156487 -1.124357 17.068287 123 126 126
-29.265154 -1.1244558 17.109472 109 129 117
-29.135435 -1.1051407 17.099174 101 116 110
-28.911861 -1.1326826 17.044586 77 101 89
-28.671368 -1.1164043 17.118444 99 116 104
-28.510378 -1.0899326 17.124397 115 123 113
-28.290066 -1.0609879 17.090214 86 95 87
-28.090849 -1.1096667 17.082012 85 93 88
-27.998623 -1.1997527 17.023567 74 84 71
-27.228251 -1.0242541 17.12878 86 86 78
-27.045923 -1.0678489 17.044069 103 100 96
-26.919601 -1.1273485 17.097588 98 96 91
-26.798412 -1.0886774 17.010164 90 85 91
-39.014153 -0.97226405 17.153957 33 57 33
-38.851532 -0.86440659 17.08927 97 107 90
-38.68203 -0.90568972 17.093933 135 137 125
-38.515839 -0.90458637 17.104607 135 136 125
-38.349586 -0.92316532 17.080927 128 128 113
-38.132633 -0.81514663 17.032091 150 136 127
-37.99464 -0.99945962 17.197361 115 105 93
-37.704292 -0.86570001 17.064819 164 147 152
-37.530434 -0.92688906 17.111637 171 156 164
-37.254684 -0.9225738 17.119167 105 114 108
-37.15691 -0.86494601 17.18045 92 98 98
-36.786934 -0.92382574 17.114115 147 154 147
-34.734089 -0.87097061 17.03372 67 81 64
-34.529575 -0.89298695 17.021118 72 84 70
-34.291046 -0.91142857 17.07057 106 107 103
-34.192364 -0.90898138 17.012714 64 68 62
-33.977818 -0.84468949 17.095745 67 71 70
-33.427639 -0.95432884 17.047951 155 149 151
-33.203098 -0.8824721 17.17502 89 96 89
-33.088814 -0.95337439 17.159395 114 114 108
-32.867386 -0.91821277 17.110418 133 128 129
-32.700253 -0.89930987 17.095493 119 116 115
-32.514061 -0.89926481 17.091236 124 117 117
-32.339733 -0.90757591 17.091492 133 129 131
-32.152203 -0.9972316 17.094017 84 94 85
-29.234224 -0.9874301 17.171638 69 81 79
-29.112646 -0.91728675 17.058672 83 104 91
-28.81587 -0.98849285 17.19578 123 149 140
-28.636808 -0.96149087 17.124491 85 104 92
-28.501619 -0.9607361 17.10034 118 127 117
-28.364086 -0.96416819 17.096035 126 133 124
-28.128008 -0.93144512 17.058849 105 109 101
-27.220583 -0.98980105 17.060623 97 111 95
-27.167038 -0.97140825 17.052368 82 87 81
-26.879669 -0.8456471 17.048359 107 108 99
-26.750025 -0.88632751 17.105869 109 105 104
-38.729572 -0.77630192 17.129219 96 108 93
-38.562927 -0.77552098 17.135208 74 88 72
-37.748596 -0.70001429 17.075907 170 165 173
-37.512798 -0.70079887 17.035534 107 106 110
-37.075291 -0.77925038 17.105581 96 106 95
-34.764549 -0.69768733 17.008099 51 57 53
-34.579144 -0.68492609 17.14315 77 93 80
-33.982246 -0.70078146 17.013245 71 78 70
-33.273121 -0.65232557 17.124153 53 62 51
-33.062447 -0.6348871 17.111965 66 74 64
-32.890099 -0.6440962 17.125267 77 83 76
-32.713512 -0.69964522 17.118372 100 101 97
-32.479897 -0.7105934 17.112759 129 121 121
-32.341503 -0.69196051 17.084585 137 133 134
-32.156494 -0.61841345 17.041885 111 116 115
-29.72134 -0.71359819 17.025969 107 114 106
-26.769257 -0.73554963 17.117456 100 97 90
-37.835648 -0.55175346 17.130323 126 120 106
-37.468964 -0.46705779 17.155056 150 138 136
-34.812675 -0.53345799 17.048988 85 89 90
-34.602428 -0.5182516 17.074783 98 108 97
-34.596615 -0.49268523 17.088564 74 88 75
-34.078667 -0.50587583 17.178455 129 124 119
-33.990204 -0.43966213 17.027847 156 152 149
-33.419437 -0.46926787 17.103142 63 70 62
-33.294758 -0.57839066 17.083549 61 73 59
-33.084549 -0.55099267 17.075661 60 72 58
-32.902794 -0.48724899 17.07515 102 104 96
-32.66013 -0.50858051 17.103035 91 92 86
-32.492878 -0.51266497 17.108862 110 108 103
-32.30941 -0.49942151 17.109055 122 120 118
-32.149712 -0.4734121 17.077105 146 141 142
-37.855961 -0.31947634 17.12545 146 140 151
-37.665081 -0.21998659 17.174864 184 170 183
-37.555855 -0.32870248 17.113068 118 115 110
-34.250206 -0.24385101 17.043758 100 108 103
-33.480057 -0.31781217 17.087778 104 108 98
-33.302086 -0.26097375 17.107607 110 109 104
-33.070141 -0.27957979 17.0839 98 102 91
-32.913898 -0.31774503 17.038157 101 101 93
-32.698895 -0.29093403 17.069452 96 100 95
-32.450829 -0.31208393 17.047712 101 108 99
-32.247086 -0.3170312 17.074488 139 139 136
-32.147057 -0.313564 17.071135 131 128 127
-37.84285 -0.014460392 17.044617 151 147 142
-37.662926 -0.084078431 17.069147 142 136 136
-37.522148 -0.11073633 17.053125 130 126 127
-34.145927 -0.1437507 17.002281 92 107 104
-33.227383 -0.11075503 17.100397 113 112 107
-33.138264 -0.10000137 17.096706 106 108 101
-32.899067 -0.070228457 17.051903 95 98 94
-32.682541 -0.073483497 17.119205 115 115 113
-32.490269 -0.089661822 17.11487 135 130 130
-32.344368 -0.13186981 17.071087 122 121 118
-32.124184 -0.15072969 17.099499 149 145 151
-31.940901 -0.051567402 17.075516 181 177 189
-27.481691 -0.10448043 17.140171 129 134 122
-27.38714 -0.12850541 17.152859 91 95 81
-27.131195 -0.12580179 17.026134 112 125 108
-37.837307 0.10291535 17.043201 156 146 145
-37.718224 0.086807884 17.095381 133 133 129
-37.539185 0.082143262 17.096632 139 132 131
-33.232281 0.06365405 17.077681 118 121 112
-33.085407 0.10226864 17.105467 104 107 100
-32.901649 0.10798031 17.123369 103 107 100
-32.714066 0.093468256 17.118904 95 102 94
-32.535664 0.054434262 17.098927 112 117 110
-32.294102 0.08964926 17.126514 143 136 133
-32.156754 0.15053378 17.159189 147 140 137
-31.921762 0.13134333 17.082016 158 149 163
-31.703732 0.1265253 17.031984 135 149 141
-27.508461 0.059345286 17.08523 103 112 104
-37.70454 0.20641978 17.13442 153 149 157
-37.518166 0.29518485 17.118763 156 153 152
-37.377445 0.35315844 17.113272 140 139 139
-33.613247 0.33933738 17.090136 88 93 92
-33.549686 0.31337801 17.090666 66 73 68
-33.059132 0.25335911 17.15756 105 107 104
-32.880138 0.26275417 17.170588 113 114 107
-32.717186 0.265331 17.151199 107 110 103
-32.522484 0.3303349 17.167213 106 110 104
-32.295376 0.25815743 17.110695 135 132 128
-32.075356 0.27955887 17.103085 167 158 159
-31.963465 0.32516065 17.103287 156 151 152
-31.710485 0.3007212 17.085045 159 165 162
-37.502323 0.50018489 17.081989 176 170 170
-37.309689 0.52710384 17.114313 131 129 127
-37.190918 0.54531574 17.16778 127 133 133
-36.745281 0.50810695 17.172546 101 114 106
-33.624409 0.52324337 17.106285 92 94 91
-33.474472 0.52424484 17.091284 65 73 66
-33.387329 0.49564272 17.105324 62 73 67
-33.042168 0.58916879 17.008818 68 73 69
-32.999352 0.59908485 17.093845 65 72 64
-32.62307 0.48333523 17.189762 116 119 115
-32.535576 0.50242627 17.183706 114 114 113
-32.050865 0.4971053 17.08042 151 145 144
-31.941593 0.49550653 17.11702 159 148 151
-31.733387 0.49625027 17.127651 54 68 57
-37.54097 0.63940316 17.034063 159 153 157
-37.295288 0.68571728 17.09985 133 135 128
-37.13945 0.71338207 17.083256 143 144 139
-36.816906 0.73124433 17.097229 125 132 133
-33.893673 0.78260726 17.052664 79 83 82
-33.684578 0.74319434 17.128975 89 94 89
-33.501179 0.73453027 17.109829 87 91 86
-33.313625 0.71093452 17.119013 87 89 87
-33.096836 0.68188512 17.084505 76 82 76
-32.906273 0.74986351 17.0497 79 87 81
-32.711647 0.73277295 17.139484 104 104 101
-32.52309 0.69763023 17.143742 107 105 106
-32.27013 0.78951544 17.183754 133 125 131
-32.121449 0.72330004 17.115208 136 133 134
-31.835459 0.76636124 17.152405 109 111 102
-31.762184 0.62011015 17.051807 67 69 64
-28.735977 0.77012807 17.154438 101 102 96
-37.272484 0.90730572 17.068888 111 115 104
-37.104275 0.85928756 17.096455 137 139 129
-36.883686 0.88991374 17.077299 123 129 121
-36.734875 0.89191115 17.06658 108 115 110
-33.840633 0.90585166 17.086143 95 101 96
-33.681835 0.90048742 17.087145 87 93 85
-33.526875 0.85560125 17.124134 97 100 94
-33.272747 0.88608384 17.146572 121 116 117
-33.105324 0.89169627 17.119228 92 97 92
-32.880123 0.88179934 17.073793 115 115 112
-32.666847 0.88505471 17.159702 110 112 107
-32.458267 0.9492414 17.161354 120 121 119
-32.317795 0.91278428 17.148829 136 132 134
-32.111839 0.90492272 17.078064 137 142 138
-31.920826 0.82807171 17.126774 91 99 84
-37.142761 1.1033626 17.117737 122 131 128
-36.92041 1.0920435 17.101976 129 135 126
-36.707691 1.0866177 17.068796 106 113 102
-36.494884 1.1441746 17.108709 121 124 118
-36.376709 1.1707091 17.1021 140 142 138
-33.8396 1.0921727 17.066784 96 99 87
-33.704269 1.0641179 17.117111 105 109 102
-33.527912 1.1491892 17.139099 88 92 87
-33.273952 1.0888882 17.117498 115 106 109
-33.099052 1.0653967 17.122587 116 112 110
-32.866848 1.1039627 17.119841 124 119 118
-32.699093 1.0763109 17.104681 117 113 110
-32.480637 1.1300027 17.151672 92 97 87
-32.339142 1.0964868 17.170572 84 93 82
-32.030594 1.0161906 17.175434 67 83 54
-37.015038 1.2563481 17.075489 175 173 177
-36.834515 1.3616071 17.129292 88 95 88
-36.47414 1.302799 17.133274 125 127 124
-36.319523 1.3364083 17.11339 127 128 125
-36.134186 1.3221867 17.14212 132 132 133
-34.108982 1.3825538 17.010733 76 80 82
-33.911907 1.3186178 17.107689 88 94 86
-33.617737 1.3224241 17.107286 110 114 106
-33.496017 1.319008 17.112316 100 101 95
-33.318737 1.3297678 17.128292 108 103 101
-33.119499 1.3247848 17.147879 108 110 109
-32.860962 1.2660346 17.138834 139 127 132
-32.703083 1.2763987 17.089991 174 158 167
-32.501022 1.3047436 17.105516 119 116 114
-32.358284 1.2998655 17.089386 79 93 80
-37.188087 1.5634234 17.012463 105 108 101
-36.770924 1.5069344 17.076002 114 113 102
-36.456001 1.5388155 17.09267 147 145 142
-36.339222 1.4940107 17.098684 135 136 130
-36.170528 1.4642268 17.053816 139 141 134
-35.99279 1.5705965 17.19883 117 125 120
-35.736004 1.5484862 17.180653 110 118 103
-33.878654 1.4538847 17.105247 79 81 83
-33.616467 1.4270788 17.023758 127 118 116
-33.480972 1.4215703 17.107201 107 106 99
-33.289864 1.4991046 17.093035 114 111 108
-33.08049 1.5256842 17.09519 115 120 112
-32.888172 1.4800133 17.120424 127 121 122
-32.632698 1.5227311 17.07552 139 135 137
-32.512371 1.4578409 17.084503 122 122 120
-37.282734 1.6779962 17.070234 146 142 135
-36.871281 1.699303 17.068365 185 178 179
-36.695675 1.7169667 17.07836 128 129 124
-36.492813 1.7041247 17.099857 150 146 142
-36.315903 1.7248833 17.128614 128 129 121
-36.111023 1.7149283 17.122776 116 118 109
-35.89299 1.6802192 17.093378 113 118 111
-35.694458 1.6612693 17.121502 94 99 91
-35.511391 1.7399813 17.120916 89 92 87
-35.341778 1.7383159 17.120691 94 98 92
-33.267696 1.6910319 17.079813 126 121 118
-33.120026 1.7171193 17.088627 87 96 81
-32.900017 1.6907119 17.110653 84 87 83
-32.731377 1.7262731 17.153526 93 96 84
-32.481987 1.7586527 17.137949 73 94 80
-37.141911 1.8400965 17.049007 119 121 102
-36.92292 1.9334375 17.039345 207 196 190
-36.673733 1.8778923 17.092604 126 126 121
-36.497662 1.8966283 17.105478 116 119 111
-36.308384 1.8726081 17.11442 120 121 113
-36.104515 1.918197 17.094217 125 126 113
-35.899994 1.9054812 17.105574 129 131 122
-35.668262 1.9110321 17.109938 116 116 112
-35.523151 1.9302864 17.053709 110 114 110
-35.339085 1.9136145 17.102924 84 90 84
-34.883163 1.9405737 17.102362 117 118 116
-34.76038 1.9128498 17.123823 124 128 124
-33.450489 1.9199643 17.116373 115 110 104
-33.260975 1.8944055 17.088507 126 121 115
-33.139801 1.8544117 17.085752 75 85 70
-32.924294 1.8736798 17.129143 59 77 58
-32.762585 1.9052867 17.147572 63 82 66
-32.50351 1.8844345 17.123007 80 106 89
-36.435387 2.137852 17.138321 165 152 143
-36.296989 2.0823426 17.10228 153 149 139
-36.154041 2.0535636 17.112713 136 133 121
-35.869953 2.0732777 17.133501 120 121 110
-35.680653 2.1017959 17.132854 134 131 124
-35.553253 2.121372 17.122974 115 114 108
-35.302994 2.1101973 17.112192 104 108 103
-35.049061 2.1118014 17.120073 140 137 137
-34.880859 2.0967529 17.090427 117 115 112
-34.762917 2.0892596 17.112492 130 132 129
-33.525688 2.0766611 17.037109 53 64 53
-33.2658 2.0675271 17.115986 83 89 76
-33.184166 2.1870117 17.117767 93 105 96
-36.662052 2.3296857 17.060078 108 112 91
-36.503471 2.3206122 17.094978 123 126 114
-36.329433 2.3175533 17.140615 135 136 125
-36.090477 2.3569679 17.148672 157 144 137
-35.878872 2.3170404 17.110743 133 130 122
-35.694019 2.2898607 17.099899 109 111 103
-35.551716 2.2385473 17.09828 98 101 92
-35.303429 2.2549863 17.01384 107 110 103
-35.057106 2.2767525 17.054579 124 127 115
-34.871681 2.227144 17.113888 101 106 92
-33.455555 2.3065569 17.130274 123 119 112
-33.1777 2.2326012 17.062822 54 74 62
-36.647911 2.442471 17.079111 151 150 126
-36.494049 2.4596689 17.103399 116 125 107
-36.298157 2.4917111 17.138451 100 107 92
-36.076866 2.4569602 17.126663 113 115 102
-35.939339 2.4435978 17.131405 120 120 107
-35.709682 2.4890037 17.077747 110 115 101
-35.471169 2.5666444 17.177071 154 161 145
-36.428757 2.7344344 17.114416 170 163 144
-36.32896 2.6393805 17.111256 96 111 88
-35.682095 2.6645467 17.047615 60 73 53
-34.728828 2.7361236 17.152168 46 68 45
-34.196701 2.6024122 17.184021 31 58 25
-30.912701 4.0601673 17.103144 69 81 64
-30.752966 4.1198144 17.02947 100 104 85
-31.708136 4.3879576 17.088638 163 156 138
-31.815039 4.4722462 17.020288 140 129 110
-31.699118 4.5112066 17.05331 130 128 112
-30.876898 4.5098767 17.161821 156 150 135
-30.770039 4.5642219 17.08614 155 141 127
-32.242371 4.7446237 17.11771 160 146 133
-32.097237 4.6849012 17.118187 180 166 149
-31.956806 4.697999 17.028574 139 137 120
-31.66239 4.6855259 17.023075 88 101 79
-31.116337 4.7661591 17.141361 186 185 167
-30.853523 4.69665 17.104769 121 119 103
-30.725565 4.7275586 17.102308 145 140 127
-32.29768 4.8993363 17.082897 165 158 142
-32.119064 4.8749537 17.111225 175 162 147
-31.932674 4.9155474 17.107273 130 129 112
-31.458113 4.9729056 17.182808 241 193 193
-30.913034 4.8715143 17.051128 96 101 88
-30.734171 4.8685904 17.082901 100 105 93
-32.302742 5.0980763 17.081398 135 133 118
-32.007946 5.0332551 17.110069 114 111 94
-31.889706 5.0863805 17.078539 128 132 111
-31.735802 5.1533456 17.069544 157 154 137
-32.282101 5.2956486 17.087811 100 108 95
-32.039608 5.2976813 17.17359 191 178 161
-31.870922 5.2650051 17.129095 144 147 125
-31.708912 5.2729149 17.059437 146 142 125
-31.5366 5.3342381 17.071463 172 144 137
-31.377504 5.3498869 17.136497 95 85 83
-32.28027 5.4790082 17.044714 89 101 84
-32.101059 5.5218401 17.113956 122 124 111
-31.931967 5.5322366 17.12701 144 142 129
-31.458536 5.4785309 17.098661 159 140 138
-31.335217 5.4723315 17.143337 114 110 100
-32.063824 5.6606884 17.085613 139 135 123
-31.97179 5.7909679 17.191212 164 145 138
-34.068428 5.9283171 17.159275 133 145 122
-33.961994 5.9701653 17.159233 103 120 100
-33.622002 5.9735594 17.088005 84 102 88
-33.481182 5.9153576 17.150473 117 131 115
-32.099354 5.9135299 17.100702 165 154 145
-31.995308 5.9368877 17.161526 165 146 142
-34.518379 6.1855655 17.186209 111 116 99
-34.265549 6.1505747 17.147541 155 169 155
-34.099865 6.0774236 17.152967 103 117 101
-33.937714 6.129714 17.154682 79 97 81
-33.629635 6.0974622 17.102125 81 97 83
-33.51453 6.0880184 17.146105 82 98 84
-33.328915 6.0851541 17.110323 101 119 101
-32.209709 6.1922188 17.182709 133 129 120
-32.172859 6.158319 17.172535 153 133 126
-34.677235 6.3527994 17.134577 168 176 159
-34.495972 6.2778711 17.135794 166 169 151
-34.314774 6.2566876 17.13349 119 130 116
-33.894718 6.3113327 17.13747 85 102 87
-33.679867 6.2753644 17.133442 94 111 96
-33.535709 6.3113875 17.13752 81 101 86
-33.32336 6.3110394 17.124111 75 97 80
-32.909328 6.3627033 17.125675 90 105 89
-32.261707 6.3304381 17.119583 185 170 165
-34.867676 6.525959 17.139902 125 134 118
-34.742813 6.4799933 17.177683 114 131 112
-33.888695 6.4824967 17.129625 101 119 104
-33.655411 6.4776921 17.096695 80 102 85
-33.480732 6.4833107 17.160276 79 101 87
-33.346516 6.5193377 17.123211 80 102 86
-33.04417 6.5582566 17.046661 60 81 66
-32.89904 6.5058756 17.092672 61 79 66
-32.779736 6.4924607 17.08732 45 67 53
-35.007496 6.7448878 17.195238 116 132 119
-34.906403 6.689146 17.161854 128 141 124
-33.45644 6.7054992 17.14274 79 100 84
-33.311241 6.7026448 17.161188 94 112 97
-32.887596 6.6514955 17.036188 48 68 55
-32.474842 6.7513371 17.159857 61 88 71
-34.944603 6.8832016 17.156223 139 144 135
-33.46233 6.8939328 17.152502 67 87 72
-33.280712 6.8669782 17.128613 84 103 89
-33.132057 6.9785261 17.136894 90 108 98
-32.916927 6.9157557 17.122707 73 96 81
-32.701412 6.9040093 17.113962 56 83 64
-32.555367 6.8907404 17.042763 55 79 62
-34.895386 7.1029563 17.154522 114 123 115
-34.672298 7.0929694 17.175299 85 106 83
-34.456562 7.1239247 17.149841 112 122 108
-34.378906 7.05474 17.158245 143 156 151
-33.269451 7.0784235 17.122341 74 97 82
-33.105309 7.0466752 17.09897 72 94 83
-32.824505 7.1101131 17.100245 59 88 66
-32.736752 7.1129837 17.064709 54 83 60
-34.618416 7.2887464 17.106583 59 80 61
-34.498497 7.257268 17.122715 108 117 102
