ply
format ascii 1.0
comment PCL generated
element vertex 1108
property float x
property float y
property float z
property uchar red
property uchar green
property uchar blue
element face 0
element camera 0
property float view_px
property float view_py
property float view_pz
property float x_axisx
property float x_axisy
property float x_axisz
property float y_axisx
property float y_axisy
property float y_axisz
property float z_axisx
property float z_axisy
property float z_axisz
property float focal
property float scalex
property float scaley
property float centerx
property float centery
property int viewportx
property int viewporty
property float k1
property float k2
end_header
-92.69017 -47.907772 20.720654 128 130 128
-92.518394 -47.894058 20.674845 119 126 119
-88.61409 -47.85445 20.661144 176 148 142
-88.46978 -47.879646 20.705229 152 134 126
-88.315567 -47.884338 20.695456 144 135 126
-88.106628 -47.891102 20.689951 127 127 121
-87.897003 -47.912155 20.715712 124 122 115
-87.713638 -47.935574 20.708221 109 110 102
-87.530876 -47.941799 20.647753 125 123 116
-102.3381 -47.632244 20.757151 53 71 59
-100.65845 -47.614502 20.631645 77 98 83
-100.212 -47.676476 20.653107 116 124 118
-100.06735 -47.696186 20.655085 93 101 96
-99.885201 -47.671967 20.688557 105 114 109
-99.762291 -47.673477 20.701876 89 95 89
-98.695786 -47.725983 20.636688 96 110 99
-98.505035 -47.736023 20.693239 86 101 87
-98.210632 -47.708607 20.770773 56 77 60
-98.085297 -47.623413 20.711523 81 91 84
-97.899071 -47.714222 20.713707 130 127 126
-97.73996 -47.710396 20.719807 139 133 134
-97.307243 -47.753033 20.642014 85 96 86
-97.095551 -47.73584 20.733944 62 78 65
-95.879318 -47.723312 20.688448 46 62 44
-95.757698 -47.737392 20.634453 36 61 36
-95.102074 -47.752075 20.702499 53 60 53
-94.866699 -47.711601 20.670643 48 61 49
-94.717255 -47.72686 20.747143 50 62 47
-94.447578 -47.69511 20.688507 54 67 53
-94.298233 -47.674362 20.72356 72 83 73
-94.143158 -47.638432 20.732899 90 96 89
-93.682831 -47.654591 20.748257 95 104 93
-93.515373 -47.691578 20.7218 92 103 94
-93.289696 -47.707325 20.707041 89 101 90
-93.103012 -47.695877 20.714565 125 128 118
-92.899956 -47.689384 20.719866 123 127 119
-92.695808 -47.707481 20.74246 147 147 140
-92.53968 -47.724045 20.709314 135 133 134
-88.825417 -47.628815 20.664679 129 123 111
-88.718048 -47.641598 20.639801 143 128 116
-88.472733 -47.709332 20.703669 165 143 136
-88.287331 -47.700977 20.667963 162 141 132
-88.103264 -47.705051 20.70503 152 137 130
-87.900116 -47.713619 20.662642 158 142 137
-87.756721 -47.764854 20.616772 157 148 146
-101.04136 -47.44212 20.757963 98 121 108
-100.89864 -47.486507 20.654734 82 100 88
-100.51223 -47.466042 20.723345 92 110 100
-100.26274 -47.510704 20.671135 79 95 85
-100.09447 -47.476265 20.717966 95 105 102
-99.886818 -47.531178 20.687887 92 99 96
-99.760612 -47.528915 20.714388 105 109 106
-99.569344 -47.497978 20.669964 81 89 80
-98.943474 -47.439392 20.723007 85 97 85
-98.680244 -47.477859 20.699762 85 105 91
-98.539299 -47.494595 20.737185 64 83 71
-98.262115 -47.510635 20.675613 50 74 61
-98.048706 -47.524853 20.69348 94 104 101
-97.935516 -47.48645 20.692841 114 117 115
-97.720871 -47.499378 20.773764 124 123 122
-97.054634 -47.418701 20.687246 104 109 101
-96.962654 -47.414162 20.769167 89 98 95
-95.949532 -47.548523 20.700653 59 67 53
-95.126999 -47.521694 20.727625 63 76 65
-94.866112 -47.50119 20.757608 84 87 82
-94.624809 -47.550114 20.719004 37 60 38
-94.490143 -47.523987 20.680182 63 77 62
-94.297562 -47.498268 20.714241 69 82 69
-94.142685 -47.491253 20.718401 86 94 86
-93.885529 -47.498951 20.719122 103 113 105
-93.720543 -47.49865 20.718351 100 107 101
-93.506912 -47.510338 20.705746 105 110 106
-93.265427 -47.476318 20.709539 89 98 87
-93.083771 -47.507221 20.708315 126 126 118
-92.922577 -47.509483 20.709244 130 129 123
-92.693436 -47.493881 20.708763 129 125 118
-92.532066 -47.490471 20.694468 125 125 118
-92.317596 -47.467739 20.620899 59 76 62
-88.864334 -47.542336 20.703039 161 146 138
-88.689262 -47.481876 20.697161 159 140 132
-88.530533 -47.501247 20.726618 153 139 130
-88.292664 -47.493839 20.671015 165 142 131
-88.116928 -47.502735 20.702827 143 128 120
-87.873634 -47.419102 20.670443 105 106 92
-103.00514 -47.345203 20.783855 99 104 108
-100.50416 -47.253326 20.719326 66 85 70
-100.30898 -47.319832 20.694004 85 103 95
-100.07823 -47.307579 20.723001 103 117 112
-99.944946 -47.292316 20.693787 106 114 115
-99.764809 -47.363281 20.683916 155 151 148
-99.441597 -47.214928 20.618225 166 165 161
-99.005943 -47.275108 20.655949 83 100 87
-98.86393 -47.258129 20.717676 99 117 107
-98.696762 -47.303032 20.699671 74 94 79
-98.566452 -47.293022 20.717381 69 89 75
-98.299484 -47.298 20.677177 58 78 65
-98.06189 -47.32946 20.720837 110 122 117
-97.929771 -47.28397 20.688028 140 142 142
-97.749954 -47.287758 20.76092 148 144 145
-97.067917 -47.275097 20.691444 97 106 96
-96.930473 -47.249866 20.712414 116 116 113
-95.723297 -47.381371 20.696079 67 66 63
-95.470467 -47.311687 20.732775 98 106 109
-95.14711 -47.362167 20.652306 83 92 87
-94.752914 -47.239075 20.693779 94 107 99
-94.488029 -47.265945 20.712687 57 73 58
-94.285042 -47.275536 20.675884 81 90 80
-94.10363 -47.296661 20.694916 96 102 93
-93.903954 -47.290142 20.701984 106 110 105
-93.720428 -47.355225 20.707809 72 81 75
-93.459274 -47.288891 20.707294 103 110 102
-93.303101 -47.28756 20.709227 99 104 96
-93.098869 -47.295818 20.711586 103 107 101
-92.898521 -47.286354 20.671507 107 110 105
-92.712601 -47.308556 20.686583 90 97 88
-92.532974 -47.313965 20.710659 108 115 107
-91.010498 -47.222347 20.734579 34 59 37
-90.701233 -47.218449 20.718372 96 112 102
-88.67363 -47.370293 20.656284 167 149 141
-88.4991 -47.325623 20.682816 191 163 155
-88.31443 -47.310097 20.705713 178 147 138
-88.117653 -47.37289 20.671095 152 135 131
-87.929947 -47.309586 20.690962 141 128 122
-87.741722 -47.383026 20.618565 134 120 114
-101.70681 -47.01263 20.611862 130 146 138
-101.49862 -47.103432 20.662674 96 114 103
-101.12231 -47.050201 20.635176 89 108 99
-100.91801 -47.108459 20.690849 75 97 81
-100.66206 -47.088539 20.667095 71 93 75
-100.49236 -47.098755 20.734518 69 91 73
-100.33651 -47.104919 20.693899 90 108 95
-100.05491 -47.062275 20.728569 111 125 123
-99.929771 -47.083118 20.73316 122 127 126
-99.708832 -47.06443 20.710264 97 104 98
-99.482208 -47.095833 20.678551 105 118 109
-99.32943 -47.073059 20.694622 111 125 114
-99.085884 -47.11055 20.713987 82 101 89
-98.889465 -47.085606 20.698439 85 104 92
-98.709114 -47.098232 20.693802 72 94 80
-98.534996 -47.077354 20.703156 62 84 67
-98.241493 -47.13728 20.650812 64 84 73
-97.890877 -47.138161 20.68121 132 137 139
-97.701164 -47.0802 20.709051 145 147 151
-97.523582 -47.041077 20.708218 139 137 141
-97.331482 -47.043816 20.768709 151 143 147
-97.08461 -47.072906 20.693062 106 110 105
-96.908737 -47.095463 20.720472 112 115 110
-96.75528 -47.103802 20.746948 115 117 116
-95.622581 -47.020847 20.754583 55 62 55
-94.829178 -47.05431 20.706758 70 87 72
-94.479378 -47.092609 20.710199 99 109 100
-94.29422 -47.136612 20.687626 91 98 87
-94.089142 -47.143345 20.693956 104 107 99
-93.907036 -47.081337 20.72764 51 63 50
-93.684006 -47.084106 20.701744 73 83 72
-93.505325 -47.088318 20.694006 95 99 92
-93.295837 -47.097496 20.703938 123 119 114
-93.104645 -47.125359 20.710585 129 124 120
-92.906296 -47.09808 20.691832 127 126 124
-92.698982 -47.098049 20.716055 126 126 123
-92.51667 -47.087708 20.715355 132 133 131
-92.33873 -47.104736 20.666521 108 117 111
-92.11985 -47.051636 20.704704 63 79 62
-91.945374 -47.064957 20.669304 60 79 63
-91.712158 -47.031734 20.624096 45 68 50
-91.231827 -47.006035 20.623711 59 75 61
-91.068756 -47.119019 20.715357 56 74 56
-90.885895 -47.068722 20.708757 99 106 102
-90.70282 -47.133827 20.662539 133 122 117
-88.640434 -47.027634 20.696367 114 110 96
-88.494263 -47.02404 20.684711 100 99 87
-88.344963 -47.033646 20.729067 122 116 110
-88.134132 -47.09465 20.687704 111 107 96
-101.49628 -46.898716 20.619137 94 112 102
-101.32682 -46.850998 20.721243 105 123 113
-101.16943 -46.871784 20.772282 133 151 137
-100.71899 -46.897659 20.718559 77 99 81
-100.47655 -46.906818 20.705236 84 105 91
-100.31638 -46.919243 20.682873 89 110 97
-100.08672 -46.891857 20.680643 106 118 112
-99.895454 -46.880714 20.724009 128 131 130
-99.724747 -46.927132 20.701303 102 110 102
-99.501747 -46.899807 20.713663 104 113 106
-99.278824 -46.935883 20.721249 112 124 116
-99.088455 -46.866283 20.709354 76 96 82
-98.884674 -46.904324 20.716356 81 101 88
-98.697159 -46.906376 20.692253 86 103 94
-98.517143 -46.895889 20.725039 71 90 77
-98.367538 -46.829559 20.649239 35 54 32
-97.828102 -46.972897 20.678534 146 156 151
-97.675812 -46.929291 20.670515 141 145 146
-97.501389 -46.899925 20.684931 133 131 134
-97.311974 -46.881031 20.727951 143 138 139
-97.099243 -46.908867 20.721941 99 103 97
-96.975449 -46.918598 20.768101 112 114 109
-96.778229 -46.824001 20.751112 123 133 125
-94.892662 -46.871048 20.694475 61 78 65
-94.674614 -46.911854 20.71928 84 96 82
-94.512306 -46.916695 20.710337 49 63 47
-94.295891 -46.88633 20.70499 70 81 70
-94.098244 -46.915035 20.720997 74 85 74
-93.933098 -46.909897 20.715771 59 69 60
-93.674065 -46.896 20.72637 91 98 91
-93.49572 -46.892483 20.697952 96 100 96
-93.317192 -46.893692 20.668663 107 110 105
-93.060898 -46.899818 20.695515 126 127 122
-92.898354 -46.906063 20.69903 135 132 130
-92.695885 -46.901367 20.71487 146 140 139
-92.519775 -46.892231 20.702827 136 135 135
-92.317276 -46.907082 20.707884 107 114 107
-92.091736 -46.86784 20.701462 105 111 106
-91.910912 -46.871689 20.665756 103 110 102
-91.685257 -46.91803 20.67132 78 93 80
-91.467308 -46.859955 20.663399 77 88 79
-91.305885 -46.858746 20.679258 143 144 142
-91.096024 -46.868874 20.709135 111 112 110
-90.93222 -46.943588 20.695789 150 151 154
-88.818275 -46.927052 20.694254 137 134 129
-88.715378 -46.91626 20.73613 132 129 123
-88.498085 -46.938213 20.763735 120 118 110
-88.386276 -46.900921 20.757372 160 150 143
-102.63786 -46.731773 20.771526 105 120 117
-101.88605 -46.632656 20.659681 145 154 146
-101.63356 -46.716816 20.652924 136 147 137
-101.49361 -46.698433 20.692625 101 116 105
-101.33829 -46.722553 20.719185 112 125 116
-101.05864 -46.635075 20.695213 90 105 98
-100.92984 -46.627789 20.660515 151 155 156
-100.65249 -46.738792 20.704443 78 99 81
-100.51181 -46.688213 20.709517 93 111 99
-100.07724 -46.711872 20.711163 137 141 139
-99.916008 -46.70322 20.725702 129 128 128
-99.718689 -46.665371 20.696989 90 99 93
-99.506271 -46.652088 20.686983 126 129 127
-99.292419 -46.675407 20.695263 126 134 129
-99.099907 -46.715103 20.730633 96 112 103
-98.875511 -46.708431 20.690346 83 104 92
-98.696831 -46.677689 20.691635 96 111 103
-98.498985 -46.706348 20.715372 95 108 101
-98.360542 -46.696033 20.753839 81 98 87
-97.824516 -46.717201 20.628609 123 136 136
-97.698387 -46.718616 20.658369 129 136 131
-97.478447 -46.717907 20.703999 149 148 148
-97.299629 -46.699757 20.71418 149 140 141
-97.090385 -46.695347 20.737982 148 142 140
-96.917877 -46.680664 20.752764 153 148 146
-94.880371 -46.69323 20.700125 58 73 60
-94.691803 -46.680878 20.707968 73 83 74
-94.511696 -46.691101 20.6807 83 95 86
-94.312988 -46.726082 20.742392 74 86 74
-94.143204 -46.725395 20.738764 92 101 94
-93.671722 -46.705101 20.745052 101 101 99
-93.508873 -46.707687 20.749628 113 113 111
-93.292137 -46.70322 20.692759 98 103 98
-93.10804 -46.710541 20.677973 121 122 116
-92.893066 -46.711567 20.683884 131 128 124
-92.700638 -46.692085 20.712273 130 131 127
-92.532112 -46.686535 20.694109 124 125 120
-92.284142 -46.6828 20.712479 131 133 128
-92.124161 -46.710976 20.723063 141 140 138
-91.944649 -46.69968 20.707075 142 145 140
-91.692551 -46.689835 20.712387 117 120 116
-91.496452 -46.667015 20.695391 125 124 119
-91.306213 -46.668438 20.725498 146 144 142
-91.133316 -46.686275 20.696894 143 145 145
-90.978523 -46.625412 20.673954 106 110 113
-89.049057 -46.633278 20.722006 132 136 125
-88.898857 -46.682083 20.719397 134 138 129
-88.723412 -46.718636 20.746389 148 151 144
-88.496887 -46.731609 20.771421 132 137 127
-101.69649 -46.493797 20.672808 134 139 135
-101.56306 -46.486027 20.746162 146 152 145
-101.2574 -46.488449 20.679043 113 128 114
-101.11161 -46.496399 20.71122 102 117 105
-100.95487 -46.458424 20.735474 101 107 101
-100.64636 -46.4869 20.669477 108 123 112
-100.54085 -46.529812 20.686378 116 129 120
-100.07053 -46.53059 20.678915 91 100 95
-99.916145 -46.510437 20.704134 129 128 127
-99.665108 -46.477776 20.679562 127 132 130
-99.522675 -46.476452 20.720762 142 142 142
-99.276131 -46.524136 20.725208 134 139 139
-99.063293 -46.489941 20.714401 106 120 115
-98.922417 -46.513367 20.686914 91 108 101
-98.698837 -46.51136 20.675787 105 118 113
-98.531296 -46.540108 20.708588 94 108 102
-98.387016 -46.577328 20.731403 110 121 111
-97.449677 -46.516132 20.684891 159 151 151
-97.287018 -46.513081 20.713928 161 152 152
-97.104736 -46.535431 20.713385 161 153 154
-96.908905 -46.49033 20.725172 151 146 146
-96.695244 -46.46999 20.731749 127 129 128
-96.518433 -46.48259 20.708427 131 135 133
-96.31675 -46.483143 20.696123 140 143 140
-94.861389 -46.520603 20.726999 83 95 84
-94.721588 -46.484333 20.715218 72 83 74
-94.484383 -46.485149 20.720629 90 102 92
-94.304138 -46.51672 20.759071 47 67 54
-93.681091 -46.537464 20.704268 60 66 61
-93.474304 -46.497025 20.703419 90 95 92
-93.305168 -46.50705 20.716843 95 100 96
-93.130997 -46.484322 20.696856 93 96 91
-92.934418 -46.488651 20.718575 86 95 88
-92.669586 -46.516113 20.715176 133 131 128
-92.490921 -46.489536 20.709167 130 131 127
-92.312431 -46.503708 20.722931 132 133 127
-92.103882 -46.51656 20.710175 122 124 118
-91.898209 -46.48241 20.707077 121 125 117
-91.705261 -46.543812 20.714966 118 118 110
-91.523964 -46.572361 20.731972 144 139 136
-91.288147 -46.48011 20.69997 152 150 152
-91.135574 -46.48138 20.678173 134 140 138
-90.938576 -46.579876 20.631813 126 129 127
-89.048134 -46.550102 20.70738 173 170 164
-88.883156 -46.519421 20.684698 135 137 128
-88.741081 -46.508732 20.690529 149 147 141
-101.82816 -46.351681 20.695091 44 55 50
-101.68427 -46.355961 20.780376 189 190 185
-101.486 -46.398441 20.633461 153 164 150
-101.23643 -46.2911 20.674261 107 123 110
-101.1114 -46.275223 20.697481 111 124 115
-100.86691 -46.228912 20.662092 109 125 117
-100.64473 -46.312244 20.70532 112 124 113
-100.55824 -46.323631 20.732033 106 120 109
-99.920242 -46.339668 20.678638 123 127 127
-99.669777 -46.300697 20.664291 137 141 137
-99.499939 -46.297535 20.675722 144 144 145
-99.31208 -46.301521 20.703102 137 141 139
-99.138931 -46.311974 20.708311 123 129 124
-98.863144 -46.327194 20.660109 81 96 92
-98.754272 -46.322105 20.612425 104 117 111
-97.264008 -46.373352 20.679033 146 154 150
-97.093994 -46.347324 20.696957 138 137 136
-96.880997 -46.320335 20.705263 159 153 154
-96.698784 -46.305107 20.710985 138 138 138
-96.545067 -46.31432 20.692791 138 139 142
-96.266014 -46.327412 20.711166 144 141 140
-96.113861 -46.312 20.670626 134 135 127
-95.071236 -46.263691 20.664568 69 80 71
-94.885056 -46.270935 20.670265 64 76 67
-94.735893 -46.305927 20.704586 58 73 61
-94.490013 -46.314812 20.713234 84 93 86
-94.323463 -46.307133 20.76506 76 92 82
-93.484505 -46.327904 20.748264 87 96 91
-93.294136 -46.286823 20.719017 102 106 102
-93.106674 -46.299702 20.684559 96 102 96
-92.942558 -46.280708 20.673676 76 87 78
-92.660423 -46.286774 20.722775 130 132 126
-92.522621 -46.353069 20.721401 126 126 121
-92.282982 -46.371181 20.733326 112 113 105
-92.137726 -46.381447 20.725838 125 127 120
-91.889236 -46.380013 20.632626 161 162 156
-91.692223 -46.231075 20.718475 121 128 121
-91.533409 -46.282024 20.646643 141 145 138
-91.267281 -46.294369 20.73056 126 123 121
-91.130432 -46.263466 20.697182 114 117 112
-90.883003 -46.266125 20.677114 115 125 124
-90.693771 -46.299824 20.677053 53 71 54
-90.326561 -46.200397 20.636669 25 54 23
-88.687111 -46.357391 20.665337 154 152 154
-88.598946 -46.373081 20.707691 160 160 158
-102.15764 -46.008156 20.739561 90 101 93
-101.60952 -46.070354 20.629343 129 140 130
-101.47909 -46.057911 20.742678 139 149 138
-101.24975 -46.092243 20.663342 116 128 115
-101.1151 -46.106262 20.703083 110 121 114
-100.94497 -46.122162 20.712406 130 135 134
-100.67098 -46.051403 20.724752 123 131 124
-99.656006 -46.156601 20.669374 139 144 141
-99.500267 -46.14143 20.680948 104 115 109
-99.296875 -46.128143 20.700705 91 102 95
-99.086098 -46.109608 20.645544 62 65 57
-96.871651 -46.140377 20.693167 142 144 142
-96.731506 -46.138054 20.711176 135 137 137
-96.514175 -46.127754 20.689789 115 114 118
-96.286095 -46.069672 20.721388 125 123 120
-96.133232 -46.134186 20.679077 142 139 136
-95.440315 -46.027744 20.635614 110 116 111
-95.274155 -46.064301 20.622417 92 103 95
-95.06147 -46.098389 20.67289 78 89 80
-94.905983 -46.113388 20.686689 83 96 85
-94.723785 -46.10989 20.716793 80 93 85
-94.599335 -46.086727 20.782917 105 120 117
-93.938812 -46.070843 20.726673 100 103 101
-93.442413 -46.130325 20.685333 80 87 84
-93.283821 -46.108852 20.703598 96 102 97
-93.085922 -46.090343 20.690256 91 99 92
-92.907112 -46.059296 20.709047 62 72 62
-92.674255 -46.107689 20.716963 109 115 108
-92.546104 -46.124207 20.732006 128 132 125
-92.250366 -46.03157 20.710108 114 118 112
-92.102203 -46.069138 20.734661 123 127 119
-91.895683 -46.064896 20.727861 121 127 120
-91.721237 -46.101479 20.704784 114 122 112
-91.583992 -46.168297 20.702675 90 100 89
-91.263306 -46.100128 20.739412 143 139 138
-91.115685 -46.110741 20.693075 128 131 129
-90.880638 -46.097256 20.681442 150 163 162
-90.703018 -46.109283 20.686827 99 110 107
-90.497658 -46.065273 20.717918 98 102 92
-90.2976 -46.050896 20.706675 81 96 83
-90.110352 -46.052708 20.700804 74 87 75
-89.943489 -46.071274 20.710627 60 79 60
-101.66074 -45.976692 20.776003 109 124 105
-101.49918 -45.956802 20.624376 167 177 170
-101.26887 -45.953022 20.677351 132 140 133
-101.14408 -45.945393 20.713005 114 124 117
-100.85888 -45.957371 20.619528 70 83 74
-100.75955 -45.946346 20.794729 147 162 151
-99.613899 -45.998375 20.631096 105 122 105
-99.477631 -45.912159 20.621223 69 83 66
-98.312256 -45.935116 20.625463 128 136 121
-96.838287 -45.922981 20.772896 147 151 145
-96.657402 -45.941513 20.733826 139 142 138
-96.467873 -45.919041 20.658409 124 134 126
-96.272766 -45.909801 20.639919 180 178 179
-96.117722 -45.905338 20.693844 172 169 165
-95.604416 -45.994236 20.744633 101 107 103
-95.325531 -45.889709 20.652411 109 117 111
-95.12822 -45.905563 20.682194 99 110 102
-94.898346 -45.906555 20.673935 85 98 90
-94.70237 -45.888996 20.725967 84 97 87
-94.50956 -45.986084 20.739367 53 66 56
-94.250748 -45.849419 20.683434 96 104 97
-94.134277 -45.878147 20.682213 100 105 102
-93.453995 -45.87698 20.676191 77 91 92
-93.272942 -45.949577 20.705614 94 99 94
-93.11982 -45.95454 20.714649 95 100 95
-92.882378 -45.977425 20.687983 63 73 60
-92.763405 -45.981373 20.684254 71 80 70
-92.444702 -45.900063 20.798147 124 130 120
-92.286865 -45.88131 20.747534 116 120 113
-92.107346 -45.884811 20.719818 120 123 117
-91.902008 -45.882225 20.717539 118 122 111
-91.748543 -45.872025 20.709272 108 114 104
-91.261139 -45.899536 20.729153 124 123 120
-91.109627 -45.89505 20.700691 120 120 117
-90.967789 -45.884838 20.675097 119 122 118
-90.720894 -45.856842 20.653751 152 149 148
-90.455391 -45.829319 20.741861 135 143 139
-90.315369 -45.911175 20.665726 98 107 103
-90.086342 -45.872227 20.726311 51 69 54
-89.967804 -45.896568 20.735996 50 66 53
-89.642944 -45.837833 20.679756 122 125 121
-89.524376 -45.864105 20.715723 81 92 84
-89.309799 -45.930954 20.712032 97 104 93
-89.144112 -45.883018 20.658527 62 70 57
-96.61161 -45.624012 20.780495 34 45 39
-96.580849 -45.667007 20.777653 119 128 123
-95.84362 -45.744678 20.66468 124 124 125
-95.661407 -45.786961 20.721622 115 126 125
-95.4897 -45.679146 20.688807 115 119 119
-95.276329 -45.64719 20.682043 169 162 166
-95.108086 -45.685459 20.709099 91 98 94
-94.881332 -45.703568 20.705038 74 83 77
-94.744705 -45.643829 20.716263 126 130 122
-94.260628 -45.662579 20.716185 102 104 96
-94.108757 -45.701481 20.762003 100 102 97
-93.950806 -45.626408 20.799776 96 101 95
-93.549728 -45.777309 20.603516 110 119 112
-93.156662 -45.793606 20.75477 98 103 97
-92.281166 -45.791798 20.726625 105 109 99
-92.043678 -45.756195 20.737165 92 100 90
-91.899628 -45.731068 20.720221 116 119 106
-91.732285 -45.717419 20.702593 119 124 115
-91.214294 -45.750576 20.664703 106 104 101
-91.117775 -45.689362 20.701139 127 126 124
-90.943909 -45.695816 20.663206 140 135 135
-90.678131 -45.653667 20.716372 138 145 140
-90.482521 -45.710457 20.70368 148 152 153
-90.069267 -45.7131 20.69729 66 80 71
-89.848923 -45.675014 20.694696 111 119 113
-89.745682 -45.713909 20.697676 134 138 135
-89.140244 -45.784252 20.74032 90 102 88
-96.616295 -45.561188 20.700745 178 184 182
-95.641541 -45.504684 20.710995 154 148 153
-95.489807 -45.502449 20.646133 147 144 145
-95.277077 -45.478649 20.686661 129 136 135
-95.118896 -45.512966 20.68865 106 115 113
-94.926132 -45.534477 20.723143 112 121 120
-94.731728 -45.491047 20.674648 112 121 113
-94.290916 -45.55204 20.719009 85 96 84
-94.084641 -45.552448 20.691254 95 102 94
-93.918678 -45.474773 20.733154 83 89 80
-93.03447 -45.519974 20.718849 92 99 94
-92.48909 -45.404785 20.700035 83 89 86
-92.257309 -45.445282 20.766523 114 114 112
-91.899895 -45.471966 20.786194 121 128 116
-91.757797 -45.505241 20.720575 123 129 119
-91.576523 -45.430885 20.687042 100 107 99
-91.109222 -45.518147 20.721476 99 103 102
-90.881645 -45.491211 20.704029 109 115 113
-90.721138 -45.491833 20.687376 122 130 127
-90.535843 -45.556267 20.660219 117 126 126
-90.025726 -45.56065 20.733772 103 112 108
-89.928604 -45.544781 20.686478 92 104 98
-89.790169 -45.588787 20.662827 155 162 162
-95.695953 -45.320404 20.611885 144 145 152
-95.436211 -45.293125 20.624807 145 149 156
-95.290886 -45.29409 20.684885 140 146 149
-95.12281 -45.309875 20.690546 118 125 124
-94.903938 -45.273167 20.721535 121 129 125
-94.751762 -45.306076 20.684023 113 120 113
-94.109329 -45.309196 20.716534 91 90 94
-92.482262 -45.360012 20.673115 67 75 77
-92.271889 -45.365757 20.700544 106 109 104
-92.189178 -45.367058 20.722763 107 108 103
-91.839661 -45.303185 20.797819 104 111 101
-91.753693 -45.377594 20.728962 119 128 118
-91.039078 -45.262074 20.752392 66 65 71
-90.869926 -45.273006 20.701277 111 113 113
-90.763687 -45.346813 20.665701 150 150 150
-95.469994 -45.154301 20.662893 146 149 156
-95.299919 -45.123528 20.675947 144 151 157
-95.110054 -45.108799 20.676416 133 139 142
-94.889908 -45.126339 20.711834 141 146 144
-94.713837 -45.106407 20.69512 132 138 135
-94.493202 -45.029251 20.699141 125 130 121
-93.838997 -45.18689 20.786613 131 129 135
-93.779411 -45.159336 20.734289 68 68 66
-92.567352 -45.032631 20.785309 107 107 107
-91.306526 -45.087475 20.696737 119 122 120
-91.10141 -45.053268 20.700373 161 153 157
-90.891266 -45.093281 20.705048 122 125 123
-90.734009 -45.0481 20.7363 128 131 128
-90.581635 -45.033386 20.689081 99 115 104
-90.012878 -45.153381 20.789917 104 117 108
-95.527863 -44.854805 20.633083 167 174 182
-95.251129 -44.912109 20.713932 119 126 134
-95.105934 -44.919186 20.722383 153 154 157
-94.918091 -44.917614 20.718733 155 152 155
-94.72699 -44.927147 20.648458 117 123 118
-94.496155 -44.935055 20.667809 105 110 99
-94.345055 -44.865856 20.707491 160 166 155
-92.530128 -44.965393 20.678335 116 113 117
-91.064789 -44.874195 20.716003 139 130 129
-90.869621 -44.902622 20.707781 120 122 118
-90.739067 -44.90675 20.739401 108 116 112
-95.228447 -44.724899 20.705051 38 48 37
-95.078827 -44.744831 20.620611 101 103 107
-94.892586 -44.730297 20.691881 142 146 147
-94.719139 -44.700527 20.699909 144 146 144
-94.485413 -44.67189 20.702688 129 134 129
-94.302528 -44.669125 20.720169 135 136 132
-94.106224 -44.714287 20.731438 128 131 130
-93.908813 -44.694656 20.721321 135 140 140
-91.225487 -44.730183 20.714226 72 80 74
-91.090096 -44.668018 20.701633 109 112 109
-90.891266 -44.704048 20.699818 105 111 106
-90.757515 -44.731949 20.676161 111 119 117
-90.44046 -44.638058 20.678625 174 178 177
-94.828117 -44.569492 20.702595 140 139 141
-94.674118 -44.501923 20.692501 149 150 151
-94.490829 -44.498383 20.713488 132 132 131
-94.300636 -44.501762 20.720148 102 105 108
-94.112114 -44.501884 20.751244 125 123 123
-93.91259 -44.570171 20.749594 135 137 134
-91.265266 -44.506168 20.735437 101 103 103
-91.085045 -44.528324 20.710472 131 135 137
-90.920364 -44.477997 20.71129 116 125 127
-90.743141 -44.475597 20.735432 120 131 133
-90.459152 -44.549633 20.618435 185 193 195
-94.645699 -44.288666 20.724022 167 164 169
-94.522339 -44.310837 20.752569 156 155 158
-94.323662 -44.296497 20.758978 149 145 150
-93.82724 -44.233398 20.734795 132 135 134
-93.69397 -44.293758 20.706987 147 142 142
-93.471405 -44.243744 20.693405 135 136 131
-93.366409 -44.240364 20.736862 173 171 168
-91.423553 -44.318077 20.755344 145 143 143
-91.267334 -44.313705 20.736771 114 124 122
-91.046585 -44.329258 20.672356 121 129 128
-90.914101 -44.312344 20.695562 109 118 118
-90.705963 -44.295082 20.707891 102 114 113
-90.586571 -44.331463 20.723083 111 118 119
-94.690704 -44.049599 20.720625 183 175 186
-94.518448 -44.099052 20.709818 182 178 182
-94.265991 -44.157799 20.742538 136 134 138
-93.861526 -44.128559 20.755381 111 113 111
-93.707184 -44.065483 20.717916 92 101 91
-93.551743 -44.094791 20.644424 117 120 112
-93.313622 -44.087959 20.683025 190 191 185
-91.491791 -44.078022 20.790613 138 130 127
-91.388405 -44.089767 20.74408 78 84 81
-90.913391 -44.19738 20.653492 158 166 169
-90.696892 -44.136532 20.676943 115 123 123
-94.687714 -43.979088 20.623535 124 125 131
-94.489235 -43.882442 20.675804 177 170 171
-93.873131 -43.836617 20.739399 145 142 142
-93.685219 -43.878994 20.742199 113 115 110
-93.524872 -43.901936 20.698023 90 95 89
-93.310081 -43.916515 20.697472 106 104 98
-92.925224 -43.824272 20.745792 72 72 80
-92.308952 -43.835125 20.725176 155 158 153
-91.739868 -43.863564 20.751938 141 142 137
-91.441879 -43.873436 20.777191 114 110 113
-91.350777 -43.893055 20.692488 79 84 82
-91.061913 -43.859909 20.720995 131 138 141
-90.888153 -43.93417 20.700123 74 86 78
-90.74881 -43.926033 20.696501 95 105 104
-94.480598 -43.700436 20.718815 166 158 162
-94.350006 -43.658924 20.707052 188 177 178
-94.061905 -43.659 20.716784 146 144 147
-93.91465 -43.696957 20.739563 134 131 130
-93.73349 -43.709942 20.718304 129 129 122
-93.067734 -43.780174 20.621563 195 191 190
-92.407013 -43.664959 20.784233 98 110 105
-92.281563 -43.708237 20.702065 129 138 134
-92.117714 -43.708351 20.673452 154 156 158
-91.900314 -43.702957 20.734407 118 124 124
-91.728874 -43.696331 20.703037 173 168 170
-91.463135 -43.715309 20.704792 120 120 120
-91.339577 -43.728184 20.666618 85 86 89
-91.11055 -43.682697 20.699348 127 132 137
-94.426674 -43.519867 20.747099 194 180 189
-94.299858 -43.490772 20.712339 167 157 164
-94.091881 -43.489403 20.71244 135 134 133
-93.915977 -43.50761 20.725973 141 142 140
-93.75116 -43.493343 20.710758 134 135 127
-93.5942 -43.43351 20.751141 191 181 180
-92.83696 -43.406776 20.724831 139 139 139
-92.427986 -43.527641 20.775286 140 150 145
-92.292511 -43.493328 20.750938 131 137 134
-92.093422 -43.462421 20.69972 110 119 117
-91.956276 -43.553776 20.698517 127 133 132
-91.683968 -43.512253 20.676975 164 157 167
-91.519905 -43.529194 20.698523 106 104 109
-91.102119 -43.556 20.64032 105 113 112
-94.422112 -43.304825 20.636082 144 142 154
-94.263092 -43.285606 20.707291 140 141 145
-94.117783 -43.332832 20.713846 140 140 140
-93.946037 -43.329041 20.738258 143 145 142
-93.732315 -43.368397 20.708838 130 129 124
-93.041855 -43.228203 20.751135 132 130 130
-92.912651 -43.278702 20.702183 145 144 138
-92.71225 -43.267899 20.719709 162 158 156
-92.543518 -43.24052 20.718624 144 149 142
-92.29879 -43.367352 20.763193 141 145 142
-92.085815 -43.306709 20.72471 99 107 104
-91.132446 -43.333557 20.655073 175 177 190
-94.254631 -43.143482 20.680347 163 161 167
-94.164436 -43.113144 20.663528 184 176 175
-93.240982 -43.074944 20.794773 118 113 111
-93.089333 -43.093494 20.715618 136 139 136
-92.925507 -43.119602 20.669497 145 143 139
-92.713387 -43.091312 20.686598 152 147 146
-92.557114 -43.110081 20.706047 140 138 136
-92.025772 -43.158028 20.698982 110 117 119
-91.914421 -43.061615 20.707516 100 105 104
-94.269958 -42.956741 20.657513 166 155 156
-94.133125 -42.894497 20.696716 187 173 173
-93.804657 -42.839825 20.668491 112 114 111
-93.677963 -42.881199 20.718197 137 141 138
-93.534012 -42.891121 20.697264 160 161 154
-93.228447 -42.807831 20.719656 185 170 165
-93.062149 -42.941288 20.705503 109 116 110
-92.884438 -42.911026 20.693569 133 134 131
-92.711769 -42.884247 20.725769 137 139 138
-92.496613 -42.899971 20.680351 150 148 143
-92.350677 -42.852921 20.690048 177 173 169
-92.077377 -42.809879 20.77029 82 83 85
-91.918312 -42.891651 20.717716 129 132 135
-91.209732 -42.920406 20.670933 185 183 196
-94.262802 -42.680786 20.74419 182 181 190
-94.0979 -42.730545 20.631744 175 166 170
-93.892395 -42.689194 20.733957 187 180 184
-93.719177 -42.700497 20.721897 142 145 146
-93.527092 -42.708542 20.708609 171 169 166
-93.284302 -42.689468 20.705061 137 139 135
-93.111061 -42.680588 20.684284 151 150 145
-92.89193 -42.716984 20.701303 147 145 141
-92.69043 -42.74342 20.713514 146 145 139
-92.529274 -42.702847 20.713781 164 157 156
-92.314522 -42.71838 20.724974 148 146 150
-92.111359 -42.701889 20.708982 131 132 135
-91.965927 -42.714432 20.662512 137 137 144
-94.321281 -42.432266 20.642607 185 188 203
-94.188133 -42.440712 20.730204 199 192 210
-93.845512 -42.521702 20.712883 152 150 155
-93.721825 -42.498817 20.703154 163 159 164
-93.49276 -42.476582 20.71851 151 150 151
-93.29734 -42.514141 20.696939 156 154 150
-93.096062 -42.496746 20.702927 148 150 143
-92.905731 -42.505226 20.680017 162 158 151
-92.680138 -42.490402 20.712786 156 153 151
-92.517441 -42.495186 20.727152 168 162 169
-92.295494 -42.501221 20.696352 153 151 153
-92.106094 -42.510208 20.674843 147 144 149
-94.300926 -42.313847 20.630241 182 175 191
-94.173401 -42.376839 20.719276 152 148 163
-93.973816 -42.361893 20.671009 89 90 101
-93.679329 -42.345112 20.695662 144 142 148
-93.524055 -42.33316 20.680387 96 100 101
-93.335403 -42.340897 20.668449 172 167 171
-93.088074 -42.292324 20.701162 156 154 153
-92.921684 -42.302929 20.731316 174 167 159
-92.672501 -42.313572 20.720572 159 154 156
-92.561714 -42.323975 20.687862 156 154 158
-92.338074 -42.382416 20.654879 148 146 153
-92.069984 -42.25695 20.644484 156 143 154
-91.980362 -42.306007 20.656385 126 114 126
-93.359428 -42.177982 20.602314 107 101 115
-93.058052 -42.123146 20.682281 179 172 176
-92.903717 -42.097382 20.740475 204 192 191
-92.624382 -42.099609 20.694914 163 157 164
-92.551376 -42.117409 20.648479 158 155 157
-92.21524 -42.025185 20.664938 164 149 159
-92.135971 -42.07888 20.687519 149 136 146
-93.006439 -41.987782 20.737679 201 184 183
-92.894638 -41.909428 20.701859 175 164 171
-92.678406 -41.900002 20.702528 180 172 184
-92.598801 -41.970833 20.71512 211 193 198
-92.081665 -41.959801 20.647446 133 131 134
-93.032509 -41.682255 20.705048 178 169 183
-92.850159 -41.677181 20.63472 105 105 112
-94.010948 -57.456692 20.928394 81 96 89
-93.91111 -57.416386 20.928818 101 119 105
-95.405579 -57.049316 20.903978 18 57 28
-95.30072 -57.037788 20.889946 55 82 63
-94.831436 -57.090473 20.913925 56 80 64
-94.708549 -57.00164 20.894234 72 95 86
-94.463562 -57.043732 20.893066 59 83 70
-94.114983 -57.199047 20.958099 92 109 106
-95.419128 -56.917534 20.988728 35 64 40
-95.265686 -56.929676 20.918505 37 65 42
-94.975754 -56.972134 20.94533 54 82 62
-94.681511 -56.880764 20.96722 58 81 67
-94.49099 -56.82349 20.949251 62 85 74
-94.228798 -56.914639 20.906229 73 93 84
-94.093056 -56.810238 20.979168 45 67 55
-95.253761 -56.74136 20.958607 40 65 44
-95.130585 -56.746235 20.980867 49 74 51
-94.617729 -56.666386 20.997602 70 89 81
-94.471169 -56.666771 20.924837 81 102 94
-94.334312 -56.626705 20.967321 77 94 83
-94.191696 -56.680473 20.942112 111 121 122
-95.097046 -56.5695 20.947845 60 82 59
-94.681389 -56.46262 20.911274 71 91 86
-94.50103 -56.486935 20.945705 79 95 90
-94.384026 -56.491077 20.99176 93 107 99
-94.68911 -56.294819 20.934908 81 100 96
-94.516479 -56.338646 20.972839 81 100 98
-94.875137 -56.135086 20.931931 82 100 95
-94.717239 -56.062836 20.927067 73 92 84
-94.857864 -55.945587 20.947739 85 100 97
-94.689682 -55.885937 20.945251 87 108 99
-94.598564 -55.998657 20.963518 95 107 103
-96.87397 -55.697994 20.932673 38 66 43
-94.685608 -55.687977 20.904985 114 126 130
-97.000175 -55.406361 20.979498 70 84 67
-96.932205 -55.525703 20.972895 32 61 35
-95.498367 -55.462933 20.899229 77 97 90
-95.352097 -55.416744 20.872061 85 101 98
-95.175995 -55.434284 20.954107 69 87 81
-94.948212 -55.458675 20.86895 89 101 99
-94.724693 -55.522083 20.898161 118 127 122
-97.372253 -55.370548 20.945694 61 80 61
-97.024109 -55.277061 20.958511 58 76 57
-96.934547 -55.283485 20.940859 72 82 68
-96.641724 -55.259609 20.949322 85 102 94
-96.573677 -55.338406 20.90634 67 76 75
-96.345795 -55.289944 20.943054 46 69 49
-96.190422 -55.223419 20.904871 79 90 86
-95.888512 -55.350971 20.909674 64 81 73
-95.637909 -55.307343 20.963852 101 121 113
-95.567451 -55.357338 20.893917 80 99 94
-95.295807 -55.297569 20.903366 74 92 91
-95.138145 -55.319244 20.91431 95 113 110
-94.922287 -55.284996 20.922796 98 110 108
-94.69455 -55.315155 20.885506 98 113 114
-97.298683 -55.064579 20.930323 42 66 43
-96.874382 -55.128925 20.902987 88 95 87
-96.759323 -55.081661 20.972525 79 91 83
-96.272026 -55.152668 20.935259 80 92 90
-96.124527 -55.112564 20.913931 97 111 108
-95.87796 -55.124798 20.961283 115 120 112
-95.70639 -55.08791 20.917318 92 106 100
-95.439758 -55.113171 20.870573 75 91 91
-95.290611 -55.102428 20.948294 82 100 97
-95.043549 -55.08572 20.88484 83 101 98
-94.914536 -55.104248 20.919182 91 107 103
-94.710487 -55.107883 20.887589 115 128 130
-94.521477 -55.07312 20.862862 111 126 129
-94.254333 -55.046242 20.870193 133 143 147
-94.156723 -55.057056 20.9077 114 124 126
-97.735199 -54.954487 20.969883 69 88 74
-97.481369 -54.908623 20.959881 93 109 98
-97.292946 -54.87965 20.949043 58 74 59
-97.185081 -54.906525 20.839808 46 61 42
-96.995018 -54.971756 20.810226 53 65 51
-96.6521 -54.911484 20.855083 105 119 111
-96.569069 -54.864124 20.874474 93 106 97
-96.269585 -54.880566 20.901157 112 122 121
-96.104156 -54.870255 20.902197 95 107 102
-95.934914 -54.897217 20.861355 118 123 121
-95.781158 -54.9077 20.898407 60 72 69
-95.242294 -54.914768 20.892439 87 102 98
-95.091423 -54.862411 20.867134 91 107 102
-94.901245 -54.875973 20.925276 111 123 121
-94.711021 -54.896168 20.888929 112 123 123
-94.475227 -54.896404 20.856234 124 135 137
-94.301178 -54.905361 20.84919 126 137 138
-94.133255 -54.905197 20.875952 124 135 137
-97.621712 -54.64267 20.910185 126 115 110
-97.522751 -54.664265 20.940826 93 102 92
-97.291908 -54.693344 20.920431 91 98 89
-97.173462 -54.704128 20.922026 72 80 71
-96.651237 -54.671356 20.890781 56 79 65
-96.505142 -54.668304 20.892048 59 79 66
-96.335541 -54.663368 20.924746 89 103 97
-95.906525 -54.739552 20.89065 146 151 157
-95.269882 -54.689857 20.838333 84 100 91
-95.110161 -54.702148 20.859884 105 118 113
-94.886147 -54.720604 20.885326 115 123 121
-94.73777 -54.718407 20.922327 117 126 125
-94.4562 -54.718315 20.870419 122 135 135
-94.30426 -54.777435 20.845022 117 128 129
-94.132339 -54.741058 20.860432 146 152 158
-98.159424 -54.592178 20.873302 55 71 53
-97.49128 -54.486301 20.937593 113 113 105
-97.361473 -54.502216 20.863989 84 91 80
-96.860619 -54.447479 20.896456 65 82 72
-96.656158 -54.497738 20.892841 74 91 81
-96.510071 -54.521488 20.911219 73 91 82
-96.301697 -54.501888 20.893101 75 93 85
-96.177368 -54.454376 20.833654 69 87 81
-95.138092 -54.536396 20.837814 76 96 92
-94.891434 -54.49939 20.862143 89 105 101
-94.686859 -54.415283 20.890696 83 100 97
-94.279991 -54.555695 20.826981 123 134 129
-97.777527 -54.266098 20.865013 31 60 32
-97.43264 -54.318752 20.919443 101 103 94
-97.329872 -54.297394 20.880686 110 106 101
-97.147064 -54.271526 20.89163 41 59 44
-96.858421 -54.329502 20.884634 65 83 72
-96.690506 -54.298588 20.895079 92 106 99
-96.505013 -54.281372 20.92041 109 118 111
-96.311371 -54.306454 20.955492 99 111 105
-96.125389 -54.255421 20.876507 80 94 88
-94.884628 -54.312408 20.850258 122 131 131
-94.707176 -54.280533 20.851831 95 106 105
-94.552277 -54.226772 20.854418 99 111 109
-97.870308 -54.084988 20.931688 41 61 38
-97.687935 -54.078014 20.917105 50 73 51
-97.476601 -54.07716 20.883013 102 106 105
-97.283798 -54.128761 20.899685 111 111 106
-97.10878 -54.07687 20.908632 75 88 77
-96.878601 -54.112446 20.903671 95 98 91
-96.660187 -54.132179 20.917442 105 113 105
-96.475548 -54.12682 20.904451 89 98 87
-96.296814 -54.140671 20.91958 123 124 116
-96.117088 -54.111977 20.89801 115 119 113
-95.955856 -54.079956 20.877665 91 108 99
-95.312675 -54.082134 20.926548 78 95 82
-94.905174 -54.140411 20.833601 138 145 140
-94.692932 -54.134182 20.846867 128 137 137
-97.867142 -53.969688 20.887989 88 97 78
-97.702766 -53.879356 20.891602 73 85 71
-97.459389 -53.882137 20.916756 71 89 77
-97.275681 -53.934887 20.863083 93 104 97
-97.048737 -53.886726 20.896862 100 110 99
-96.921509 -53.88913 20.86483 70 84 75
-96.656548 -53.90871 20.923704 88 90 86
-96.55265 -53.908131 20.834066 62 69 60
-96.285606 -53.892563 20.902924 85 92 80
-96.090141 -53.908661 20.846729 87 92 85
-95.906822 -53.892719 20.86372 81 88 81
-95.323929 -53.951344 20.924704 56 70 58
-94.816086 -53.969433 20.852093 148 157 153
-94.758118 -53.982185 20.891607 134 145 144
-97.870399 -53.704926 20.880331 120 124 111
-97.690681 -53.709694 20.917034 82 82 76
-97.486771 -53.71685 20.904797 65 78 69
-97.315475 -53.686775 20.91827 83 90 79
-97.158974 -53.735626 20.921972 91 97 84
-96.637497 -53.762547 20.917877 136 128 127
-96.478378 -53.742889 20.911642 117 110 107
-96.275574 -53.688374 20.90346 91 97 89
-96.047707 -53.697407 20.866619 112 109 103
-95.915581 -53.714512 20.839619 128 126 125
-95.718872 -53.698662 20.939381 68 79 73
-95.456276 -53.672985 20.90163 57 78 69
-95.319229 -53.643238 20.989101 115 128 118
-97.906105 -53.507828 20.9025 79 88 73
-97.717972 -53.486259 20.893572 113 110 98
-97.466454 -53.493557 20.952518 83 90 77
-97.345947 -53.570549 20.964973 102 103 89
-96.090508 -53.517159 20.93141 119 118 114
-95.92984 -53.52919 20.898024 112 112 108
-95.724159 -53.428619 20.83032 121 127 123
-95.487663 -53.500828 20.875 54 68 65
-99.308792 -53.282417 20.894497 133 136 130
-97.951904 -53.320263 20.942724 87 98 82
-95.882034 -53.316051 20.941202 143 148 144
-95.726128 -53.271973 20.856728 119 125 121
-95.532356 -53.297329 20.874176 110 110 109
-99.274307 -53.082298 20.903746 119 126 117
-97.870148 -53.07608 20.939716 82 94 78
-95.817619 -53.050755 20.94441 161 163 158
-95.724426 -53.120819 20.908443 125 126 122
-95.559349 -53.037937 20.91301 121 123 117
-99.421532 -52.956139 20.86969 83 99 86
-99.269524 -52.869934 20.905632 125 134 126
-99.105843 -52.837067 20.906858 125 134 126
-98.959435 -52.832443 20.802826 115 127 118
-97.889999 -52.894905 20.890705 84 96 79
-95.822769 -52.890316 20.874155 110 119 111
-95.68718 -52.890289 20.879717 145 144 142
-95.44368 -52.894333 20.939156 73 85 76
-95.329536 -52.821236 20.832378 88 96 83
-99.259125 -52.731701 20.905085 127 135 127
-99.122116 -52.673138 20.91152 132 139 130
-98.892998 -52.711456 20.917759 108 120 109
-98.778091 -52.769474 20.967335 74 87 76
-98.057587 -52.608036 20.845741 110 115 99
-97.955185 -52.687729 20.901793 74 86 69
-95.885117 -52.695763 20.960045 108 113 107
-95.670303 -52.688152 20.871765 107 111 104
-95.503601 -52.637821 20.876905 95 99 92
-95.363129 -52.690491 20.896635 112 118 110
-99.244911 -52.475075 20.85519 138 142 135
-99.113899 -52.468552 20.899803 138 146 138
-98.918129 -52.479458 20.940994 125 136 126
-98.673279 -52.589993 20.965157 90 109 87
-98.294113 -52.44453 20.856976 99 103 89
-98.08445 -52.475487 20.906771 101 107 92
-97.952065 -52.543663 20.894796 66 74 61
-96.839531 -52.423103 20.807713 56 62 50
-96.716156 -52.502544 20.878687 56 71 54
-96.245247 -52.4711 20.93187 91 93 82
-95.85556 -52.495697 20.871908 116 119 103
-95.702179 -52.498631 20.917845 78 90 80
-95.481491 -52.520882 20.893879 97 99 88
-95.335884 -52.496586 20.884478 125 118 118
-94.844154 -52.452393 20.936949 97 106 88
-94.642967 -52.473431 20.894972 135 140 121
-94.598412 -52.405315 20.840317 156 164 153
-99.234055 -52.378563 20.852238 202 197 193
-99.065063 -52.328312 20.921858 124 131 123
-98.887146 -52.333374 20.886967 128 135 127
-98.736328 -52.288643 20.896679 113 115 108
-98.291237 -52.325283 20.899506 75 82 68
-98.146744 -52.322144 20.922871 85 95 80
-97.97541 -52.318649 20.96422 55 66 47
-96.852661 -52.251564 20.854242 64 76 56
-96.669266 -52.297264 20.850592 124 132 116
-96.553856 -52.268883 20.909206 57 67 53
-96.010796 -52.23954 20.976164 74 74 64
-95.906921 -52.328625 20.945749 108 114 97
-95.706963 -52.328308 20.969749 96 114 108
-95.477562 -52.299049 20.897778 102 101 93
-95.316826 -52.271034 20.897816 109 111 107
-95.027786 -52.280621 20.900606 130 129 118
-94.913155 -52.283386 20.885406 118 114 104
-94.706078 -52.279648 20.928572 121 121 105
-94.593575 -52.285873 20.867226 137 140 121
-94.25605 -52.237125 20.935833 181 178 159
-93.874367 -52.320099 20.834129 167 162 143
-99.415863 -52.150238 20.803858 93 107 94
-99.311378 -52.061699 20.909048 108 115 115
-99.089325 -52.09164 20.923388 122 130 125
-98.864952 -52.120628 20.901525 118 127 117
-98.748085 -52.150269 20.945887 119 122 110
-98.272202 -52.175018 20.967457 80 93 81
-96.671684 -52.122074 20.867262 53 60 50
-96.549393 -52.163517 20.911057 70 78 66
-96.389549 -52.172241 20.922096 84 85 74
-95.659256 -52.123131 20.962399 107 112 99
-95.506874 -52.088581 20.913124 126 126 117
-95.337975 -52.096329 20.871849 114 113 106
-95.058167 -52.083607 20.872873 150 146 139
-94.898636 -52.080418 20.908024 128 128 121
-94.697639 -52.104275 20.895092 127 126 117
-94.494469 -52.090984 20.874125 117 117 105
-94.291985 -52.08836 20.889549 122 122 108
-94.147804 -52.06488 20.880835 124 123 111
-99.470955 -51.873901 20.853596 128 130 132
-99.329407 -51.906525 20.924391 162 161 167
-99.065376 -51.991879 20.932032 182 176 180
-98.943054 -51.967831 20.926044 128 134 128
-96.52636 -51.886803 20.964453 48 54 42
-95.644661 -51.92366 20.907337 99 105 91
-95.513786 -51.897892 20.897749 113 119 106
-95.348053 -51.93895 20.89489 152 146 142
-95.079475 -51.905266 20.885262 150 145 139
-94.93959 -51.911743 20.954382 148 143 138
-94.691406 -51.944035 20.93236 154 143 141
-94.493965 -51.890358 20.896997 120 117 110
-94.297791 -51.873821 20.875032 124 122 119
-94.143517 -51.883785 20.834251 111 106 98
-93.837708 -51.935543 20.913111 129 133 119
-99.654327 -51.667831 20.874191 135 139 142
-99.49675 -51.682213 20.929508 143 143 146
-99.276924 -51.746265 20.941387 138 141 139
-99.14679 -51.732872 20.954004 145 145 143
-95.692177 -51.687496 20.900391 115 116 104
-95.516914 -51.734127 20.865601 123 121 114
-95.278275 -51.700718 20.873724 117 115 110
-95.080574 -51.691597 20.887297 139 136 127
-94.926888 -51.670715 20.981701 160 149 143
-94.446022 -51.715313 20.94647 159 157 146
-94.311211 -51.730404 20.896072 134 133 127
-94.15802 -51.739441 20.844286 144 140 129
-93.815239 -51.605846 20.867243 95 98 91
-93.755585 -51.601284 20.800913 87 93 89
-99.808601 -51.4599 20.910667 99 109 106
-99.723366 -51.489685 20.921288 122 123 124
-99.523613 -51.513363 20.961651 144 143 140
-99.378891 -51.501381 20.982805 117 123 118
-95.678619 -51.488041 20.878084 107 112 99
-95.484863 -51.528507 20.892429 120 120 111
-95.276001 -51.519501 20.907509 101 104 94
-95.122261 -51.500759 20.91029 119 121 110
-94.956192 -51.523438 20.974373 134 129 121
-94.793053 -51.414276 20.948618 175 174 169
-94.322075 -51.544529 20.920328 125 126 114
-94.0923 -51.453381 20.918341 120 115 107
-93.894585 -51.507362 20.863167 101 104 96
-93.737083 -51.506115 20.859003 85 88 81
-93.239433 -51.428391 20.831472 96 84 84
-92.707886 -51.436527 20.942123 108 106 99
-92.560799 -51.583073 20.826672 95 92 85
-99.880653 -51.255436 20.868404 122 125 125
-99.728073 -51.322323 20.893232 171 167 167
-99.516914 -51.267303 20.921616 124 127 121
-99.383736 -51.244835 20.936069 134 130 119
-97.544571 -51.2836 20.817411 63 73 62
-95.870735 -51.318222 20.87534 117 130 117
-95.739273 -51.355583 20.907248 108 112 99
-95.45813 -51.326275 20.890871 94 100 88
-95.30706 -51.304775 20.919744 129 127 117
-95.132133 -51.288391 20.906614 126 125 116
-94.954247 -51.33754 20.983467 119 118 111
-94.30027 -51.277599 20.913855 141 137 125
-94.079704 -51.300518 20.936052 157 151 145
-93.904274 -51.292919 20.879007 140 140 133
-93.702087 -51.296314 20.88998 112 112 100
-93.522202 -51.285542 20.847132 109 113 91
-93.290131 -51.289291 20.888655 129 133 107
-93.100784 -51.311573 20.911676 122 124 114
-92.915283 -51.276897 20.852135 110 112 101
-92.779091 -51.344185 20.96504 93 95 85
-92.568108 -51.264297 20.830082 120 113 109
-99.867493 -51.094543 20.885914 158 154 154
-99.674179 -51.083256 20.869011 103 113 108
-99.530617 -51.176327 20.91172 108 116 103
-97.874596 -51.059246 20.844046 53 69 52
-97.698639 -51.117928 20.967415 55 69 52
-96.683311 -51.092674 20.813259 48 59 45
-95.887047 -51.112553 20.910151 75 90 76
-95.777397 -51.112427 20.902906 77 92 76
-95.504356 -51.110584 20.892576 102 107 97
-95.289536 -51.095745 20.929779 123 125 112
-95.117355 -51.097782 20.940134 110 111 103
-94.977165 -51.032887 20.923622 108 111 101
-94.467163 -51.067932 20.937347 143 135 126
-94.320557 -51.091572 20.876198 113 110 101
-94.072182 -51.105644 20.950243 146 141 136
-93.925987 -51.138332 20.925402 128 129 123
-93.666405 -51.136997 20.925251 147 145 138
-93.516693 -51.176445 20.931866 147 142 132
-93.280716 -51.080715 20.905533 121 123 108
-93.120972 -51.086063 20.927788 135 135 122
-92.890968 -51.070873 20.895123 118 121 98
-92.725471 -51.072899 20.927097 105 99 92
-92.531982 -51.159431 20.913776 108 99 95
-92.317337 -51.066364 20.894594 112 104 99
-92.169762 -51.02306 20.821659 89 88 83
-99.878571 -50.910042 20.902498 151 148 146
-99.729965 -50.924229 20.91921 148 145 141
-97.825424 -50.932072 20.839016 41 57 36
-97.704689 -50.892025 20.958721 56 73 55
-97.517693 -50.982124 20.805702 80 91 74
-96.009918 -50.947075 20.852299 61 81 65
-95.870522 -50.90168 20.891062 70 83 67
-95.714035 -50.884468 20.887379 90 103 88
-95.468163 -50.906315 20.89135 95 103 90
-95.307259 -50.887569 20.934992 93 98 88
-95.057213 -50.888531 20.970858 110 112 102
-94.927086 -50.866688 20.905554 126 125 117
-94.721581 -50.945114 20.977034 72 77 64
-94.063232 -50.951206 20.951509 136 132 126
-93.981239 -50.929287 20.961044 142 141 138
-93.269012 -50.943947 20.952438 128 133 118
-92.820305 -50.967094 20.890705 109 112 100
-92.755486 -50.952179 20.865362 109 119 97
-92.441246 -50.95277 20.812967 109 95 94
-92.337601 -50.908581 20.880999 76 77 72
-99.85482 -50.706959 20.875841 138 133 131
-99.795013 -50.718155 20.961807 95 96 90
-97.011208 -50.63649 20.851309 56 73 54
-96.89753 -50.661148 20.905266 69 79 69
-96.079842 -50.699139 20.926073 98 107 94
-95.912384 -50.694836 20.918236 80 91 76
-95.718643 -50.707661 20.922846 71 76 64
-95.474197 -50.70874 20.902006 88 99 85
-95.324829 -50.685913 20.911125 98 105 93
-95.069565 -50.721008 20.977575 87 90 81
-94.957878 -50.767952 20.868511 91 92 82
-94.066658 -50.785213 20.839838 90 93 82
-93.310242 -50.749702 20.979366 124 130 126
-92.876297 -50.726707 20.903267 123 131 118
-92.758934 -50.721306 20.89278 133 134 124
-92.54425 -50.711922 20.912212 79 74 71
-92.358559 -50.636871 20.824383 69 55 52
-92.108215 -50.71352 20.828297 62 66 69
-86.701141 -50.604961 20.882875 180 163 152
-86.48143 -50.661438 20.884842 119 115 110
