ply
format ascii 1.0
comment PCL generated
element vertex 1065
property float x
property float y
property float z
property uchar red
property uchar green
property uchar blue
element face 0
element camera 0
property float view_px
property float view_py
property float view_pz
property float x_axisx
property float x_axisy
property float x_axisz
property float y_axisx
property float y_axisy
property float y_axisz
property float z_axisx
property float z_axisy
property float z_axisz
property float focal
property float scalex
property float scaley
property float centerx
property float centery
property int viewportx
property int viewporty
property float k1
property float k2
end_header
-47.457127 -0.70757109 -0.34135056 113 132 91
-47.065086 -0.72907645 -0.30265877 87 110 70
-46.881409 -0.70830661 -0.31597906 91 116 75
-46.729275 -0.73213184 -0.32287741 89 113 69
-46.538292 -0.71544069 -0.36335838 99 119 67
-46.286549 -0.71877193 -0.29119381 76 104 59
-46.106182 -0.68986797 -0.32047299 89 119 72
-45.482635 -0.61922085 -0.3446641 85 114 55
-54.808857 -0.45502087 -0.39301014 141 163 93
-54.695721 -0.52153432 -0.33114195 123 130 73
-54.490253 -0.5541569 -0.3608284 97 102 51
-50.457935 -0.45354244 -0.31957424 144 146 152
-50.317528 -0.47879109 -0.29491466 169 171 173
-50.098934 -0.49368533 -0.29204503 160 179 192
-49.916245 -0.49927339 -0.3156139 147 157 168
-49.731575 -0.44902653 -0.34697601 143 167 197
-47.461483 -0.4840259 -0.37250137 107 116 87
-46.843811 -0.53424746 -0.30561972 100 120 75
-46.719265 -0.50787288 -0.37230602 93 108 64
-46.383205 -0.46070912 -0.38399935 54 81 30
-46.14415 -0.50452268 -0.37867832 102 118 70
-45.873821 -0.438389 -0.34123898 75 93 55
-45.708138 -0.51528907 -0.34989429 97 121 74
-45.527588 -0.55777544 -0.29115808 81 106 49
-54.855934 -0.21231748 -0.32022476 127 146 80
-50.622452 -0.27656579 -0.29450774 124 131 143
-50.48793 -0.2737433 -0.27087858 160 160 164
-50.285046 -0.3277747 -0.26508617 176 180 190
-50.085361 -0.30381835 -0.27618894 173 181 192
-49.912491 -0.25889674 -0.28643081 164 182 199
-49.711979 -0.31547493 -0.31616718 139 165 190
-49.528965 -0.25541744 -0.33507073 135 170 206
-55.357883 -0.1396842 -0.28597546 113 129 68
-54.923725 -0.15452094 -0.34352478 105 123 61
-54.646511 -0.090071663 -0.38266969 105 120 61
-50.677124 -0.067972854 -0.29501826 148 148 153
-50.519409 -0.093640119 -0.2498602 172 174 184
-50.28756 -0.11449519 -0.24277897 160 180 202
-50.101295 -0.092943765 -0.24116841 167 184 203
-49.885544 -0.11535273 -0.27436724 174 186 199
-49.704487 -0.089391083 -0.29330748 160 178 197
-49.493645 -0.089505419 -0.2792542 141 167 193
-49.338902 -0.06545087 -0.33707875 130 167 207
-55.530926 0.085313149 -0.35161448 103 115 59
-55.288216 0.051395684 -0.32186103 110 121 72
-55.146362 0.14876804 -0.36319351 116 117 77
-54.927696 0.049294971 -0.33196652 103 119 64
-54.758633 0.13157485 -0.27986372 116 129 76
-50.867447 0.13343422 -0.31442937 107 110 114
-50.69878 0.10594729 -0.25774291 167 168 178
-50.494484 0.095070973 -0.24747175 155 174 196
-50.303947 0.093743898 -0.25201347 141 176 207
-50.101028 0.10426156 -0.23924014 141 173 204
-49.91972 0.11474788 -0.23885615 146 175 205
-49.692215 0.069802463 -0.241822 172 183 198
-49.505005 0.11291409 -0.27655607 172 186 204
-49.317791 0.10218772 -0.28132537 149 173 199
-49.111958 0.14153351 -0.31855664 133 166 206
-55.505486 0.25418222 -0.30220509 118 130 73
-55.29306 0.29683712 -0.23018074 109 120 66
-55.043072 0.35000217 -0.29976237 108 126 74
-54.908436 0.28384379 -0.29143962 116 131 74
-54.703773 0.29540023 -0.27874118 114 132 69
-54.56134 0.29200384 -0.29294023 125 137 81
-53.705688 0.29475722 -0.38834286 108 112 101
-52.676842 0.35403466 -0.39218807 90 98 98
-51.978477 0.3665511 -0.38486671 121 120 126
-51.64407 0.21151698 -0.33109474 173 177 186
-51.439644 0.38773388 -0.39135265 74 72 77
-51.284294 0.34633607 -0.36826515 123 127 134
-51.037415 0.30834267 -0.33688089 90 92 96
-50.902702 0.29427752 -0.2639322 161 162 169
-50.697338 0.30687153 -0.25840655 161 173 191
-50.495876 0.28923565 -0.26576427 142 173 202
-50.287792 0.29531062 -0.25562021 132 168 202
-50.08287 0.31683984 -0.2550905 140 175 207
-49.882118 0.30933848 -0.24159801 139 174 209
-49.686752 0.29542506 -0.24056882 153 181 207
-49.489525 0.2876268 -0.27463469 167 184 201
-49.290077 0.27981937 -0.27527156 175 185 201
-49.119709 0.31751737 -0.28365678 169 184 210
-48.927795 0.31223449 -0.3000606 135 165 204
-48.735714 0.37035066 -0.35536557 136 173 218
-48.59124 0.37942502 -0.38980532 131 172 232
-55.621357 0.40661544 -0.24006557 106 114 61
-55.091328 0.50305784 -0.28637347 95 112 62
-54.906483 0.53607523 -0.29621139 104 117 69
-54.684959 0.46894184 -0.31590107 122 141 74
-54.591587 0.45736781 -0.33073568 111 136 70
-53.800503 0.54194152 -0.39532471 170 178 176
-53.456402 0.57500398 -0.38905621 110 121 122
-53.242374 0.51487875 -0.39129496 81 90 88
-53.194149 0.51494414 -0.22731686 57 67 77
-52.874798 0.50051898 -0.39286518 129 133 131
-52.76366 0.5126974 -0.39126921 135 140 142
-52.055698 0.59382045 -0.38017368 104 108 105
-51.850952 0.50437325 -0.29897308 120 123 129
-51.653625 0.57646656 -0.32349983 105 112 117
-51.480339 0.51508236 -0.34643197 104 106 107
-51.285973 0.54196829 -0.32201716 103 104 102
-51.082954 0.48056254 -0.30190474 136 136 139
-50.906506 0.51209009 -0.28022093 155 154 162
-50.696148 0.48696211 -0.24711673 160 170 190
-50.511585 0.51364464 -0.25479871 141 164 191
-50.326977 0.50355715 -0.25304738 124 156 191
-50.127438 0.51695907 -0.24834006 130 164 199
-49.906845 0.48840392 -0.25447801 141 175 208
-49.706215 0.49410924 -0.24764563 144 171 196
-49.519016 0.48151895 -0.24823758 142 162 183
-49.291649 0.49625653 -0.2225045 161 185 211
-49.069912 0.46811235 -0.28541729 183 190 207
-48.886108 0.49699345 -0.29465914 165 179 201
-48.727646 0.51976377 -0.31946754 145 169 197
-48.569569 0.54658628 -0.32497534 135 174 216
-55.277863 0.69096398 -0.30353308 109 117 69
-55.109913 0.70074278 -0.31024233 100 112 65
-54.913647 0.72810012 -0.37137914 108 116 72
-54.797089 0.60957569 -0.30363703 132 150 95
-54.142139 0.69527406 -0.37930393 106 118 118
-53.901245 0.63322699 -0.38771558 147 158 160
-53.705338 0.70238817 -0.37755322 141 151 153
-53.511917 0.64952505 -0.37371433 106 118 120
-53.309349 0.6595192 -0.38374996 124 136 138
-53.111774 0.73733276 -0.39969778 121 129 130
-52.912815 0.7810064 -0.38330841 110 119 121
-52.637936 0.73359841 -0.39084673 87 93 91
-52.51292 0.76976013 -0.35256067 115 108 103
-52.391071 0.68133008 -0.39218616 105 109 108
-52.058075 0.7663998 -0.33972216 117 124 125
-51.908035 0.72682786 -0.30789572 115 121 123
-51.700619 0.71549982 -0.30917653 97 97 92
-51.517231 0.69963336 -0.30491525 102 101 97
-51.302094 0.70482397 -0.29754356 99 99 99
-51.085442 0.68390644 -0.26980621 103 104 106
-50.898609 0.71811014 -0.30880293 118 117 123
-50.695816 0.71902722 -0.27750388 146 144 152
-50.482525 0.7078737 -0.25778145 161 167 186
-50.293396 0.7054224 -0.25536996 143 166 192
-50.090771 0.7146408 -0.26410326 132 162 194
-49.913658 0.71058458 -0.2585001 138 162 186
-49.680813 0.70674467 -0.25256103 140 155 171
-49.494385 0.71493763 -0.24726826 140 165 191
-49.324474 0.68062341 -0.24067225 150 179 205
-49.108212 0.69135076 -0.21359809 156 181 207
-48.873131 0.69920689 -0.22666809 173 181 203
-48.691097 0.67834777 -0.28230938 166 174 194
-48.539528 0.73864603 -0.30865741 155 163 181
-48.382561 0.77530748 -0.38513374 167 162 169
-55.259979 0.9078126 -0.25753179 79 96 51
-55.046242 0.87671983 -0.32725936 89 102 57
-54.916882 0.88075155 -0.31086874 99 112 63
-54.071136 0.98437756 -0.35876036 110 118 113
-53.881596 0.8759656 -0.37849832 92 101 99
-53.677994 0.93089515 -0.34713617 124 129 126
-53.505329 0.89308411 -0.35057464 130 136 133
-53.363312 0.88115573 -0.39049578 127 134 134
-53.092834 0.98783123 -0.38644409 111 121 120
-52.898003 0.82992893 -0.39340496 87 98 96
-52.728207 0.90390009 -0.38331953 140 149 154
-52.503399 0.88096666 -0.38195801 108 109 106
-52.272694 0.91169006 -0.3667016 151 155 160
-52.085789 0.92029727 -0.31791469 124 130 133
-51.908287 0.89369023 -0.29386914 116 121 126
-51.682629 0.89827675 -0.28215587 104 103 103
-51.481586 0.90684837 -0.28942475 118 116 120
-51.306885 0.90790868 -0.30142689 100 101 103
-51.104652 0.89778984 -0.30227599 121 120 128
-50.912395 0.89621174 -0.29953903 127 124 133
-50.693535 0.91041338 -0.32186025 114 113 119
-50.52264 0.90395254 -0.28678334 149 147 156
-50.316006 0.90403813 -0.24382177 173 177 196
-50.114765 0.91572791 -0.24234803 157 171 194
-49.904316 0.89770722 -0.25911951 135 155 178
-49.672646 0.91517133 -0.24076849 132 144 161
-49.487427 0.89846581 -0.24298048 137 153 174
-49.278301 0.90126944 -0.24057384 142 167 195
-49.100784 0.922939 -0.23072809 144 174 204
-48.904583 0.91729337 -0.23147893 144 170 200
-48.668877 0.9174785 -0.24731511 180 188 216
-48.507607 0.90879458 -0.29638299 170 169 185
-48.365547 0.84175944 -0.33758974 166 155 159
-55.081688 1.0497568 -0.26854807 92 104 61
-54.918335 1.1237695 -0.32423279 95 108 62
-54.717712 1.1662993 -0.37898222 122 123 94
-54.419159 1.1950744 -0.32224703 121 130 131
-54.246353 1.1082839 -0.3586255 160 167 171
-54.063007 1.0965376 -0.32530871 103 109 106
-53.920792 1.1099354 -0.28500664 104 111 106
-53.676712 1.1124847 -0.35852876 135 135 131
-53.461349 1.0140373 -0.37725806 142 144 143
-53.287189 1.1201997 -0.36781329 96 107 107
-53.115341 1.1785496 -0.39216232 98 106 108
-52.804665 1.072983 -0.36165261 114 122 124
-52.678028 1.1320087 -0.37024975 125 133 137
-52.26564 1.0850024 -0.36036158 115 122 126
-52.089622 1.0966868 -0.31160668 110 117 122
-51.902912 1.1066474 -0.33438271 146 148 161
-51.683899 1.0761421 -0.32615295 118 113 121
-51.488163 1.0838681 -0.33025041 129 126 134
-51.291199 1.1232413 -0.33506519 129 127 137
-51.088028 1.097061 -0.31893 141 138 150
-50.895618 1.1013547 -0.31610221 122 119 129
-50.707527 1.1087182 -0.31333211 107 105 112
-50.501503 1.1045051 -0.28859749 142 139 150
-50.290726 1.1081539 -0.30245173 140 137 149
-50.1077 1.1287793 -0.28112024 165 165 182
-49.945354 1.088711 -0.25052807 160 168 188
-49.72094 1.1138116 -0.24845868 138 153 179
-49.499359 1.1043154 -0.24231015 131 142 162
-49.313068 1.1038861 -0.23399493 128 136 151
-49.099567 1.1133816 -0.23150778 136 156 182
-48.911163 1.1050266 -0.23299354 138 161 190
-48.666664 1.1155399 -0.27739406 171 173 196
-48.541 1.0596322 -0.30888331 173 169 183
-55.071674 1.2354915 -0.3200531 99 116 61
-54.893715 1.2896963 -0.29375279 104 115 69
-54.724869 1.3120407 -0.39438868 105 111 80
-54.494171 1.3464053 -0.39096141 157 161 163
-54.312481 1.2633618 -0.35981926 135 143 145
-54.09856 1.2678764 -0.37051678 109 115 113
-53.905365 1.2759819 -0.30511442 104 114 111
-53.65686 1.3498636 -0.30519104 138 143 145
-53.525314 1.2862382 -0.34572849 111 114 116
-53.286861 1.3262181 -0.35053954 101 109 106
-53.0177 1.2649151 -0.35531235 115 123 122
-52.856884 1.2907836 -0.36115563 140 148 153
-52.684494 1.332384 -0.35111347 108 118 120
-52.469639 1.2747778 -0.34468746 109 117 123
-52.270164 1.2610991 -0.31480807 120 129 134
-52.113056 1.3245676 -0.29402065 114 121 126
-51.862282 1.3205217 -0.32690281 123 122 130
-51.710171 1.2791529 -0.31318814 139 137 147
-51.516624 1.2878312 -0.33656123 130 126 137
-51.301025 1.2989544 -0.33050513 111 110 119
-51.098221 1.2803311 -0.32019365 145 140 153
-50.898205 1.2941672 -0.30462676 133 127 139
-50.690681 1.3070368 -0.30692232 141 139 153
-50.4827 1.2851173 -0.30923542 129 128 141
-50.290508 1.3017092 -0.30710462 132 130 141
-50.09803 1.3056184 -0.30201942 124 122 129
-49.896477 1.3187966 -0.28716147 153 151 164
-49.689034 1.3155057 -0.24795251 166 170 189
-49.470192 1.3002034 -0.24463184 138 152 178
-49.280704 1.2942867 -0.24337427 130 144 168
-49.102932 1.3066429 -0.23481894 137 145 164
-48.891376 1.3160104 -0.25808892 159 164 186
-48.726921 1.2752612 -0.29961866 166 165 181
-48.578472 1.2178736 -0.31773376 165 158 174
-55.02454 1.5668308 -0.29009247 108 112 72
-54.878922 1.4972011 -0.31735197 98 108 66
-54.721672 1.5244936 -0.38612223 113 115 97
-54.498573 1.527824 -0.37287542 141 146 147
-54.327446 1.5400693 -0.33068886 113 121 120
-54.10236 1.5045851 -0.33495355 102 108 106
-53.842896 1.4991823 -0.27722406 112 124 127
-53.711967 1.5014331 -0.35043994 111 118 120
-53.468273 1.4891415 -0.3559711 160 158 164
-53.277832 1.5274731 -0.32941484 86 95 92
-53.100269 1.5360557 -0.31677756 119 129 129
-52.905537 1.4724299 -0.35805035 115 123 127
-52.662811 1.5656079 -0.32370329 108 117 120
-52.462933 1.4966507 -0.32125902 94 103 109
-52.27026 1.4676392 -0.3065477 99 105 111
-52.100941 1.5067519 -0.31489623 115 120 127
-51.892151 1.5032719 -0.33479029 126 126 135
-51.705254 1.4789885 -0.31158543 139 137 148
-51.502392 1.4990638 -0.31683236 140 138 150
-51.285885 1.4819119 -0.31032351 121 119 131
-51.089256 1.491459 -0.29737937 139 134 148
-50.885185 1.5179038 -0.29838112 164 160 174
-50.692631 1.4983906 -0.3136678 134 132 146
-50.514938 1.4966098 -0.3113001 127 123 132
-50.315887 1.4883062 -0.3062492 124 120 127
-50.114933 1.5055969 -0.28070566 108 106 97
-49.907623 1.4990636 -0.3054055 112 109 105
-49.699001 1.509536 -0.28917551 132 129 141
-49.518806 1.5156189 -0.25381571 159 159 179
-49.28878 1.5028749 -0.24360549 148 156 179
-49.094799 1.5054998 -0.25166306 150 155 174
-48.908508 1.4961767 -0.29288378 161 158 173
-48.787594 1.472847 -0.34048781 130 124 131
-55.040646 1.6608828 -0.32878578 94 105 61
-54.91954 1.6966088 -0.32392788 92 103 63
-54.711533 1.7175828 -0.37704325 100 108 96
-54.48674 1.7230448 -0.36557797 149 154 157
-54.33728 1.6831945 -0.33422011 135 142 143
-54.146698 1.7038704 -0.29676497 109 117 117
-53.958767 1.6710448 -0.33207288 107 113 116
-53.687214 1.7053341 -0.32916704 113 116 117
-53.473633 1.7592497 -0.36755592 132 136 144
-53.297913 1.6853564 -0.36811534 121 127 134
-53.128868 1.7078106 -0.3514879 134 137 146
-52.924618 1.713771 -0.33821467 134 138 144
-52.743004 1.746588 -0.32632041 99 107 107
-52.476448 1.7011609 -0.32868326 107 115 122
-52.306351 1.6944637 -0.32271999 81 87 93
-52.116615 1.6892847 -0.32272822 103 108 112
-51.909576 1.6953973 -0.31611994 126 125 133
-51.697464 1.6795454 -0.31474641 151 148 158
-51.510311 1.7104582 -0.32685331 133 126 135
-51.305077 1.6858294 -0.29844418 139 136 151
-51.103237 1.695505 -0.31083998 132 127 140
-50.900967 1.7360694 -0.31565645 145 142 158
-50.70266 1.6999261 -0.3145622 147 142 155
-50.505329 1.6970779 -0.32636136 144 135 145
-50.303528 1.7099918 -0.31207737 129 122 124
-50.085125 1.6848805 -0.2797215 126 121 109
-49.89043 1.6961522 -0.28883073 114 111 108
-49.686497 1.7011064 -0.29739746 120 118 124
-49.49379 1.6971008 -0.301772 141 138 149
-49.319477 1.7250335 -0.27556494 149 145 158
-49.094479 1.707208 -0.27261522 153 150 164
-48.972317 1.6897392 -0.31655732 124 121 126
-54.868416 1.9143345 -0.30305701 100 107 78
-54.693829 1.9086236 -0.34638971 113 118 112
-54.48217 1.9113556 -0.3373844 156 163 168
-54.328976 1.9018353 -0.35786662 144 149 151
-54.088825 1.9206467 -0.3564941 111 113 114
-53.919746 1.8791978 -0.36332199 116 117 117
-53.721149 1.9208101 -0.34249699 109 112 112
-53.483131 1.8870329 -0.36765057 141 142 151
-53.297821 1.8973497 -0.34914371 110 116 123
-53.005566 1.8721123 -0.27753448 70 80 80
-52.932007 1.873785 -0.36061242 147 147 156
-52.717449 1.926018 -0.28791332 112 122 132
-52.480579 1.9024566 -0.31471205 136 145 150
-52.287678 1.8762357 -0.2855424 105 114 118
-52.093037 1.8890505 -0.34201515 120 123 128
-51.881729 1.8947445 -0.33721942 130 131 140
-51.701893 1.8892237 -0.2944921 146 141 152
-51.481964 1.9165021 -0.32557282 129 123 134
-51.312214 1.8849703 -0.31835213 128 122 134
-51.096924 1.9139354 -0.2881079 130 127 138
-50.893444 1.9242569 -0.30398616 132 128 145
-50.700253 1.8817035 -0.32140729 145 138 151
-50.512459 1.8926014 -0.32913297 150 145 157
-50.328693 1.9116836 -0.32023343 142 136 145
-50.098274 1.9031264 -0.29856873 141 132 127
-49.903431 1.8977784 -0.29081902 132 126 128
-49.695858 1.8896174 -0.26234782 113 111 106
-49.503769 1.9038934 -0.29461035 107 106 102
-49.286884 1.9133629 -0.29767776 129 124 119
-49.143818 1.8863889 -0.32492039 131 128 132
-48.978348 1.8896303 -0.364151 131 138 149
-54.82333 2.0131021 -0.28888822 123 120 105
-54.69593 2.1190646 -0.30069107 122 130 124
-54.493183 2.0823395 -0.27661926 143 150 152
-54.297028 2.0747831 -0.35057476 111 116 116
-54.114098 2.1120179 -0.34233549 126 126 128
-53.909054 2.0782874 -0.33223492 111 112 112
-53.690453 2.1050389 -0.36158901 126 127 130
-53.482761 2.1016729 -0.3464793 138 141 149
-53.311878 2.116116 -0.35107654 121 126 133
-53.07259 2.1435745 -0.36542407 118 116 121
-52.917858 2.1266661 -0.36201459 134 135 147
-52.678699 2.1048772 -0.34033054 155 157 170
-52.477077 2.0992451 -0.36076242 160 158 170
-52.304222 2.1125085 -0.30155268 123 126 131
-52.090725 2.1134114 -0.33644935 114 115 120
-51.919247 2.0915465 -0.3132773 116 118 126
-51.683823 2.0980864 -0.30090207 166 161 173
-51.511562 2.1113515 -0.29467845 148 146 163
-51.289665 2.0875282 -0.31422985 128 121 133
-51.092999 2.0950408 -0.31492868 129 125 137
-50.894707 2.1074469 -0.28889614 125 120 133
-50.690277 2.0979016 -0.30355287 129 120 131
-50.496693 2.1046171 -0.32474127 133 128 139
-50.283455 2.0998638 -0.30937034 128 125 122
-50.098629 2.0980971 -0.28771919 135 129 110
-49.902618 2.0994184 -0.28472733 140 134 118
-49.70673 2.0621827 -0.28055146 126 125 102
-49.491791 2.0959289 -0.29663348 116 119 99
-49.338963 2.1134462 -0.32736155 118 118 102
-49.168797 2.130533 -0.36038923 114 115 107
-55.331421 2.3569083 -0.24610782 87 89 68
-55.159492 2.2853162 -0.26418257 103 116 84
-54.894249 2.3104999 -0.27520189 127 134 125
-54.702297 2.3147137 -0.26993731 125 133 129
-54.520321 2.2841208 -0.30810928 113 121 123
-54.290951 2.3127279 -0.3356612 104 109 107
-54.0989 2.3403385 -0.31305683 116 119 121
-53.921242 2.2753642 -0.36119902 106 112 111
-53.683968 2.3244262 -0.34554189 123 124 130
-53.486328 2.3044093 -0.34535393 126 126 132
-53.323769 2.2799363 -0.36839193 132 133 139
-53.122166 2.3028972 -0.36603045 147 143 147
-52.898903 2.2757103 -0.34510741 157 159 171
-52.694897 2.3007946 -0.33824667 137 140 151
-52.502079 2.3019416 -0.32324895 149 147 156
-52.280113 2.3029852 -0.32791701 129 130 140
-52.074482 2.3244536 -0.32872573 136 135 146
-51.898602 2.3095875 -0.32878709 155 152 167
-51.699257 2.2993891 -0.30971405 153 147 161
-51.502666 2.2943988 -0.28609648 139 136 154
-51.304272 2.2957377 -0.25710157 153 149 162
-51.117386 2.2836304 -0.28294235 152 150 166
-50.912392 2.2920535 -0.29500157 124 122 134
-50.701069 2.2905288 -0.2944361 122 117 126
-50.508507 2.2963486 -0.31507823 121 117 126
-50.312649 2.2966495 -0.31997907 107 107 106
-50.099873 2.3107922 -0.31465793 121 119 117
-49.895748 2.2898767 -0.30760744 138 136 120
-49.704426 2.2993538 -0.31739303 120 121 109
-49.509632 2.279351 -0.30833396 115 118 104
-49.330318 2.2504506 -0.33876687 108 113 99
-55.234261 2.5431485 -0.27469063 90 95 88
-55.111828 2.5583529 -0.25305915 107 111 110
-54.891026 2.4919324 -0.28034183 119 124 121
-54.699718 2.509305 -0.2689558 121 128 126
-54.495304 2.5179307 -0.28840497 125 132 134
-54.300457 2.4907405 -0.27977675 147 151 156
-54.087486 2.514792 -0.26739135 140 143 147
-53.881542 2.5023363 -0.33899298 111 115 117
-53.705078 2.5084076 -0.33939824 149 154 164
-53.518394 2.4926007 -0.33491004 130 134 140
-53.295105 2.4854534 -0.35132802 147 140 142
-53.154404 2.5095489 -0.37780243 127 124 130
-52.852497 2.4939442 -0.37261227 144 147 158
-52.673073 2.5216792 -0.34527671 144 148 157
-52.487926 2.5001535 -0.34579515 128 126 134
-52.307335 2.5071008 -0.32310057 131 130 141
-52.122051 2.518935 -0.30715793 137 134 145
-51.903706 2.4923317 -0.31348598 144 144 156
-51.708889 2.5060184 -0.28106719 131 132 145
-51.481152 2.5106583 -0.2991806 130 126 139
-51.294262 2.5049686 -0.2810311 138 132 143
-51.090084 2.5162506 -0.30032164 136 131 148
-50.904678 2.4985268 -0.31432959 133 130 141
-50.706451 2.5018764 -0.3019827 150 146 160
-50.504852 2.5087826 -0.31424314 129 126 134
-50.305687 2.4984159 -0.30289999 118 121 128
-50.102318 2.4902763 -0.29311255 103 106 104
-49.916904 2.485713 -0.29311356 107 109 109
-49.710701 2.4937449 -0.31112117 95 99 95
-49.524212 2.4688091 -0.33176455 119 119 123
-49.342293 2.4557633 -0.28773928 127 122 122
-55.535095 2.7264285 -0.21318674 106 114 91
-55.300056 2.7358744 -0.30985579 79 84 74
-55.120918 2.7097096 -0.24085779 97 101 96
-54.904026 2.6612856 -0.2650362 126 133 132
-54.687424 2.6814041 -0.24435687 126 133 120
-54.497108 2.6853428 -0.2714166 125 135 128
-54.293495 2.704993 -0.29623502 155 162 168
-54.079651 2.7090394 -0.29422694 125 133 140
-53.888435 2.6861105 -0.29558921 115 122 127
-53.696594 2.7124047 -0.33091193 117 122 127
-53.504345 2.6809425 -0.33687353 116 120 121
-53.287956 2.7178855 -0.32550973 148 148 148
-53.11916 2.6900449 -0.33659351 150 146 152
-52.90583 2.7006261 -0.34183073 159 162 172
-52.71846 2.7077279 -0.35127789 127 127 134
-52.473183 2.6880934 -0.34306958 119 119 128
-52.313141 2.7008774 -0.29346672 147 145 156
-52.097542 2.7114751 -0.31515163 145 141 149
-51.901188 2.6793184 -0.30148813 116 119 130
-51.712231 2.6971009 -0.30925065 152 152 172
-51.506737 2.6932442 -0.28067219 150 149 164
-51.300278 2.6992242 -0.29093406 121 119 133
-51.10783 2.7071481 -0.31819892 117 115 125
-50.896824 2.6906614 -0.29619402 124 124 132
-50.69846 2.6990931 -0.32181364 138 136 144
-50.498829 2.6963561 -0.34097424 135 133 142
-50.279697 2.6744292 -0.34113631 125 129 140
-50.109215 2.6946502 -0.35229036 109 113 122
-49.937954 2.6847837 -0.36335763 109 113 120
-49.70359 2.6563201 -0.35892811 99 101 104
-49.491486 2.7397871 -0.31912819 148 147 151
-49.332458 2.7367263 -0.37489176 98 101 106
-49.126305 2.770786 -0.36100054 110 115 122
-55.617462 2.8140073 -0.20790863 97 108 85
-55.428822 2.9657359 -0.20295 117 122 116
-55.345291 2.8402174 -0.27790451 96 103 94
-54.735409 2.9947062 -0.24326658 155 164 163
-54.471886 2.8254962 -0.24874353 124 129 116
-54.274944 2.9076107 -0.28330842 128 134 135
-54.100605 2.9076905 -0.29276875 135 143 148
-53.898384 2.8898199 -0.27104121 142 145 149
-53.711613 2.9242275 -0.3242166 131 134 135
-53.483131 2.8742933 -0.33402047 134 135 138
-53.29018 2.9049864 -0.34176531 147 149 156
-53.127899 2.8890028 -0.33509064 128 131 136
-52.883587 2.8804605 -0.35685086 143 142 148
-52.690041 2.9324663 -0.32502776 120 119 121
-52.504837 2.8905063 -0.32834202 124 124 132
-52.307125 2.9015944 -0.29679251 145 145 156
-52.082531 2.8903632 -0.30099705 133 130 140
-51.897461 2.8908305 -0.29026833 113 116 125
-51.681217 2.9184752 -0.30157664 146 145 163
-51.502697 2.910321 -0.29996616 135 134 152
-51.299126 2.9040544 -0.29174754 117 116 128
-51.099087 2.9052324 -0.31129521 112 111 117
-50.90855 2.8984108 -0.33445844 124 124 132
-50.730053 2.9086349 -0.31939605 111 115 120
-50.498737 2.9109197 -0.35817233 130 132 138
-50.313229 2.8669631 -0.37747207 114 121 130
-50.121323 2.8915017 -0.38642406 99 105 107
-49.952896 2.8800521 -0.355932 99 106 114
-49.745403 2.9552274 -0.30148315 55 51 50
-49.330536 2.8760648 -0.36585063 129 128 138
-49.150658 2.8849912 -0.39665794 107 107 115
-46.700424 2.9492519 -0.33188868 109 124 81
-55.392601 3.1803763 -0.21014452 106 115 86
-54.780411 3.1397185 -0.20367765 115 123 121
-54.50869 3.1222157 -0.20480967 156 163 158
-54.304142 3.1074495 -0.27584967 168 171 169
-54.114422 3.0983686 -0.27879059 128 131 129
-53.915062 3.0952995 -0.27152333 136 138 133
-53.675068 3.0766356 -0.27443859 136 137 132
-53.492447 3.0827537 -0.31944296 127 128 123
-53.29718 3.1261504 -0.32022354 130 131 129
-53.11039 3.1013267 -0.35314465 131 131 131
-52.905254 3.0850427 -0.32822454 113 116 109
-52.686718 3.1212521 -0.31849208 120 122 123
-52.492516 3.0745606 -0.30908993 123 124 133
-52.296757 3.1041532 -0.28880784 127 130 141
-52.111015 3.0891397 -0.30326542 124 125 137
-51.922871 3.1008539 -0.31040353 139 138 154
-51.719151 3.1284368 -0.28528449 124 122 138
-51.497005 3.1062632 -0.31708318 118 118 131
-51.309654 3.0836141 -0.30580068 130 129 136
-51.100964 3.0855331 -0.29942709 100 102 104
-50.902752 3.1142967 -0.33176315 109 113 118
-50.682838 3.0587726 -0.34378058 117 122 128
-50.494797 3.0813515 -0.348169 147 150 169
-50.257141 3.1724477 -0.32726765 79 78 84
-50.079025 3.0385532 -0.35121298 127 126 135
-49.871044 3.0395184 -0.37061977 124 122 130
-49.695038 3.0896528 -0.37011528 110 106 111
-49.44376 3.1359804 -0.34944233 134 137 146
-49.234055 3.1979239 -0.37900019 127 127 141
-48.747494 3.0768802 -0.37414503 77 78 85
-46.68449 3.1020482 -0.38222361 121 138 95
-46.540894 3.1239402 -0.37113857 128 143 99
-55.322269 3.2935629 -0.20165563 80 86 54
-55.109295 3.3616707 -0.2338268 106 111 97
-54.9217 3.313982 -0.24063015 147 151 153
-54.679241 3.3055267 -0.22494638 105 110 111
-54.488182 3.2480536 -0.20697451 161 165 165
-53.828697 3.3861375 -0.2102704 127 133 105
-53.452065 3.2821043 -0.2850799 115 116 99
-53.295864 3.2889855 -0.26986298 115 117 103
-53.113926 3.3454843 -0.33573073 107 112 101
-52.87149 3.3008049 -0.35173908 127 129 124
-52.703934 3.2978399 -0.3246693 103 109 103
-52.51329 3.2911828 -0.30063853 107 112 112
-52.294701 3.3119469 -0.32233632 124 127 137
-52.094494 3.3097141 -0.2899833 143 143 159
-51.888149 3.2917113 -0.30801949 129 129 141
-51.688328 3.3130493 -0.30930835 126 125 136
-51.490227 3.2915595 -0.30724454 132 131 140
-51.31955 3.2940903 -0.31624866 113 115 121
-51.110218 3.3026149 -0.33102921 90 96 99
-50.935783 3.316426 -0.32689908 106 112 113
-50.680676 3.3065722 -0.32062897 94 97 101
-50.539261 3.3096831 -0.36896265 101 102 107
-50.296021 3.3421278 -0.35091877 114 120 127
-50.076878 3.288904 -0.35013103 112 115 125
-49.852352 3.2504313 -0.33231768 131 133 144
-49.687344 3.3678839 -0.27537298 114 116 126
-49.538654 3.2773287 -0.31980196 128 124 137
-49.362221 3.3950059 -0.37785006 156 160 183
-49.021118 3.2254329 -0.35539436 198 198 212
-46.854099 3.3191898 -0.37217173 108 123 79
-46.676624 3.2140112 -0.37204909 119 134 90
-46.41396 3.2885258 -0.39696598 126 135 93
-55.04475 3.584147 -0.22320986 138 143 128
-54.864841 3.5357916 -0.22653103 117 124 113
-54.740482 3.5128627 -0.25088906 104 111 104
-54.560322 3.4306383 -0.22479272 143 145 143
-54.390659 3.4612484 -0.21307802 118 130 130
-54.18848 3.4012926 -0.20046949 125 138 132
-53.325638 3.4379885 -0.26055765 101 110 86
-53.075989 3.4383795 -0.26592422 98 110 88
-52.912094 3.4933395 -0.31474096 98 112 88
-52.706451 3.5223432 -0.33654898 97 104 97
-52.504551 3.4900908 -0.31188467 105 113 113
-52.303596 3.5379753 -0.32324904 123 124 132
-52.102089 3.4973569 -0.28625196 129 131 143
-51.899338 3.509141 -0.29894865 111 113 124
-51.716438 3.4773655 -0.29626727 112 117 123
-51.511391 3.4980087 -0.30780452 124 128 135
-51.300327 3.4825785 -0.31946301 85 91 92
-51.093399 3.5189207 -0.35025787 122 124 130
-50.915844 3.4554563 -0.28634274 119 126 130
-50.706543 3.4932888 -0.34169161 104 111 114
-50.277969 3.535692 -0.38325906 128 135 150
-50.134747 3.4017062 -0.29517841 88 92 96
-49.870861 3.4768054 -0.35454044 177 175 186
-49.709087 3.5389404 -0.35332584 167 169 180
-49.4137 3.4842443 -0.3843185 116 123 138
-49.242496 3.5819952 -0.38643551 128 129 136
-48.60321 3.4424067 -0.3779459 225 224 240
-47.33543 3.4903986 -0.35692358 85 94 56
-47.089455 3.5448873 -0.37278306 83 96 54
-46.897369 3.4809198 -0.37095928 101 114 70
-54.870255 3.6699061 -0.2277956 91 96 78
-54.736279 3.6050885 -0.29011726 137 144 137
-54.493332 3.716222 -0.20869653 106 118 120
-54.357117 3.7435384 -0.20576739 120 131 131
-53.004902 3.6048679 -0.2084794 80 102 68
-52.890087 3.6403139 -0.26764435 80 97 64
-52.674999 3.6886985 -0.2914128 96 110 93
-52.498436 3.6850634 -0.30839455 112 119 119
-52.285374 3.7008743 -0.306456 108 113 115
-52.103844 3.6852186 -0.29090658 119 122 127
-51.913681 3.6963234 -0.29125419 101 107 110
-51.709702 3.7000704 -0.2994526 104 109 110
-51.50423 3.6914356 -0.29677486 109 115 117
-51.325909 3.7047896 -0.32146928 89 96 92
-51.121365 3.7077448 -0.35450697 80 88 83
-50.931049 3.6628811 -0.37526497 89 98 97
-50.521 3.6474538 -0.39227319 115 118 121
-50.342548 3.7230186 -0.39224195 91 97 103
-50.134583 3.7125199 -0.38806078 125 133 138
-49.898079 3.6947594 -0.36119834 102 109 114
-49.682377 3.6798768 -0.37440243 145 149 163
-49.53981 3.6625767 -0.38135815 153 161 174
-49.299244 3.7380047 -0.38602114 132 134 143
-49.186127 3.641398 -0.3977375 254 251 255
-48.694466 3.6383576 -0.39587498 183 202 217
-48.166222 3.6273425 -0.39327097 208 210 235
-47.508228 3.7890825 -0.37176371 106 112 82
-47.274338 3.6271467 -0.3795259 81 92 55
-47.0802 3.6815434 -0.37170377 98 110 66
-46.907429 3.7005994 -0.31336299 106 121 74
-46.704189 3.6437762 -0.34285116 116 126 82
-54.328369 3.8604212 -0.2220881 123 132 129
-52.864353 3.818398 -0.22827148 91 110 78
-52.695168 3.8945179 -0.25218624 101 112 88
-52.514061 3.9248402 -0.28985971 118 121 113
-52.29459 3.9159248 -0.30625781 113 114 112
-52.106834 3.9113288 -0.31392691 108 110 109
-51.906242 3.915678 -0.33043483 102 107 104
-51.699947 3.8939466 -0.29415151 103 111 100
-51.507446 3.8865268 -0.28873119 103 112 101
-51.299656 3.9041157 -0.29152009 76 95 67
-51.105999 3.9227834 -0.33375958 71 92 60
-50.891781 3.9324775 -0.35019726 105 119 100
-50.730789 3.9882913 -0.39985037 119 119 122
-50.506115 3.8940213 -0.34128585 121 127 131
-50.326908 3.9097481 -0.35348633 118 126 130
-50.070004 3.8969378 -0.36083466 114 122 128
-49.883156 3.8852489 -0.38223878 126 127 134
-49.759399 3.9218292 -0.34665713 153 153 156
-49.456043 3.9501181 -0.38886952 127 129 142
-48.590382 3.8148999 -0.34924984 195 202 221
-47.560932 3.8463335 -0.37620258 94 100 77
-47.364029 3.8713722 -0.36782885 96 106 65
-47.083904 3.8726003 -0.36049715 95 109 65
-46.956383 3.9886725 -0.33966494 107 121 74
-46.723854 3.868679 -0.38351369 112 118 75
-46.59269 3.9946609 -0.27255917 120 120 82
-52.871525 4.0866475 -0.2058239 81 101 67
-52.623894 4.1344109 -0.20983958 93 107 74
-52.499706 4.0764103 -0.23098594 110 117 87
-52.305443 4.0875807 -0.25345141 108 118 93
-52.079315 4.0729499 -0.26099822 103 113 91
-51.920189 4.1082606 -0.29015598 94 105 85
-51.721016 4.0951324 -0.28403124 103 117 93
-51.51318 4.1065989 -0.31042954 92 109 86
-51.294498 4.096209 -0.32773948 84 106 73
-51.124702 4.0904222 -0.30736098 74 94 59
-50.91209 4.1028733 -0.3522484 95 110 85
-50.663387 4.0768032 -0.3376317 89 103 76
-50.50523 4.0930529 -0.34923124 103 113 104
-50.292976 4.095068 -0.34325385 146 152 160
-50.113045 4.0600271 -0.34118497 149 159 168
-49.88485 4.1306729 -0.37465078 134 141 150
-49.652489 4.1285543 -0.3870225 109 118 128
-49.494385 4.1419959 -0.36145383 116 125 134
-49.306576 4.0797486 -0.38399902 133 137 150
-49.123894 4.1256471 -0.38193941 160 165 189
-47.488747 4.1836476 -0.36197662 96 119 73
-47.288025 4.1108751 -0.33262426 106 121 72
-47.069611 4.0908923 -0.35654536 109 126 76
-46.918983 4.0777397 -0.34994793 105 121 72
-46.720184 4.1123633 -0.34667397 122 128 80
-46.59306 4.114223 -0.37193251 117 117 78
-52.906445 4.3248959 -0.20667505 80 101 66
-52.613811 4.3319955 -0.20889902 101 130 86
-52.467484 4.2732277 -0.22380126 112 121 88
-52.35495 4.2694759 -0.208673 110 120 90
-52.051617 4.2377505 -0.20560551 96 118 83
-51.92223 4.287456 -0.21384621 93 117 83
-51.606804 4.2315817 -0.25431156 70 92 56
-51.515991 4.2287889 -0.23560123 89 116 83
-51.288479 4.2799559 -0.28137854 86 109 78
-51.094116 4.2999592 -0.3212283 76 92 60
-50.912674 4.2790613 -0.32596171 77 93 66
-50.70615 4.3148532 -0.33134645 87 102 76
-50.50032 4.2827892 -0.32380134 80 95 69
-50.306198 4.2907047 -0.34436703 103 110 104
-50.112408 4.3124123 -0.35183114 121 127 131
-49.902496 4.3239632 -0.34844327 110 116 114
-49.657982 4.3186927 -0.33357692 127 134 127
-49.527695 4.336657 -0.3026872 119 128 115
-49.317543 4.3273525 -0.36689758 98 103 104
-49.091965 4.2557487 -0.28983831 101 105 106
-48.663002 4.3768067 -0.39660645 77 81 91
-47.786812 4.3586106 -0.36435366 108 125 80
-47.47179 4.2946191 -0.36275572 104 125 80
-47.35553 4.3025079 -0.36272174 105 123 76
-47.00576 4.2231207 -0.35788918 101 117 63
-46.940971 4.325078 -0.37406182 78 98 48
-46.632084 4.2092133 -0.38378572 120 131 73
-46.571911 4.2532029 -0.39765263 112 110 71
-46.176956 4.3200827 -0.36770535 119 124 85
-52.662331 4.5062509 -0.22074437 93 110 78
-52.289017 4.5603056 -0.22803068 93 113 75
-51.268135 4.5103178 -0.21740675 85 112 82
-51.075172 4.4775419 -0.27936596 95 112 85
-50.885544 4.5086365 -0.30278948 84 100 70
-50.693672 4.5049543 -0.30239439 96 112 83
-50.489719 4.4994063 -0.31108686 95 110 84
-50.297237 4.5026507 -0.33364967 99 106 90
-50.102833 4.4799905 -0.32384515 114 123 116
-49.918549 4.5160847 -0.32209405 103 116 95
-49.68531 4.4522419 -0.30124745 130 141 130
-49.52047 4.4861035 -0.30157405 126 137 124
-49.323814 4.5313554 -0.30773792 112 119 108
-49.102283 4.5252995 -0.36618152 103 110 108
-48.933449 4.517386 -0.33238083 97 106 105
-48.737354 4.5051889 -0.37022391 104 114 103
-48.088051 4.4751358 -0.3781656 110 117 105
-47.852589 4.5531473 -0.36860275 88 113 61
-47.683914 4.5119095 -0.37669134 95 119 66
-47.514282 4.4354753 -0.37939167 95 115 70
-47.320538 4.4969397 -0.35813963 108 126 81
-47.191013 4.4265246 -0.38600302 97 117 61
-46.967476 4.5023136 -0.34878683 107 128 69
-45.906898 4.5369916 -0.39500904 122 113 84
-52.272022 4.6660233 -0.21499109 82 103 66
-51.249969 4.661798 -0.24528567 79 105 75
-51.129486 4.7263012 -0.24204834 90 109 81
-50.914192 4.6784258 -0.26321423 89 104 73
-50.721401 4.7023644 -0.26190779 95 116 79
-50.505562 4.7027173 -0.29519156 99 111 91
-50.303841 4.6915126 -0.30995202 101 115 96
-50.102982 4.7040873 -0.29864067 100 114 85
-49.887234 4.7074194 -0.31714845 101 110 89
-49.684086 4.6994758 -0.3054167 103 107 95
-49.506241 4.6786337 -0.29977834 124 131 117
-49.297859 4.6859283 -0.27268299 126 138 116
-49.117977 4.688591 -0.34858841 109 116 103
-48.911564 4.7000952 -0.3423886 108 123 89
-48.706764 4.7166886 -0.33624339 96 111 74
-48.489292 4.7205687 -0.33074355 104 112 88
-48.292046 4.7592063 -0.31452841 103 110 80
-48.092033 4.735714 -0.32623574 106 118 80
-47.925938 4.7060061 -0.3307977 105 119 75
-47.718498 4.6995082 -0.35884801 101 116 71
-47.517578 4.7042785 -0.36592546 98 113 70
-47.293175 4.6799245 -0.36150479 103 118 68
-47.079441 4.6875753 -0.38874149 106 124 71
-46.927643 4.7269263 -0.38646555 118 136 81
-51.239395 4.8937421 -0.22025283 88 98 78
-51.025578 4.8750949 -0.23439586 90 104 74
-50.872494 4.8818283 -0.26354048 93 112 76
-50.715553 4.8522167 -0.25414884 94 113 78
-50.528393 4.8812256 -0.27792192 96 110 81
-50.298252 4.8701506 -0.29738721 105 124 93
-50.106766 4.8952017 -0.31207696 101 116 85
-49.916172 4.9031215 -0.31108516 113 122 96
-49.696098 4.8685131 -0.32199371 115 118 101
-49.485477 4.9038558 -0.29679835 132 137 111
-49.298073 4.9028678 -0.31628621 112 119 89
-49.09557 4.9218025 -0.31348696 112 119 90
-48.880489 4.9051018 -0.31368312 114 118 92
-48.690319 4.9123812 -0.30580059 115 118 94
-48.481548 4.8956194 -0.28325382 123 128 103
-48.298607 4.9158921 -0.29067552 122 129 101
-48.077072 4.8992743 -0.29506218 115 122 89
-47.890202 4.8900886 -0.31058726 110 117 80
-47.703968 4.9086142 -0.31188577 115 126 83
-47.521206 4.9180984 -0.30349773 117 126 84
-47.303329 4.9521899 -0.3692829 109 116 74
-47.192924 4.9030571 -0.39546156 113 124 83
-46.987255 4.8041854 -0.35329628 108 124 79
-46.646969 4.960938 -0.34587204 118 131 92
-46.578262 4.9577885 -0.31818151 113 124 82
-51.733261 5.1444831 -0.23218131 93 111 83
-51.027409 5.0863256 -0.22031021 115 128 91
-50.919758 5.0978618 -0.23268621 98 113 81
-50.695545 5.1208 -0.23683254 91 106 74
-50.501377 5.1285515 -0.25288397 106 122 86
-50.270859 5.113255 -0.25800139 104 119 85
-50.096752 5.0838771 -0.28958401 105 117 85
-49.896721 5.1054544 -0.31825548 128 137 107
-49.739002 5.1261935 -0.28236845 134 145 115
-49.460793 5.1262989 -0.25284958 125 130 103
-49.322948 5.107347 -0.29078048 109 118 88
-49.115871 5.1133213 -0.31822276 113 121 92
-48.886757 5.1091065 -0.28805748 127 128 103
-48.718143 5.0896559 -0.31131309 134 131 114
-48.50816 5.0821271 -0.28877217 137 140 121
-48.31076 5.0990491 -0.28593758 126 138 107
-48.097775 5.0873842 -0.28538865 127 135 104
-47.898056 5.1063056 -0.30862215 117 121 88
-47.70031 5.0955052 -0.30751482 123 128 90
-47.469425 5.0984011 -0.34666246 110 114 78
-47.285583 5.1084652 -0.35332736 109 111 74
-47.115105 5.1189942 -0.36067003 109 111 75
-46.870171 5.1010637 -0.34440506 116 114 83
-46.695282 5.1184926 -0.32408032 119 119 84
-46.55463 5.06182 -0.35313159 123 126 93
-51.429523 5.2902446 -0.24727154 111 132 101
-51.026413 5.3651676 -0.21761513 111 123 87
-50.917252 5.2554502 -0.20105314 95 111 75
-50.666153 5.281229 -0.24303186 102 116 84
-50.471592 5.2830753 -0.23498514 108 122 87
-50.293396 5.3037133 -0.25599077 116 126 95
-50.098145 5.2743917 -0.2876012 116 122 96
-49.90654 5.3041058 -0.30021319 112 120 96
-49.708012 5.3099399 -0.29804444 127 127 116
-49.498302 5.2981606 -0.26651371 130 138 110
-49.31131 5.2962871 -0.29261297 117 124 97
-49.088116 5.3073497 -0.29938337 115 121 96
-48.909073 5.3074164 -0.28838944 131 128 115
-48.707943 5.2929244 -0.27766451 122 122 108
-48.484257 5.3053432 -0.29322609 127 130 115
-48.299957 5.3034501 -0.28609046 120 128 98
-48.103756 5.2698665 -0.3036997 117 121 93
-47.899075 5.3120241 -0.31520686 113 115 86
-47.688786 5.3034282 -0.32712424 107 110 75
-47.511391 5.2876401 -0.35164076 110 113 79
-47.303368 5.3038731 -0.35723245 112 112 77
-47.090904 5.2915092 -0.35167837 114 114 79
-46.895439 5.3087873 -0.37525091 108 105 73
-46.722679 5.282526 -0.34777322 119 116 81
-46.523327 5.2491798 -0.39163637 109 104 74
-46.017735 5.2976794 -0.39578485 118 117 79
-51.478954 5.402966 -0.20875454 115 122 103
-51.296928 5.4714999 -0.21171713 125 129 109
-51.075348 5.4760413 -0.23809898 121 128 101
-50.840923 5.4937768 -0.23658097 114 123 98
-50.671944 5.5060477 -0.24513787 121 125 106
-50.459198 5.5126019 -0.24449369 120 128 108
-50.289631 5.4777751 -0.25875029 122 128 106
-50.083405 5.5020957 -0.25397876 123 127 108
-49.904709 5.4900069 -0.26667938 116 124 100
-49.7099 5.49544 -0.28430375 116 123 101
-49.509254 5.5170097 -0.30056611 122 125 107
-49.317406 5.4763837 -0.28316918 123 131 108
-49.1007 5.4885345 -0.30343106 119 127 102
-48.901672 5.4971204 -0.30032858 124 126 110
-48.701817 5.4907722 -0.28787667 116 121 103
-48.525631 5.4989281 -0.27017203 105 114 86
-48.287025 5.504982 -0.29369658 112 114 92
-48.094753 5.4798341 -0.28931373 114 113 93
-47.886822 5.4988031 -0.32295969 112 113 87
-47.692909 5.4805098 -0.32384166 110 114 82
-47.493362 5.4786019 -0.3200798 108 110 79
-47.304329 5.5150666 -0.32974306 107 111 80
-47.09623 5.5052772 -0.32892063 109 111 77
-46.87912 5.490057 -0.31976107 112 119 89
-46.723976 5.4884272 -0.30786908 115 117 88
-46.523857 5.5435925 -0.33898872 111 109 79
-46.231255 5.5958877 -0.38814163 112 108 79
-46.102238 5.5351162 -0.38563824 112 106 80
-50.90324 5.6434722 -0.24003236 134 137 124
-50.702686 5.6642389 -0.21882319 129 129 119
-50.502178 5.6906433 -0.23262766 137 131 128
-50.309273 5.7059584 -0.23638825 131 133 120
-50.081779 5.6908674 -0.24241744 125 128 111
-49.892952 5.6929879 -0.25816926 122 127 109
-49.681435 5.6960297 -0.26164722 122 126 110
-49.497246 5.7004952 -0.27876788 123 126 111
-49.287514 5.6911144 -0.29749301 124 130 109
-49.094826 5.70015 -0.27107871 118 129 104
-48.891369 5.7090535 -0.30327863 123 128 108
-48.707569 5.6827354 -0.28458202 116 121 99
-48.536938 5.6850166 -0.28876823 114 121 96
-48.316235 5.6810217 -0.27877522 113 119 94
-48.113316 5.6971679 -0.29416475 116 117 95
-47.924839 5.7153821 -0.27380964 113 112 91
-47.69239 5.6907482 -0.29790556 105 109 84
-47.49482 5.6890264 -0.2927556 109 113 88
-47.305889 5.7030592 -0.33154058 108 112 85
-47.105694 5.6839981 -0.28668851 103 108 75
-46.901802 5.6432524 -0.31871241 122 132 100
-46.700287 5.6976376 -0.32224783 109 106 78
-46.489758 5.6709919 -0.32591608 108 108 76
-46.266125 5.7178793 -0.34855151 111 108 80
-46.10149 5.6390123 -0.38608122 121 119 93
-45.834198 5.7522869 -0.3616116 103 104 69
-45.448265 5.782073 -0.31258011 96 98 76
-50.48415 5.8958721 -0.21689208 106 108 93
-50.316353 5.8720345 -0.24090147 121 128 109
-50.122906 5.9086285 -0.23021062 114 123 99
-49.922657 5.9077921 -0.23960322 119 121 105
-49.717464 5.9040532 -0.24359477 124 131 113
-49.493786 5.9119754 -0.26750779 120 126 107
-49.283722 5.8880005 -0.27317408 121 127 104
-49.084515 5.9132199 -0.29865706 124 129 109
-48.88752 5.8970323 -0.28529972 124 128 110
-48.691319 5.8929844 -0.29275382 128 129 115
-48.484741 5.9307466 -0.28675935 128 130 110
-48.263538 5.8828244 -0.30988887 123 125 106
-48.07618 5.9068165 -0.28165668 116 119 98
-47.887569 5.8948827 -0.32231504 116 119 99
-47.730316 5.8758907 -0.27071464 107 112 85
-47.538551 5.9239244 -0.26720524 111 115 91
-47.16853 5.8233509 -0.33543682 127 134 108
-46.983261 5.9254193 -0.38132668 120 130 97
-46.744076 5.8384089 -0.34634972 119 124 92
-46.406956 5.9139242 -0.39874649 124 126 95
-46.245476 5.8955393 -0.35338306 119 120 88
-46.114723 5.8198452 -0.2929697 110 109 79
-45.887527 5.8852706 -0.33955225 112 111 77
-45.482513 5.8733158 -0.30180693 107 106 75
-50.232239 6.0337763 -0.22267914 117 126 108
-50.01775 6.0852208 -0.22883987 122 124 108
-49.850056 6.0859208 -0.23256333 121 124 110
-49.689934 6.1137624 -0.23751211 127 131 117
-49.527012 6.0739937 -0.24680078 128 133 115
-49.288033 6.0866861 -0.27487424 130 134 117
-49.11441 6.0844688 -0.27240419 130 132 117
-48.91293 6.0947542 -0.28699133 126 128 115
-48.726933 6.0966682 -0.31826267 135 132 122
-48.528908 6.1057467 -0.28895733 127 128 113
-48.316391 6.0796523 -0.2985456 134 133 117
-48.11895 6.1212826 -0.33048481 129 127 115
-47.898132 6.1141891 -0.31389737 115 118 99
-47.721012 6.1464972 -0.27972779 113 120 99
-47.509472 6.0784001 -0.35224929 117 122 102
-47.336979 6.1481724 -0.36362123 128 134 112
-47.155933 6.1444736 -0.3786397 108 115 97
-46.801235 6.0234699 -0.3619132 120 128 95
-46.617085 6.0743608 -0.36171007 118 124 91
-46.441124 6.1587615 -0.36510134 122 127 98
-49.876083 6.2977467 -0.22718692 129 133 119
-49.662563 6.3069205 -0.24475615 128 129 120
-49.471893 6.3140368 -0.23905574 123 125 114
-49.273769 6.2802005 -0.26272061 125 131 118
-49.04953 6.3040118 -0.28704035 129 134 120
-48.86779 6.2943425 -0.27135161 128 132 117
-48.680099 6.2897582 -0.31320259 129 131 118
-48.48336 6.3038039 -0.31990945 128 128 113
-48.297348 6.2718587 -0.31890905 141 141 125
-48.109669 6.3261065 -0.31273699 130 129 117
-47.906368 6.2447166 -0.29545471 117 120 101
-47.758373 6.3086352 -0.31178999 119 124 104
-47.534004 6.2768354 -0.31508052 132 135 115
-47.340576 6.2960863 -0.34129953 122 129 108
-47.088184 6.3128662 -0.29694238 117 127 103
-46.910511 6.2783785 -0.38758874 122 130 106
-46.262283 6.2294526 -0.36428261 119 122 95
-45.675045 6.2343755 -0.38624048 131 126 104
-45.321621 6.3700676 -0.36435843 128 127 100
-49.502224 6.4450259 -0.24182892 130 134 123
-49.316456 6.4978056 -0.24343649 124 127 115
-49.104221 6.4950271 -0.26911306 116 122 105
-48.911823 6.4772296 -0.26872823 121 129 110
-48.706108 6.5102363 -0.28200629 129 131 116
-48.503231 6.5194154 -0.28310701 126 129 115
-48.281185 6.4996395 -0.31562501 134 133 121
-48.07943 6.5390697 -0.3183994 128 129 115
-47.865963 6.4729552 -0.32878339 136 134 123
-47.659351 6.5457606 -0.29795423 125 127 111
-47.496925 6.4814363 -0.28924209 131 132 117
-47.288239 6.498095 -0.30258051 122 127 109
-47.107552 6.4921241 -0.33843154 118 128 108
-46.882282 6.4832211 -0.3459971 122 125 105
-46.763294 6.4666548 -0.37434721 123 127 107
-45.529503 6.5661955 -0.3684392 139 136 114
-45.329376 6.4818277 -0.3328135 120 117 95
-45.115627 6.4781399 -0.39419794 119 113 94
-49.338219 6.634716 -0.25540519 134 136 125
-49.088131 6.6802254 -0.2380271 121 126 109
-48.882481 6.6821957 -0.25651169 127 133 113
-48.721485 6.7229958 -0.2953361 130 130 116
-48.505833 6.6758094 -0.26278242 123 124 111
-48.312183 6.7186494 -0.27907658 130 130 118
-48.130161 6.7115788 -0.28325763 133 133 121
-47.921219 6.6955471 -0.30569509 132 130 119
-47.732891 6.727634 -0.30009237 129 132 122
-47.486374 6.6665602 -0.33496696 130 130 121
-47.286942 6.7131391 -0.29973531 124 127 117
-47.078465 6.7038965 -0.28195906 123 128 115
-46.871429 6.7276635 -0.30804682 120 123 110
-46.670769 6.7179346 -0.30012369 115 119 105
-46.476498 6.7201777 -0.35716248 114 120 106
-46.241055 6.7764201 -0.38710642 114 119 103
-45.32626 6.6402493 -0.35909605 121 120 99
-49.055641 6.8972635 -0.22344756 123 133 115
-48.870064 6.9020014 -0.23933703 127 131 112
-48.650906 6.8833008 -0.26279181 131 131 117
-48.471119 6.8909988 -0.29696777 130 129 119
-48.302567 6.9057331 -0.2792393 132 133 123
-48.102982 6.8996778 -0.31088093 129 128 117
-47.888214 6.9090381 -0.27378067 126 127 114
-47.678253 6.93995 -0.3024295 128 127 118
-47.52354 6.8902073 -0.29810846 125 128 119
-47.332634 6.922473 -0.31913012 127 131 122
-47.110176 6.9020257 -0.27554664 114 121 112
-46.910107 6.8567338 -0.29348764 116 122 111
-46.720898 6.900547 -0.28743857 118 120 114
-46.498024 6.8976159 -0.30384105 114 119 109
-46.315456 6.915565 -0.30762672 111 115 100
-46.100044 6.8988094 -0.34589958 113 115 99
-45.932713 6.9212666 -0.36848021 127 141 125
-45.750595 6.9747353 -0.39425564 98 113 95
-49.07436 7.0344696 -0.24633074 108 118 94
-48.863384 7.0988097 -0.20366025 130 139 122
-48.69923 7.073359 -0.25242582 124 125 112
-48.492741 7.0856872 -0.29495874 135 132 124
-48.281311 7.1020737 -0.28404903 130 132 118
-48.094711 7.0783348 -0.27258825 131 131 118
-47.890953 7.1029997 -0.30995274 130 129 120
-47.698513 7.1032267 -0.28650388 119 121 112
-47.46418 7.0899963 -0.29250121 120 126 114
-47.265579 7.1328449 -0.27064085 112 122 107
-47.076996 7.0510278 -0.32471848 120 128 117
-46.892353 7.1320348 -0.2894586 110 121 108
-46.677101 7.0852709 -0.33028996 115 120 115
-46.516552 7.0542569 -0.2957994 121 123 119
-46.321377 7.0910702 -0.30292773 113 120 107
-46.13361 7.1005478 -0.29524148 115 120 105
-45.948902 7.0915909 -0.28865671 104 119 100
-45.775642 7.0459847 -0.3255887 102 122 99
-48.805706 7.2706904 -0.20371628 111 114 108
-48.666943 7.2553668 -0.2367204 133 131 126
-48.522461 7.2517715 -0.24316628 128 129 124
-48.332729 7.3026643 -0.26630354 123 123 113
-48.134628 7.2748604 -0.27306834 131 131 123
-47.915932 7.3018689 -0.28424582 128 127 120
-47.67852 7.2509246 -0.29749691 119 126 114
-47.531807 7.316958 -0.30259258 109 116 106
-47.312096 7.3166604 -0.30737957 115 125 112
-47.094643 7.2836332 -0.28776884 112 121 107
-46.887897 7.3138142 -0.26444185 112 124 109
-46.669426 7.2878671 -0.25379199 112 124 110
-46.485905 7.3102379 -0.28639567 117 122 113
-46.300369 7.3246193 -0.26059771 117 121 114
-46.116455 7.2724438 -0.30072951 119 122 112
-48.448875 7.4248977 -0.24533319 132 132 125
-48.307472 7.5185432 -0.23920608 135 134 129
-48.088776 7.4651804 -0.26555568 125 123 118
-47.912067 7.52741 -0.22268374 130 132 128
-47.69083 7.4287453 -0.2556628 123 128 118
-47.484394 7.5173125 -0.32132468 117 125 116
-47.308613 7.4863548 -0.29759279 116 124 113
-47.120987 7.4628177 -0.29389942 118 126 114
-46.933838 7.4624448 -0.23022723 106 116 101
-46.709259 7.4598222 -0.23889199 121 129 117
-46.499645 7.4703774 -0.21872091 115 124 114
-46.278042 7.5281982 -0.24143679 104 114 100
-46.133942 7.486289 -0.27555656 107 110 103
-48.158447 7.6126289 -0.21140862 133 135 128
-47.896545 7.7584548 -0.20923138 123 127 120
-47.724556 7.6287789 -0.26435375 123 124 121
-47.536285 7.7025318 -0.27662373 117 121 117
-47.277813 7.6830978 -0.2765139 124 129 120
-46.485214 7.6376076 -0.23758602 120 123 115
-47.608135 7.84622 -0.21345472 125 127 122
-45.307095 -5.857245 -0.18411112 65 77 37
-46.017872 -5.7796168 -0.17418861 64 86 39
-45.857147 -5.6204858 -0.079477787 76 103 55
-45.707813 -5.6521802 -0.12031209 80 99 54
-45.552204 -5.6879287 -0.14961648 80 100 54
-45.331375 -5.7195005 -0.17683077 77 97 52
-45.108643 -5.6348534 -0.12758096 79 103 53
-44.920708 -5.6835017 -0.14495802 79 103 56
-46.466843 -5.4364605 -0.1657083 69 93 39
-46.237663 -5.4880438 -0.086348772 77 99 45
