ply
format ascii 1.0
comment PCL generated
element vertex 1109
property float x
property float y
property float z
property uchar red
property uchar green
property uchar blue
element face 0
element camera 0
property float view_px
property float view_py
property float view_pz
property float x_axisx
property float x_axisy
property float x_axisz
property float y_axisx
property float y_axisy
property float y_axisz
property float z_axisx
property float z_axisy
property float z_axisz
property float focal
property float scalex
property float scaley
property float centerx
property float centery
property int viewportx
property int viewporty
property float k1
property float k2
end_header
2.0989015 -50.652531 15.849452 115 111 110
2.3188522 -50.651871 15.835417 118 119 118
2.4852016 -50.721638 15.8985 124 120 121
2.7116849 -50.666683 15.882859 153 145 145
2.9104016 -50.638157 15.862514 107 102 103
3.0988414 -50.68885 15.836458 106 106 106
-4.076592 -50.499454 15.909523 150 149 152
-3.9169762 -50.502991 15.932401 161 157 162
-3.6290264 -50.509827 15.851709 174 170 180
-3.4920893 -50.506733 15.903847 192 174 190
-3.2501633 -50.474548 15.92625 181 165 180
-3.1079187 -50.595844 15.957594 165 159 169
1.352062 -50.416798 15.806538 158 152 152
1.4984591 -50.469357 15.901142 127 124 121
1.7100941 -50.497963 15.8709 124 119 119
1.9169126 -50.498138 15.91696 121 118 117
2.0620415 -50.491009 15.894123 115 115 116
2.2988317 -50.502724 15.897795 129 129 125
2.5030253 -50.505116 15.91988 114 114 113
2.7036376 -50.492771 15.908366 127 124 122
2.8849747 -50.537098 15.919834 116 112 115
3.1071296 -50.463688 15.953885 107 103 106
3.3189361 -50.494446 15.839289 72 77 79
-3.9079235 -50.297607 15.914746 167 159 169
-3.6474481 -50.313873 15.932382 183 170 184
-3.4645057 -50.312157 15.941721 184 174 192
-3.2796879 -50.286503 15.886986 168 153 168
-3.0864408 -50.377697 15.917104 157 151 162
-2.9637957 -50.295708 15.95299 204 190 203
1.3409649 -50.299866 15.938693 139 133 133
1.4853908 -50.313595 15.920949 146 140 142
1.6550814 -50.326454 15.9222 129 125 123
1.9176791 -50.335339 15.939956 123 121 120
2.100853 -50.281712 15.914331 103 105 102
2.2814839 -50.3232 15.919351 119 119 117
2.5661955 -50.289909 15.885248 111 112 108
2.6638033 -50.329338 15.942732 123 121 118
2.8892632 -50.311245 15.95728 124 126 125
3.03773 -50.325108 15.94809 130 128 130
-4.0097103 -50.090302 15.882715 179 169 178
-3.9025733 -50.164577 15.939816 180 172 182
-3.7446394 -50.158104 15.968092 183 176 190
-3.583514 -50.174461 15.975372 159 146 160
-3.2751274 -50.0373 15.865206 177 167 181
-3.1775184 -50.072651 15.970833 175 165 192
1.0494969 -50.021454 15.865982 77 82 86
1.3446516 -50.14616 15.867384 127 129 129
1.5391555 -50.125847 15.900113 116 115 113
1.6673683 -50.088406 15.916242 136 133 132
1.9330605 -50.085342 15.922855 117 115 113
2.0998755 -50.076771 15.901876 93 99 96
2.3236191 -50.130642 15.879669 104 107 107
2.4893682 -50.076038 15.888755 107 112 111
2.6992524 -50.090473 15.930698 116 116 117
2.8865006 -50.1012 15.922494 110 108 108
3.0870719 -50.130386 15.87688 112 114 114
3.3277781 -50.074112 15.880086 114 111 109
3.4845722 -50.082279 15.869126 168 166 167
3.6974182 -50.056816 15.850813 130 121 124
3.8714254 -50.058731 15.844571 105 105 109
4.0506268 -50.039951 15.924366 110 107 112
1.1901274 -49.804668 15.822934 173 162 158
1.353452 -49.830605 15.850232 102 90 88
1.5240941 -49.896748 15.900697 110 110 109
1.7009057 -49.916813 15.905589 111 112 112
1.8885663 -49.908665 15.898635 109 110 109
2.0835519 -49.881714 15.908178 107 112 111
2.3181205 -49.941959 15.860959 103 107 106
2.5076106 -49.90868 15.907018 106 109 108
2.6873281 -49.890873 15.908945 111 112 112
2.9011998 -49.886101 15.909752 112 109 107
3.0850255 -49.917561 15.89957 122 120 119
3.2886379 -49.869823 15.898761 111 111 109
3.4971271 -49.860172 15.864012 111 110 106
3.7318552 -49.914986 15.932338 119 119 119
3.8994942 -49.895634 15.928193 110 109 111
4.0979648 -49.941418 15.87668 116 115 118
4.2424593 -49.817417 15.835612 91 94 99
0.93996823 -49.654205 15.82268 100 100 100
1.136815 -49.66531 15.897337 115 115 116
1.2865456 -49.700607 15.902416 149 143 142
1.5112333 -49.677128 15.918998 125 121 121
1.6826221 -49.70507 15.908433 112 111 110
1.9123583 -49.71537 15.909986 103 104 104
2.0664263 -49.700115 15.908983 93 97 96
2.2654552 -49.76334 15.825716 96 101 103
2.4988782 -49.693958 15.865537 106 109 106
2.6894257 -49.721977 15.928099 100 103 101
2.898859 -49.718693 15.912964 109 106 102
3.0791872 -49.692802 15.886212 102 99 96
3.219739 -49.741501 15.919109 114 112 109
3.4873447 -49.67017 15.94743 123 123 126
3.6587198 -49.765076 15.965024 146 146 141
3.9194241 -49.709927 15.948505 126 129 133
4.0896358 -49.678188 15.907914 117 116 121
4.3172116 -49.695549 15.936728 74 77 82
0.73431677 -49.484558 15.818397 101 102 109
0.89820141 -49.436596 15.90716 121 121 128
1.1428471 -49.546562 15.889035 126 123 123
1.2865926 -49.485218 15.902618 147 142 142
1.5139911 -49.482285 15.932469 129 126 126
1.6989331 -49.487667 15.93751 113 113 113
1.8912874 -49.493633 15.900197 97 99 99
2.0704751 -49.494225 15.892155 89 90 90
2.2714717 -49.405468 15.952004 105 115 117
2.5087571 -49.504604 15.902973 117 117 113
2.6933374 -49.503788 15.871013 113 115 113
2.8698437 -49.483479 15.936696 115 114 113
3.1136308 -49.496231 15.944623 95 102 105
3.2321045 -49.435154 15.950778 92 101 104
3.5418949 -49.511261 15.970494 97 100 103
3.6945128 -49.478275 15.914676 111 112 111
3.945148 -49.461388 15.91272 136 133 139
4.1608324 -49.491989 15.940638 100 101 106
4.2078252 -49.587223 15.950996 158 153 157
0.74351567 -49.283577 15.834071 102 101 110
0.90574163 -49.276745 15.90031 116 116 122
1.1115348 -49.253418 15.907321 134 131 132
1.3107234 -49.31786 15.906663 124 122 123
1.4995975 -49.280964 15.928958 114 114 116
1.6860523 -49.286625 15.91396 107 105 107
1.8996874 -49.313099 15.891583 105 108 110
2.0777318 -49.310928 15.913787 94 96 97
2.3277729 -49.235321 15.968758 108 102 97
2.4970171 -49.32888 15.890257 101 98 95
2.7201669 -49.296833 15.901094 102 105 106
2.9092166 -49.304634 15.918669 95 101 102
3.1017332 -49.279552 15.890609 105 108 109
3.3064096 -49.269444 15.913638 112 116 120
3.4957173 -49.277279 15.896559 108 108 111
3.7160006 -49.316349 15.916409 118 119 120
3.8701508 -49.335171 15.87917 126 127 131
4.0819087 -49.372547 15.866753 80 78 80
5.1241531 -49.211029 15.905947 92 92 92
0.28301477 -49.098785 15.944626 60 58 61
0.50757712 -49.099323 15.883481 100 101 110
0.70418894 -49.093605 15.863718 110 113 121
0.92132121 -49.094486 15.907535 123 124 128
1.112902 -49.11969 15.914026 131 126 128
1.3213826 -49.098976 15.909918 107 105 104
1.4792281 -49.086014 15.883449 95 99 98
1.7038641 -49.129456 15.903648 102 104 104
1.8791119 -49.080776 15.908182 117 117 115
2.0840542 -49.109066 15.896057 111 108 104
2.277998 -49.126534 15.876582 118 113 108
2.5005248 -49.084492 15.964419 99 96 93
2.7490928 -49.118244 15.908644 81 85 86
2.9399421 -49.112782 15.917824 90 94 94
3.1100717 -49.095512 15.888783 94 98 99
3.3083663 -49.099415 15.882882 102 106 110
3.4865804 -49.103642 15.885553 105 107 112
3.6660297 -49.108902 15.869982 113 112 116
3.851531 -49.156673 15.973893 98 101 103
4.0223265 -49.179443 15.869123 114 113 115
5.1211214 -49.071739 15.868896 161 158 159
5.2723479 -49.106113 15.869562 98 99 100
5.4692268 -49.068913 15.899719 137 133 132
5.6192961 -49.065163 15.897757 116 118 113
6.9219794 -49.04541 15.955097 155 146 147
7.1116972 -49.061481 15.88214 146 141 140
7.2733088 -49.049194 15.874573 138 134 130
7.5395236 -49.076485 15.84215 149 145 136
0.5808363 -48.913418 15.88571 120 117 124
0.71814102 -48.907909 15.870702 128 130 136
0.91939044 -48.88924 15.91576 123 126 130
1.0865399 -48.891403 15.877295 126 124 125
1.3018816 -48.88316 15.923507 110 111 110
1.4939657 -48.88163 15.903066 92 95 94
1.6971756 -48.908741 15.866251 91 94 94
1.8975666 -48.895813 15.898872 118 118 116
2.0642359 -48.914238 15.889058 133 130 127
2.2883627 -48.896652 15.884505 128 123 119
2.4958081 -48.943336 15.890214 119 114 110
2.7481511 -48.88673 15.909131 100 100 96
2.9100783 -48.868362 15.913336 82 91 90
3.1026194 -48.925098 15.883037 86 94 94
3.2922146 -48.921165 15.867372 93 98 102
3.4892886 -48.929935 15.869982 109 114 118
3.665395 -48.950073 15.908084 98 103 107
4.8181686 -48.82172 15.905951 145 141 138
5.1048331 -48.896633 15.879757 161 155 154
5.3026543 -48.902424 15.879077 165 159 163
5.4962802 -48.882217 15.889108 122 123 120
5.6813517 -48.877823 15.864888 82 88 78
5.9194393 -48.941032 15.819613 110 116 106
6.2799959 -48.868698 15.90715 157 148 141
6.4905376 -48.885128 15.883853 157 152 144
6.7078118 -48.881443 15.878586 158 150 142
6.934072 -48.90657 15.88531 173 163 164
7.0925074 -48.892239 15.90539 161 155 154
7.3001151 -48.87392 15.914724 132 132 126
7.47996 -48.96442 15.886597 132 130 124
7.6031003 -48.801163 15.871932 132 134 123
0.55163586 -48.730888 15.900301 108 113 122
0.72787249 -48.696663 15.902097 119 121 126
0.88653624 -48.690254 15.898914 107 112 114
1.1185834 -48.716125 15.902989 101 108 110
1.3152599 -48.702888 15.902808 95 100 100
1.4757195 -48.722549 15.875451 91 95 94
1.6957752 -48.703537 15.887567 94 99 100
1.9289373 -48.73103 15.911926 115 121 120
2.1051433 -48.692097 15.897111 105 108 104
2.3264339 -48.69648 15.905183 104 102 97
2.4952507 -48.69685 15.860352 118 113 111
2.6889625 -48.683903 15.932652 84 89 89
2.930506 -48.698708 15.866517 85 87 90
3.0775616 -48.704647 15.882924 87 89 91
3.2907703 -48.719196 15.863903 96 101 104
3.4829309 -48.710995 15.858058 100 107 110
4.5709338 -48.656693 15.845917 161 158 159
4.6958413 -48.675999 15.87765 137 134 137
4.9509268 -48.696217 15.865588 144 141 137
5.1108479 -48.696896 15.888522 159 150 145
5.2675853 -48.689594 15.883998 160 154 151
5.4535441 -48.703232 15.855145 158 154 153
5.632154 -48.681942 15.831665 147 146 147
5.8418651 -48.601917 15.883686 93 96 87
6.1327085 -48.602448 15.80522 195 200 196
6.3001599 -48.708893 15.878778 158 149 143
6.4709778 -48.709724 15.86443 146 142 135
6.6788621 -48.66943 15.871074 159 153 150
6.9214554 -48.733486 15.884086 162 155 154
7.1410346 -48.726372 15.888941 143 139 140
7.2794461 -48.712261 15.883212 139 138 133
7.480515 -48.708633 15.933376 143 141 138
7.6692667 -48.70385 15.898181 162 157 156
7.9127026 -48.675392 15.929564 156 146 143
8.1123018 -48.659412 15.860877 174 161 162
8.3268824 -48.752594 15.94326 67 70 78
0.58689904 -48.41399 15.881163 143 137 129
0.70828962 -48.49221 15.905165 142 140 141
0.90767133 -48.502903 15.894098 110 109 109
1.100505 -48.500134 15.880635 104 106 106
1.2958691 -48.510658 15.904499 97 99 99
1.4811776 -48.495445 15.896087 91 95 96
1.7300282 -48.484158 15.865264 98 100 101
1.9067369 -48.483192 15.895553 101 100 100
2.1018598 -48.492214 15.903506 118 116 111
2.2755105 -48.527695 15.900474 110 109 102
2.4876721 -48.525478 15.910552 126 121 116
2.6931355 -48.495144 15.898683 89 89 87
2.9128668 -48.50922 15.883271 94 94 95
3.0830965 -48.524502 15.878223 86 89 88
3.316308 -48.481842 15.895708 86 87 87
3.5002699 -48.45488 15.886146 103 104 103
3.6495233 -48.443649 15.887692 77 84 85
4.3771982 -48.451851 15.882923 154 148 146
4.5657411 -48.51178 15.879045 150 149 145
4.696682 -48.498184 15.864324 146 147 144
4.8941369 -48.485439 15.851862 128 130 125
5.1228633 -48.518574 15.869494 155 147 143
5.3015742 -48.486179 15.883375 161 155 150
5.5065055 -48.484314 15.906283 154 147 143
5.6889105 -48.494377 15.882411 141 138 132
5.9058132 -48.468231 15.883456 131 131 122
6.0976357 -48.503105 15.915011 127 129 122
6.3154373 -48.532558 15.919614 135 135 130
6.491785 -48.502716 15.916795 142 139 136
6.6741619 -48.523479 15.847028 152 151 147
6.8663259 -48.531914 15.886233 124 122 123
7.0873566 -48.569073 15.880178 142 137 133
7.9995403 -48.542755 15.874786 162 154 151
8.0908546 -48.447899 15.963286 130 124 134
8.2878275 -48.509491 15.855933 122 118 129
0.34801513 -48.288273 15.836375 96 99 106
0.51190948 -48.254215 15.892746 147 144 138
0.7161867 -48.295486 15.913115 147 139 133
0.86374664 -48.288513 15.895759 138 131 125
1.1250131 -48.336449 15.899231 120 116 113
1.3159455 -48.338585 15.925181 120 115 112
1.5071825 -48.312725 15.902699 97 98 99
1.7056893 -48.282017 15.882662 85 91 90
1.8804657 -48.302959 15.882058 98 103 103
2.1067679 -48.300564 15.911773 132 128 124
2.236135 -48.307205 15.939785 110 110 105
2.5407426 -48.320412 15.921034 116 113 111
2.7163084 -48.385323 15.8078 128 117 113
2.9204414 -48.304863 15.892184 98 97 98
3.1136847 -48.310173 15.898442 98 99 98
3.2987456 -48.317364 15.925146 127 126 124
3.5177388 -48.306049 15.912774 124 123 124
3.7157197 -48.280804 15.886268 105 106 107
3.8510621 -48.269459 15.851467 114 112 108
4.2980204 -48.364624 15.900666 117 118 112
4.5337362 -48.313103 15.847336 145 145 144
4.6790705 -48.297333 15.861522 125 130 124
5.1214857 -48.30035 15.870611 151 152 150
5.2922015 -48.300125 15.876685 154 152 147
5.4598846 -48.26199 15.884517 151 149 142
6.1598568 -48.352684 15.924479 168 161 155
6.2738128 -48.330204 15.971586 128 134 127
6.5096083 -48.329319 15.882212 118 126 117
6.7083354 -48.293835 15.908654 124 130 119
6.8764629 -48.320782 15.903064 146 146 134
0.13845982 -48.080647 15.960392 112 115 124
0.38746592 -48.085545 15.981857 73 79 91
0.51733959 -48.08313 15.888734 148 145 139
0.69732714 -48.076275 15.880998 172 158 154
0.88862514 -48.132977 15.945779 130 127 125
1.3639722 -48.165497 15.987742 145 139 133
1.5128139 -48.144901 15.911846 111 112 108
1.7190987 -48.108601 15.891211 94 98 96
1.8683944 -48.078217 15.861159 86 92 92
2.1121838 -48.082546 15.910645 111 111 110
2.2932301 -48.09317 15.879947 116 117 114
2.4633834 -48.057068 15.939208 95 102 100
2.7753093 -48.026356 15.95401 65 65 67
2.9295416 -48.104019 15.920731 96 100 101
3.1107066 -48.075027 15.892218 94 99 101
3.2942328 -48.096195 15.901503 104 107 111
3.4989824 -48.07869 15.914847 108 111 115
3.6951842 -48.107677 15.890984 108 109 111
3.8707485 -48.100643 15.886121 110 111 109
4.1202631 -48.084793 15.852974 109 106 104
4.2138042 -48.104713 15.817295 136 139 137
4.5802207 -48.116928 15.87194 137 135 131
4.6830788 -48.119141 15.873062 119 120 116
4.9587083 -48.124943 15.86792 94 97 91
5.13762 -48.058468 15.883553 139 143 136
5.2936859 -48.077446 15.915191 154 155 150
5.4594622 -48.089149 15.870832 160 157 151
5.7621737 -48.099728 15.934784 98 108 97
5.8741693 -48.045341 15.888704 104 114 104
6.0248313 -48.022011 15.817759 129 138 130
6.3535872 -48.076233 15.960752 120 126 117
6.5167799 -48.080517 15.906613 119 126 117
6.7182746 -48.100407 15.929928 122 130 121
6.8881683 -48.128086 15.91228 131 137 129
7.0596371 -48.167858 15.997095 128 129 122
0.27818027 -47.901241 15.881963 110 112 118
0.53669387 -47.891762 15.873372 131 129 127
0.67342365 -47.863876 15.893071 170 159 159
0.90735382 -47.896091 15.928834 112 110 109
1.0975641 -47.849529 15.893743 117 118 117
1.3085006 -47.839035 15.92184 130 127 125
1.5238552 -47.911392 15.866852 75 84 82
1.7270849 -47.908115 15.923161 93 99 98
1.8700631 -47.891518 15.902108 89 96 95
2.1135097 -47.887844 15.895565 101 105 103
2.2537005 -47.895515 15.905219 101 105 102
2.5105922 -47.907986 15.923564 90 93 91
2.7272632 -47.89209 15.927947 88 88 87
2.9090202 -47.910587 15.937521 107 104 105
3.121819 -47.908325 15.918048 94 98 100
3.2796557 -47.912594 15.887428 96 99 103
3.5069742 -47.879974 15.887783 108 110 112
3.692688 -47.900364 15.900804 111 111 113
3.8432655 -47.917835 15.873629 110 110 111
4.0315685 -47.919868 15.908767 107 101 95
4.344243 -47.883484 15.818804 121 119 120
4.5483789 -47.906246 15.856894 144 141 137
4.6878657 -47.909805 15.848594 144 142 138
4.8971281 -47.891033 15.841238 109 112 104
5.1223717 -47.892826 15.894897 142 145 138
5.2828865 -47.896603 15.897009 141 144 135
5.4715786 -47.872135 15.909877 148 148 139
5.703753 -47.883949 15.916318 119 124 117
5.8806787 -47.914734 15.90843 110 118 110
6.0790367 -47.881886 15.907703 142 147 136
6.2788262 -47.904125 15.946399 138 141 129
6.571641 -47.940548 15.95006 147 145 138
6.6621523 -47.976883 15.846674 102 108 97
6.8618264 -47.86969 15.948642 129 128 122
0.10731947 -47.668789 15.856869 136 139 148
0.28616643 -47.674553 15.85128 107 109 117
0.53658772 -47.734825 15.901391 98 102 112
0.70438915 -47.742828 15.886735 143 140 145
0.90370333 -47.710854 15.881148 126 126 129
1.1135224 -47.688061 15.897627 108 110 112
1.2945123 -47.67897 15.901538 122 121 122
1.4597043 -47.6782 15.90696 127 125 125
1.7430841 -47.702026 15.936058 98 102 102
1.8888688 -47.708729 15.903348 95 99 99
2.1080034 -47.697697 15.891276 96 98 96
2.2883542 -47.699059 15.913907 116 112 111
2.48018 -47.675606 15.908013 103 101 98
2.6811593 -47.707359 15.918164 104 103 97
2.9108901 -47.723183 15.919075 108 103 101
3.1547608 -47.683479 15.904795 100 102 102
3.2923536 -47.664631 15.883787 98 102 102
3.4846289 -47.741772 15.90329 112 112 115
3.6748109 -47.75399 15.887429 114 113 115
3.8395829 -47.733109 15.842243 113 111 106
4.1575589 -47.623764 15.838588 101 107 105
4.8682208 -47.788849 15.899355 116 120 103
5.1360245 -47.665447 15.912757 144 148 141
5.3027344 -47.682629 15.901908 135 140 133
5.520155 -47.704487 15.914324 110 119 111
5.6852136 -47.697704 15.903252 121 127 120
5.9094415 -47.684986 15.88638 114 121 113
6.1173396 -47.689522 15.908145 137 141 131
6.2645798 -47.680351 15.888536 135 138 127
6.4523163 -47.68288 15.90744 155 156 144
-0.81538945 -47.426945 15.822563 168 164 169
-0.46367386 -47.402485 15.839411 82 84 98
-0.27342466 -47.409199 15.853731 145 135 142
0.1139096 -47.559334 15.813414 114 117 121
0.29950246 -47.474873 15.873621 127 132 140
0.53461009 -47.507545 15.899552 115 119 127
0.70719415 -47.497852 15.920482 120 125 130
0.91672188 -47.49667 15.89254 109 117 122
1.0944896 -47.504211 15.897835 113 117 119
1.295962 -47.498028 15.910666 124 123 124
1.4992415 -47.484375 15.905083 124 121 121
1.7165622 -47.49004 15.901778 103 105 106
1.8913479 -47.500549 15.919354 101 102 102
2.0927455 -47.493656 15.904521 115 111 110
2.2714455 -47.471317 15.902959 114 110 106
2.5123851 -47.549957 15.913877 110 106 102
2.7242312 -47.491009 15.909099 116 109 104
2.9615111 -47.513 15.927268 107 105 107
3.1526513 -47.495205 15.932476 116 119 119
3.2923224 -47.492397 15.881861 101 104 104
3.4565115 -47.502293 15.857586 102 105 106
3.971947 -47.523911 15.887858 132 130 130
4.1038585 -47.460491 15.835828 146 145 149
4.326601 -47.482513 15.854843 91 97 97
4.6414866 -47.53677 15.921354 90 92 91
4.8658242 -47.472569 15.845324 80 84 85
5.1739225 -47.487324 15.926197 134 139 129
5.2866154 -47.505966 15.914888 132 137 131
5.4901547 -47.505302 15.89833 114 121 114
5.6614676 -47.501564 15.887556 110 116 110
5.8883395 -47.488766 15.928596 110 113 105
6.1602182 -47.498539 15.900308 154 154 141
6.2709227 -47.502415 15.88981 143 145 134
7.2148418 -47.590004 15.992712 109 109 101
-0.89377457 -47.247829 15.824149 142 137 140
-0.65973324 -47.280491 15.854726 132 130 135
-0.49544981 -47.24551 15.89121 135 130 135
-0.3001816 -47.303146 15.879774 123 124 131
-0.084124409 -47.275074 15.873999 128 131 139
0.085582666 -47.274807 15.85801 129 134 141
0.27716476 -47.242043 15.90585 117 124 132
0.45833364 -47.292374 15.914049 114 121 133
0.72733623 -47.348164 15.854561 112 121 126
0.89363998 -47.306004 15.894476 100 109 115
1.1110264 -47.28323 15.914955 111 115 119
1.3103561 -47.302608 15.88694 135 134 135
1.5009636 -47.309151 15.903595 119 118 120
1.6928067 -47.299225 15.917694 102 105 107
1.9008384 -47.303028 15.887517 107 108 109
2.0950143 -47.29385 15.903202 125 121 121
2.2811983 -47.297909 15.880917 124 121 118
2.4683847 -47.27681 15.869662 131 128 126
2.7771792 -47.241421 15.891211 68 82 83
2.9192748 -47.305428 15.952374 99 105 109
3.1182172 -47.294991 15.916847 120 117 121
3.2911367 -47.286549 15.896171 123 120 123
3.4360769 -47.287205 15.875884 117 118 120
3.6824589 -47.244595 15.858045 93 99 99
3.8880289 -47.288208 15.868892 115 114 115
4.1034365 -47.337494 15.85289 111 114 113
4.3746128 -47.396362 15.827392 118 120 117
4.4261608 -47.21035 15.80563 155 147 148
4.7896075 -47.258793 15.84156 120 119 114
4.9368739 -47.277752 15.852153 115 121 115
5.1581645 -47.261475 15.897094 142 142 133
5.3021727 -47.291245 15.902256 140 142 132
5.4885879 -47.294041 15.900019 117 121 116
5.6702008 -47.299835 15.886003 90 98 91
5.89363 -47.281059 15.919533 101 107 99
6.0489116 -47.355427 15.867379 144 145 135
6.2610888 -47.268612 15.89765 141 145 135
6.4461589 -47.247028 15.936302 141 139 131
-1.039562 -47.049614 15.860811 142 135 143
-0.90042901 -47.047382 15.876895 144 140 147
-0.69697034 -47.065624 15.874126 153 151 155
-0.48986581 -47.082439 15.890329 136 136 141
-0.31008473 -47.104191 15.897316 133 133 140
-0.11335304 -47.105335 15.880646 136 141 148
0.077793501 -47.127975 15.888736 120 128 135
0.30945694 -47.097374 15.872525 111 120 129
0.70880049 -47.085072 15.850319 93 100 105
0.93610436 -47.111698 15.868217 99 106 110
1.1072406 -47.108192 15.903225 108 116 120
1.3116709 -47.106941 15.890972 109 118 120
1.5052519 -47.11853 15.897532 112 118 120
1.6967953 -47.140121 15.903149 111 116 118
1.9042069 -47.125263 15.892336 111 114 116
2.1326842 -47.110546 15.911457 124 121 122
2.2969196 -47.090008 15.908462 123 122 124
2.4713185 -47.087181 15.8858 119 121 126
2.7072089 -47.058567 15.866736 124 123 126
2.9370811 -47.074337 15.899539 128 123 129
3.1046669 -47.09285 15.902648 122 119 123
3.2954435 -47.115101 15.883935 122 118 122
3.4669373 -47.092472 15.886645 118 118 121
3.6012268 -47.016098 15.862122 133 128 134
3.8819637 -47.091419 15.819452 131 131 123
4.1196384 -47.098431 15.820374 140 140 141
4.3452339 -47.07629 15.845161 150 144 147
4.5313983 -47.059475 15.824848 122 123 122
4.67592 -47.063969 15.838247 133 134 130
4.9218764 -47.036186 15.917051 130 130 125
5.1522441 -47.070328 15.871693 160 156 148
5.2982321 -47.092525 15.906618 142 141 132
5.511939 -47.096157 15.901954 131 131 125
5.6717148 -47.111164 15.899205 112 115 111
5.861217 -47.094643 15.893022 102 107 102
6.1183257 -47.124969 15.898145 149 147 143
6.2734547 -47.111435 15.895674 142 145 138
6.4481072 -47.062504 15.900226 142 145 137
7.0262842 -47.091621 15.934529 138 144 130
8.4513483 -47.05352 15.834587 143 141 142
-1.0562109 -46.852203 15.830508 127 125 130
-0.88520908 -46.892582 15.877505 156 153 158
-0.71604478 -46.879223 15.872392 148 150 155
-0.47126645 -46.90662 15.884873 132 137 140
-0.27929348 -46.908573 15.894625 130 133 139
-0.12079486 -46.915852 15.892658 135 141 147
0.10607962 -46.903942 15.863826 105 111 118
0.25934681 -46.880096 15.874183 109 117 125
0.47315201 -46.909306 15.865734 114 118 125
0.74699426 -46.978035 15.855914 115 123 127
0.92146862 -46.879078 15.885463 110 117 118
1.1207598 -46.90799 15.894512 119 125 124
1.2631838 -46.906918 15.906107 115 124 122
1.5403664 -46.892052 15.900316 115 122 125
1.7012185 -46.918201 15.884353 114 118 121
1.8683667 -46.916447 15.901435 120 124 126
2.0655494 -46.966454 15.92116 100 105 107
2.2991304 -46.942818 15.893077 103 107 111
2.5017574 -46.94561 15.894362 129 131 135
2.7219217 -46.930767 15.894285 130 129 133
2.8982785 -46.913681 15.899962 124 122 125
3.0858459 -46.913906 15.88456 125 118 123
3.2799647 -46.910206 15.890366 130 123 126
3.4737473 -46.916019 15.878142 120 113 115
3.6192434 -46.993931 15.801338 132 128 125
4.5110488 -46.894623 15.843371 133 131 129
4.6672034 -46.906239 15.830091 126 122 119
4.8778033 -46.836716 15.866828 125 126 121
5.119556 -46.894283 15.916238 157 152 147
5.2912149 -46.923409 15.896324 144 143 136
5.5027509 -46.919525 15.900979 135 135 130
5.7033525 -46.906281 15.910251 114 117 114
5.8633966 -46.914471 15.890279 101 105 103
6.0348382 -46.978378 15.85501 129 128 122
6.3011217 -46.891918 15.897554 116 120 116
6.4827256 -46.864956 15.887451 135 140 137
6.6489158 -46.859863 15.852816 159 162 157
6.8358746 -46.897713 15.842947 180 173 167
8.1563358 -46.888222 15.921764 159 154 158
9.0833969 -46.80125 15.917706 103 111 113
-1.2616137 -46.735107 15.818156 198 181 186
-1.0588157 -46.743244 15.843184 146 144 148
-0.91347909 -46.712788 15.85297 148 148 153
-0.68280077 -46.687481 15.891167 138 142 146
-0.50883961 -46.688309 15.874393 158 155 156
-0.2813088 -46.708511 15.869947 119 120 121
-0.14527655 -46.711956 15.868912 109 115 118
0.13167894 -46.696545 15.876592 115 119 125
0.30968004 -46.698284 15.898287 135 137 143
0.48548537 -46.700016 15.893678 131 133 138
0.93067712 -46.767807 15.854151 93 105 101
1.0861907 -46.757484 15.837521 119 126 124
1.5365834 -46.728046 15.850359 154 154 155
2.7254531 -46.727505 15.903831 127 116 117
2.9239602 -46.722378 15.863047 138 130 133
3.1097131 -46.691238 15.896275 139 126 128
3.3080404 -46.670414 15.894125 139 130 132
3.4644389 -46.686619 15.874927 139 128 131
3.6128802 -46.688141 15.855197 147 136 142
3.8557253 -46.733162 15.819983 155 158 158
4.5138011 -46.696064 15.891109 166 159 158
4.724102 -46.695972 15.863395 151 146 144
4.8888092 -46.708309 15.884382 148 144 141
5.060246 -46.720772 15.907113 172 166 162
5.2927647 -46.703144 15.889659 138 136 129
5.5035968 -46.703278 15.907967 129 130 119
5.682394 -46.710461 15.932889 132 132 124
5.8749132 -46.688622 15.905779 126 129 126
6.0898409 -46.727627 15.931452 145 146 138
6.2882423 -46.70042 15.889839 155 154 152
6.5072694 -46.71447 15.949631 99 102 95
6.6540251 -46.710533 15.885895 111 114 111
6.8619027 -46.664516 15.873504 158 160 152
8.3494387 -46.614952 15.978312 192 189 197
8.4436321 -46.67252 15.937631 168 159 164
9.2074432 -46.708843 15.856593 54 64 63
-1.262526 -46.445751 15.902502 118 119 125
-1.0550708 -46.499779 15.866063 171 159 163
-0.89058787 -46.49744 15.871226 169 155 158
-0.70915222 -46.482376 15.877538 159 153 156
-0.5235551 -46.472401 15.891182 151 148 150
-0.31704777 -46.476765 15.858317 137 133 137
-0.11688262 -46.478123 15.898651 152 145 150
0.12036113 -46.498627 15.844356 127 127 134
0.28664273 -46.520222 15.879395 133 132 137
0.46756727 -46.507233 15.865689 122 124 129
1.1113001 -46.443237 15.896512 89 87 93
1.2863256 -46.474838 15.87705 152 141 138
1.7133801 -46.431107 15.972246 76 77 79
1.8237097 -46.41156 15.905093 83 75 77
2.6172378 -46.492664 15.832675 141 133 134
2.903837 -46.490234 15.86051 129 124 125
3.1085985 -46.508526 15.883703 126 120 121
3.2886403 -46.50211 15.884428 143 133 135
3.4507351 -46.52916 15.863528 132 124 127
3.6284316 -46.533421 15.816559 150 140 144
4.5464683 -46.53326 15.903386 184 180 175
4.7082338 -46.517254 15.893568 173 169 164
4.8828006 -46.502468 15.869821 148 146 137
5.084424 -46.44902 15.892563 181 177 169
5.3146014 -46.534061 15.899003 139 140 131
5.4990573 -46.516663 15.888114 130 128 120
5.7152953 -46.554573 15.962405 156 159 146
5.9197025 -46.493465 15.938457 130 132 124
6.0910587 -46.471104 15.890911 120 125 121
6.2610865 -46.491882 15.922119 108 110 104
6.8706269 -46.536537 15.91287 135 139 132
7.7109909 -46.584751 15.843155 167 168 160
8.4965181 -46.481297 15.949835 143 142 154
8.6480303 -46.490669 15.860363 92 91 102
8.8671856 -46.49662 15.998083 74 79 82
9.4972048 -46.408112 15.943651 86 90 96
-1.2515497 -46.292358 15.866084 180 168 174
-1.0775037 -46.303761 15.886872 154 147 151
-0.90024513 -46.310127 15.883975 164 153 158
-0.70748943 -46.313545 15.891276 164 156 160
-0.50020325 -46.284233 15.900671 151 144 148
-0.30142021 -46.277424 15.890647 158 150 153
-0.10239046 -46.268192 15.886678 149 142 146
0.099483281 -46.289272 15.90698 147 140 143
0.2978512 -46.30032 15.863717 125 121 126
0.4976311 -46.23793 15.836396 118 111 116
0.66848361 -46.27705 15.829035 98 91 94
0.90668368 -46.239677 15.880822 127 121 123
1.0926104 -46.27882 15.896159 151 141 137
1.288707 -46.286812 15.885233 139 133 128
1.4890615 -46.289715 15.938998 143 131 131
1.7218176 -46.266529 15.915792 136 126 125
1.8789244 -46.280907 15.877501 131 119 122
2.0150499 -46.264038 15.838941 113 111 116
2.5265069 -46.323792 15.942368 158 147 143
2.6850975 -46.292263 15.872385 98 93 95
2.9221199 -46.298382 15.854772 132 127 128
3.089633 -46.302078 15.876266 128 125 125
3.2859886 -46.308521 15.882071 131 127 128
3.5081298 -46.365318 15.812996 171 159 168
4.5706935 -46.286728 15.889355 147 147 137
4.7186174 -46.311607 15.903356 158 157 149
4.8948994 -46.302517 15.898058 167 165 155
5.0496082 -46.262093 15.848841 148 149 140
5.3467865 -46.377716 15.886324 124 121 113
5.4419212 -46.312256 15.876821 178 175 170
5.7184305 -46.330509 15.953363 116 121 115
5.8197417 -46.387066 15.989317 132 131 132
6.0502882 -46.387394 15.914764 117 125 120
6.3867693 -46.353745 15.990452 134 137 130
7.9436378 -46.263687 15.932505 101 110 102
8.0955601 -46.296459 15.951068 106 115 109
8.2375679 -46.378662 15.968976 134 138 133
8.492938 -46.389137 15.993839 75 73 84
9.536541 -46.229858 15.955931 91 91 99
9.6744785 -46.313221 15.913273 92 95 99
-1.2661324 -46.100788 15.882431 143 137 143
-1.0731155 -46.100388 15.898787 161 152 158
-0.91269505 -46.110916 15.894024 149 146 150
-0.69666606 -46.098583 15.898421 169 157 162
-0.49413955 -46.10429 15.909482 168 158 160
-0.30361003 -46.102512 15.894179 155 148 152
-0.11102724 -46.092907 15.894443 155 149 152
0.084367707 -46.130947 15.857564 138 135 139
0.29896969 -46.073566 15.893133 117 117 124
0.51330221 -46.069283 15.884572 135 130 138
0.69635397 -46.097725 15.872033 137 131 137
0.88807374 -46.084465 15.887819 139 135 139
1.0806179 -46.095062 15.897216 147 137 135
1.2979907 -46.094711 15.927114 148 135 136
1.5064735 -46.08868 15.915582 150 138 139
1.7181255 -46.123772 15.898219 132 125 126
1.8959144 -46.097828 15.903447 140 133 136
2.0671477 -46.102543 15.906695 138 127 127
2.2591984 -46.089752 15.8936 144 134 135
2.9484863 -46.17086 15.8319 129 129 132
3.1166477 -46.172981 15.85542 141 134 136
3.2729025 -46.197353 15.835573 111 106 102
4.3156514 -46.11755 15.872684 191 192 186
4.5329585 -46.060123 15.840983 148 148 140
4.7060709 -46.112217 15.877069 166 162 154
4.9047151 -46.102783 15.893841 168 164 157
5.0915532 -46.107388 15.900242 149 147 138
5.2642217 -46.065586 15.921002 168 165 152
5.7783203 -46.048248 15.932915 124 124 126
5.9049373 -46.061298 15.960208 159 156 151
7.947927 -46.119656 15.924686 102 110 99
8.0601988 -46.103455 15.941403 122 128 119
9.5685425 -46.060841 15.987083 119 124 128
-1.4433147 -45.860271 15.830168 157 158 161
-1.2956367 -45.886547 15.833429 147 143 150
-1.0932419 -45.92831 15.889182 157 156 162
-0.89972806 -45.92606 15.886527 144 141 147
-0.69877982 -45.903751 15.887854 161 156 160
-0.4871771 -45.912125 15.882152 152 148 152
-0.28191379 -45.904087 15.896996 149 144 149
-0.10922789 -45.9151 15.884194 141 138 143
0.078324914 -45.909409 15.894903 128 128 134
0.31829494 -45.919312 15.87526 130 130 137
0.49128184 -45.916744 15.888398 128 127 135
0.704395 -45.897129 15.896368 132 130 136
0.89209706 -45.914978 15.876883 135 130 134
1.1060848 -45.898716 15.890544 141 133 136
1.2763139 -45.887959 15.918731 145 133 135
1.4822998 -45.904385 15.915923 141 129 131
1.7039386 -45.898014 15.91878 134 125 128
1.8961884 -45.882195 15.912191 134 126 129
2.0809937 -45.869194 15.906643 129 123 126
2.2872486 -45.879833 15.890933 134 123 127
2.4629681 -45.950394 15.836973 69 70 71
4.3719201 -45.962753 15.886673 147 151 142
4.5257988 -45.900333 15.873527 141 142 135
4.6936216 -45.924732 15.86492 147 145 138
4.9136763 -45.926048 15.901766 170 163 155
5.0931411 -45.897572 15.898526 160 157 149
5.2765169 -45.923134 15.880988 182 175 167
5.5200186 -45.872513 15.879936 172 165 162
5.7235041 -45.826115 15.892145 136 138 130
5.9350948 -45.915985 15.9093 158 155 152
6.0572877 -45.8437 15.892494 165 161 157
6.359158 -45.811043 15.868738 112 108 104
6.4453936 -45.849239 15.816731 110 108 102
6.6296945 -45.839123 15.974159 96 92 96
6.9015245 -45.831127 15.896149 130 130 128
7.1370063 -45.833881 15.910986 125 138 121
7.2584281 -45.833057 15.841618 135 143 128
7.9102044 -45.903698 15.952909 160 153 154
8.0605249 -45.963837 15.968349 111 123 114
-1.3354816 -45.621006 15.810506 110 111 119
-1.0636214 -45.707947 15.906713 142 141 148
-0.89188313 -45.68721 15.877078 141 141 146
-0.70733047 -45.703003 15.899754 134 136 140
-0.49604118 -45.703522 15.903502 129 131 136
-0.3146621 -45.709545 15.894774 136 138 144
-0.10715241 -45.696487 15.885073 139 139 147
0.069556281 -45.737503 15.903421 151 150 161
0.34800038 -45.71217 15.880399 119 118 126
0.51506829 -45.718658 15.870511 130 131 138
0.71078604 -45.708733 15.888878 122 124 130
0.91080743 -45.711243 15.904134 129 128 134
1.1053042 -45.698612 15.890218 136 128 132
1.3049417 -45.697449 15.893855 147 139 143
1.505686 -45.699272 15.920413 148 137 140
1.7131501 -45.698128 15.910159 138 129 131
1.9076681 -45.698128 15.901755 135 126 129
2.102639 -45.69249 15.892859 136 126 129
2.2914109 -45.680485 15.894387 145 130 137
2.4388041 -45.683319 15.879666 124 116 121
4.5598021 -45.711899 15.841756 120 123 120
4.7432241 -45.797005 15.867285 156 149 148
4.9163008 -45.751839 15.898974 173 162 157
5.1083522 -45.720566 15.870549 182 176 170
5.2854972 -45.700104 15.88767 215 207 200
5.5572686 -45.715912 15.906329 177 172 165
5.6807394 -45.696075 15.850513 161 157 148
5.9136524 -45.725594 15.887612 128 128 120
6.0546551 -45.606834 15.842352 124 120 121
6.3944831 -45.631081 15.97168 96 98 93
6.5103407 -45.709587 15.88913 135 129 132
6.6573482 -45.701504 15.937111 87 80 84
6.8715148 -45.703724 15.940509 125 126 117
7.1124167 -45.707047 15.970937 114 119 108
7.2417827 -45.715984 15.943682 133 137 125
7.4545417 -45.684319 15.975491 131 121 120
7.7199364 -45.728226 15.958166 162 158 153
7.8272181 -45.747036 15.928537 160 149 155
-1.2390298 -45.513599 15.849633 154 150 157
-1.0838685 -45.50362 15.88631 155 152 157
-0.91052687 -45.493694 15.884744 149 150 154
-0.71742874 -45.506065 15.885135 135 137 142
-0.50207722 -45.492466 15.931087 132 132 139
-0.31274739 -45.530472 15.90064 146 146 153
-0.16587038 -45.543839 15.837946 138 142 150
0.5104754 -45.460609 15.853643 144 139 140
0.72803897 -45.469967 15.858638 134 133 136
0.9201737 -45.480057 15.88699 143 141 143
1.1010181 -45.498646 15.889293 132 130 132
1.3047816 -45.48941 15.897972 137 132 134
1.5008755 -45.501347 15.901351 143 136 140
1.6942965 -45.506493 15.907635 135 128 132
1.9046088 -45.49419 15.901204 140 132 135
2.0962679 -45.49781 15.909174 139 130 133
2.2936027 -45.488041 15.888344 148 132 139
2.4575379 -45.488728 15.873405 140 126 133
4.3617644 -45.4091 15.843687 173 173 164
4.4987783 -45.477924 15.863022 147 151 140
4.722239 -45.431335 15.832258 135 136 128
5.1121168 -45.530579 15.926744 156 151 145
5.2927084 -45.490658 15.912208 171 166 162
5.5373235 -45.493591 15.913005 179 173 165
5.6700859 -45.46608 15.880713 181 177 172
5.9080315 -45.49947 15.962673 143 141 129
6.1158714 -45.490063 15.982508 138 136 125
6.2874198 -45.430058 15.968136 143 147 143
6.5386119 -45.485035 15.935298 109 98 107
6.749063 -45.454449 15.958618 149 139 144
6.8790879 -45.47884 15.906424 116 115 112
7.1477494 -45.452381 15.884948 142 142 141
8.5210514 -45.486385 15.929344 72 76 79
-1.3220397 -45.299374 15.829694 120 126 135
-1.0586205 -45.394142 15.887003 153 153 154
-0.89353889 -45.352768 15.881095 132 134 139
-0.67730856 -45.282795 15.874285 143 145 153
-0.53125823 -45.323349 15.881358 148 147 155
-0.26359573 -45.327606 15.876804 143 140 151
-0.18062158 -45.326683 15.985863 161 158 167
0.54640824 -45.321751 15.835196 146 143 145
0.70451558 -45.295181 15.883998 153 147 151
0.9100315 -45.300503 15.904034 150 146 149
1.1044199 -45.306408 15.916839 146 141 144
1.3033123 -45.306187 15.911252 145 139 143
1.5021406 -45.307854 15.899164 145 137 140
1.6983402 -45.302189 15.89134 141 134 139
1.9016001 -45.314972 15.874339 124 120 124
2.1141908 -45.307739 15.878561 144 133 140
2.3080833 -45.3134 15.88639 149 137 143
2.4431999 -45.309376 15.850739 135 123 131
2.6958199 -45.34137 15.83868 144 145 150
4.3861995 -45.383652 15.886871 173 172 162
4.532805 -45.346729 15.831711 161 161 152
4.6902537 -45.356052 15.823229 154 153 144
4.8796697 -45.310692 15.86098 150 146 140
5.1207595 -45.26746 15.893149 170 165 157
5.301331 -45.276123 15.896759 161 157 152
5.5058503 -45.31324 15.904853 151 149 143
5.649117 -45.335068 15.907186 155 152 148
5.920845 -45.283363 15.921127 161 156 151
6.0705781 -45.277142 15.971346 158 152 149
6.3115745 -45.287968 15.896667 141 140 137
6.5140634 -45.298786 15.942804 142 138 141
6.706593 -45.273666 15.930243 104 100 105
6.9134574 -45.30151 15.907548 106 106 106
7.0912538 -45.287476 15.882034 122 124 121
7.2808151 -45.291542 15.922448 157 157 152
7.4964924 -45.259235 15.898292 173 170 169
7.6348505 -45.20752 15.894428 200 193 194
8.6411161 -45.292225 15.946448 85 86 91
8.8983927 -45.364525 15.920601 240 220 232
-1.3147707 -45.111065 15.855551 80 87 90
-0.80820048 -45.199459 15.88855 128 136 147
-0.71253419 -45.179153 15.882627 155 152 159
-0.5752328 -45.18288 15.988378 161 162 165
0.32422644 -45.019478 15.803402 129 125 133
0.55496633 -45.094246 15.865519 156 155 159
0.72748929 -45.119705 15.901822 136 133 138
0.90400845 -45.119949 15.902789 165 156 161
1.1034005 -45.115135 15.905426 156 146 151
1.3133497 -45.104874 15.910689 151 144 149
1.5078123 -45.101276 15.90079 151 143 149
1.7004645 -45.107746 15.898727 152 142 150
1.8848114 -45.138424 15.890792 149 140 148
2.0560892 -45.151325 15.878798 143 136 144
4.3237391 -45.067245 15.81863 157 154 150
4.5643339 -45.008224 15.847623 149 154 144
4.6038952 -45.01754 15.839827 132 135 126
4.9223499 -45.117939 15.85419 130 133 122
5.1043139 -45.094208 15.89983 178 168 162
5.3007007 -45.103672 15.909836 182 175 169
5.4530578 -45.076675 15.878204 176 172 169
5.9331813 -45.114826 15.961411 152 152 148
6.0890188 -45.071812 15.929748 168 166 162
6.3045011 -45.094891 15.906974 128 129 126
6.5138173 -45.117645 15.925216 140 137 137
6.7004757 -45.107323 15.895011 131 129 128
6.8993335 -45.097424 15.877731 108 109 108
7.100296 -45.094555 15.892081 121 121 119
7.2962699 -45.088638 15.875162 117 120 117
7.5119967 -45.102375 15.909745 152 151 147
7.6523905 -45.144638 15.955338 190 185 184
8.1054516 -45.056499 15.954141 182 172 191
8.3161688 -45.075222 15.954746 103 103 109
8.4878254 -45.065334 15.903315 86 92 97
8.7083969 -45.1768 15.892453 92 99 106
-1.1556876 -44.825428 15.851927 57 69 67
-0.25446686 -44.883389 15.869266 129 127 130
0.54839253 -44.976341 15.826619 179 174 170
0.74985921 -44.856735 15.861815 127 126 128
0.90624541 -44.925797 15.877913 153 148 153
1.1101826 -44.905266 15.914672 153 145 152
1.2883682 -44.903137 15.902075 142 137 144
1.5102642 -44.906559 15.885977 159 152 160
1.6615273 -44.91148 15.901365 151 146 153
4.0721803 -44.80386 15.880051 168 168 170
4.3097401 -44.923534 15.84291 171 159 167
4.5458679 -44.92424 15.862473 148 145 139
4.7329512 -44.864826 15.868084 163 159 153
4.8826799 -44.875816 15.878036 166 161 153
5.1022649 -44.900364 15.888661 156 151 144
5.2932267 -44.896683 15.892356 159 155 146
5.4717336 -44.899685 15.897385 156 154 147
5.6667261 -44.846642 15.872044 153 147 135
5.9641838 -44.940964 15.932068 131 131 129
6.0855851 -44.894096 15.926547 162 158 157
6.2848306 -44.929157 15.913729 138 139 133
6.5413833 -44.88969 15.917255 138 141 135
6.7185373 -44.898895 15.881907 141 142 136
6.9125767 -44.887859 15.877803 130 131 124
7.0906267 -44.899055 15.896419 135 135 129
7.2951603 -44.895279 15.885069 143 143 136
7.4673433 -44.909645 15.892636 154 150 144
7.6805668 -44.846298 15.910898 124 120 126
7.9249043 -44.892841 15.919707 154 146 150
8.1197786 -44.906746 15.937181 157 147 159
8.3144712 -44.898888 15.92301 102 103 112
8.4798346 -44.891216 15.908713 75 83 87
0.73477107 -44.703804 15.872079 156 153 160
0.89671433 -44.713318 15.897065 147 148 152
1.093991 -44.70409 15.878635 135 141 143
1.3059107 -44.753712 15.854146 124 123 130
1.4902656 -44.75584 15.885317 137 136 142
1.6160628 -44.729404 15.839668 150 150 159
4.155931 -44.778313 15.876106 148 139 144
4.5357709 -44.738155 15.823917 174 157 155
4.7174239 -44.724873 15.856283 188 177 178
4.9008117 -44.710613 15.867832 182 172 172
5.0920315 -44.709129 15.933206 169 161 154
5.2706056 -44.699383 15.893022 173 166 160
5.5082588 -44.681671 15.953541 180 175 170
5.6912436 -44.685883 15.94654 186 180 176
5.9562125 -44.748909 15.955853 151 148 140
6.1104336 -44.700531 15.936546 151 147 144
6.3103261 -44.709469 15.892124 155 152 153
6.4967327 -44.711414 15.884231 138 141 135
6.7082891 -44.712101 15.886867 150 151 144
6.8969235 -44.704517 15.90015 148 147 140
7.0816307 -44.688923 15.898804 160 157 151
7.3144355 -44.706051 15.915414 167 162 158
7.4772124 -44.681515 15.918873 181 176 179
7.6993656 -44.733055 15.911266 137 129 133
7.9082947 -44.661663 15.89061 135 131 138
8.0900946 -44.710613 15.912219 130 125 134
8.3185024 -44.731594 15.919519 92 94 103
8.4615412 -44.735832 15.895559 107 110 118
8.6530552 -44.752804 15.861126 83 94 101
0.38885486 -44.464619 15.852533 155 155 164
0.46368814 -44.527115 15.844599 153 152 160
0.73354447 -44.518848 15.888012 149 146 156
0.90074754 -44.503025 15.899998 159 158 165
1.0627921 -44.495388 15.889705 154 156 162
1.2934037 -44.527164 15.861624 156 158 165
4.7305522 -44.589619 15.948194 222 213 218
4.9274659 -44.47113 15.892283 199 183 183
5.1141086 -44.501148 15.895432 181 171 168
5.2931957 -44.494846 15.899177 183 174 169
5.4961095 -44.493099 15.907421 178 169 164
5.7053037 -44.479416 15.876853 172 166 166
5.9138017 -44.501991 15.926793 166 163 161
6.1034212 -44.520729 15.919911 175 166 163
6.3108029 -44.495956 15.880466 150 146 148
6.4837337 -44.489872 15.900051 149 148 152
6.7178626 -44.533821 15.879409 167 164 165
6.9046984 -44.510387 15.909953 172 165 161
7.0966887 -44.500492 15.917552 177 167 165
7.3236108 -44.489815 15.926605 170 160 164
7.496099 -44.461781 15.941738 141 136 144
7.7124243 -44.494762 15.894259 135 135 143
7.8811474 -44.52636 15.871431 126 121 131
8.0403767 -44.548332 15.858043 107 107 115
8.3488646 -44.552292 15.841643 55 63 66
0.71716094 -44.369251 15.848309 123 122 132
0.85750407 -44.373329 15.844801 139 141 148
1.081802 -44.388916 15.8933 136 139 149
4.9608898 -44.306126 15.8886 210 195 194
5.1222868 -44.31427 15.893136 179 169 164
5.3038335 -44.315456 15.894726 189 179 179
5.4843326 -44.279484 15.904458 199 190 190
5.6671343 -44.320667 15.889552 176 169 167
5.8780594 -44.256958 15.943235 182 167 167
6.0680299 -44.290955 15.90178 142 135 137
6.2996664 -44.328091 15.884181 124 124 128
6.4948387 -44.371586 15.860074 169 160 169
6.7367415 -44.248817 15.913732 111 98 105
6.9197516 -44.3144 15.909018 185 172 173
7.0947428 -44.294495 15.906768 196 183 184
7.2855153 -44.298637 15.9107 144 135 140
7.4823303 -44.283024 15.920681 92 95 101
7.6880322 -44.295517 15.900251 72 80 83
0.11617058 -44.01162 15.82086 160 158 167
4.9450874 -44.086288 15.922128 172 162 161
5.1244044 -44.138538 15.916315 152 143 140
5.3133492 -44.133659 15.901296 183 170 170
5.5147448 -44.095646 15.924763 167 156 157
5.6830993 -44.082439 15.902569 176 159 161
5.8985825 -44.131294 15.811769 154 136 140
6.0663476 -44.179878 15.947554 83 73 76
6.6137528 -44.197468 15.936056 92 93 95
6.9350839 -44.122559 15.913179 154 141 148
7.1057997 -44.137928 15.887481 145 134 143
7.2722845 -44.12331 15.894094 120 114 121
7.4574504 -44.146992 15.913044 79 84 88
7.622076 -44.046455 15.867508 96 99 106
0.28824091 -43.923134 15.864122 160 156 165
5.1208177 -43.931431 15.804584 171 162 155
5.3097262 -43.87352 15.949341 169 159 161
5.4327459 -43.906788 15.942508 191 178 176
5.6935134 -43.931053 15.953603 179 163 167
5.8626404 -43.923016 15.904874 208 191 199
6.0647974 -43.915333 15.950767 84 95 87
6.9482427 -43.976845 15.934551 139 123 134
7.1016231 -43.90704 15.874776 104 103 106
7.3319421 -43.933895 15.918701 107 106 114
7.6330543 -43.913338 15.862337 91 98 104
5.5533009 -43.623901 15.88011 166 159 156
5.7245908 -43.670746 15.897319 164 154 156
5.8519034 -43.66457 15.856752 136 126 131
7.4431853 -43.788059 15.803857 97 98 100
4.3460436 -40.826561 15.896579 175 155 166
4.5083408 -40.827297 15.867424 170 157 161
5.0961733 -40.852348 15.801424 209 181 196
5.3176351 -40.845478 15.86142 193 167 187
5.4743385 -40.846432 15.869477 172 155 171
4.0854611 -40.638577 15.990224 159 141 154
4.3155522 -40.691078 15.906854 189 165 180
4.495544 -40.701862 15.868154 170 155 160
4.7133045 -40.674519 15.908267 183 163 175
4.9058242 -40.66964 15.891538 186 167 177
5.1093259 -40.677032 15.870388 192 169 182
5.3082747 -40.678749 15.872629 184 162 177
5.4805946 -40.684174 15.854337 159 146 158
4.1651006 -40.473457 15.976915 168 142 153
4.3314729 -40.502262 15.915892 189 166 176
4.5087204 -40.520439 15.900229 175 156 162
4.7134347 -40.477894 15.921975 183 165 170
4.9062114 -40.513676 15.904716 196 174 184
5.1153789 -40.522121 15.877097 194 171 182
5.295146 -40.508083 15.906717 163 145 158
5.4510531 -40.522324 15.860697 128 119 126
5.625699 -40.467041 15.868332 74 83 80
4.3841119 -40.3144 15.868269 231 201 217
4.5191073 -40.311047 15.920881 176 156 168
4.7010221 -40.303482 15.920915 150 137 145
4.8818407 -40.313023 15.899339 194 169 182
5.0701141 -40.284599 15.901311 198 177 196
5.2730384 -40.277664 15.863271 181 167 182
5.4061198 -40.344646 15.857296 102 97 103
4.5357928 -40.155602 15.892674 145 132 143
4.6919723 -40.153183 15.842588 151 140 147
5.111805 -40.157322 15.862761 139 129 136
5.2456393 -40.152084 15.83186 168 152 172
5.1779108 -39.811661 15.804712 164 144 147
5.3071175 -39.865349 15.946671 199 169 189
5.5134363 -39.811733 15.900869 166 148 156
3.9401872 -39.668564 15.918608 174 157 164
4.1103101 -39.684189 15.890322 177 159 163
4.2916088 -39.672455 15.910824 203 178 189
4.4901075 -39.69862 15.918709 188 166 179
4.6872721 -39.695351 15.908136 169 152 161
4.8813763 -39.69183 15.905212 157 141 148
5.0990186 -39.682293 15.867667 183 162 168
5.2872858 -39.694096 15.901979 199 172 184
5.4955134 -39.679695 15.891946 195 171 185
5.6741924 -39.676067 15.932722 171 153 161
3.9349892 -39.524521 15.887714 173 157 164
4.1290898 -39.522461 15.882317 185 166 173
4.3010321 -39.510853 15.902092 206 182 194
4.5100145 -39.50275 15.92621 197 175 186
4.7162938 -39.487823 15.895086 187 165 174
4.8817086 -39.508404 15.904171 173 156 164
5.1009159 -39.504253 15.898541 180 161 168
5.2590714 -39.508648 15.924964 198 170 181
5.5006247 -39.467209 15.937131 219 188 208
5.698751 -39.518234 15.937624 163 145 161
5.8845091 -39.469849 15.866182 138 130 137
3.9002066 -39.350155 15.834032 167 156 157
4.0777078 -39.315556 15.870996 171 156 160
4.3163748 -39.338676 15.90916 189 167 178
4.5130939 -39.297039 15.90581 188 163 175
4.7237239 -39.274551 15.907902 202 177 192
4.9162035 -39.319164 15.884379 176 157 168
5.1099715 -39.307339 15.868763 179 156 166
5.3194118 -39.327259 15.90007 199 170 185
5.5209708 -39.316994 15.948133 159 141 156
5.6932316 -39.306183 15.938638 109 105 111
5.8462119 -39.345062 15.875076 104 105 108
6.0095806 -39.308716 15.8318 92 99 97
4.1703863 -39.050873 15.828078 163 144 148
4.2829981 -39.089226 15.884917 186 167 176
4.4615626 -39.108681 15.863049 141 130 134
4.688993 -39.143784 15.872009 179 153 168
4.8781276 -39.115482 15.927031 179 161 181
5.0388675 -39.098961 15.8581 132 121 137
5.3192687 -39.159737 15.897943 208 179 201
5.4577384 -39.09734 15.884667 151 135 150
5.6613703 -39.106258 15.921666 97 102 100
5.8113084 -39.154572 15.866177 93 92 88
4.1728988 -38.973389 15.820696 216 189 200
4.3048444 -38.915005 15.889449 164 146 155
4.4788713 -38.913303 15.882756 140 131 136
4.6741872 -38.894691 15.829274 131 117 128
4.8691077 -38.959488 15.82439 195 174 197
5.0331855 -38.927574 15.835361 110 108 119
4.3597236 -38.776611 15.880949 86 89 89
4.4815187 -38.754787 15.888522 77 86 80
4.6123743 -38.747753 15.835164 75 80 81
-1.8129833 -53.26255 16.017094 119 125 137
-1.756454 -53.101761 16.035257 171 173 185
-1.4413817 -52.898876 16.053852 163 173 184
-1.2216952 -52.861454 16.106285 150 161 174
-1.0478108 -52.806828 16.085901 153 164 170
-1.2692218 -52.72332 16.070246 139 147 157
-1.0895884 -52.719246 16.082705 138 149 157
-0.90986848 -52.772346 16.115088 144 155 157
-0.37291801 -52.680298 16.010262 77 87 88
-2.2747242 -52.542355 16.066345 48 48 46
-0.8083722 -52.51395 16.06295 116 121 129
-0.72982371 -52.470413 16.069422 128 149 152
-0.41803277 -52.503963 16.025469 108 119 118
-0.37387413 -52.543987 16.021889 97 110 103
