ply
format ascii 1.0
comment PCL generated
element vertex 1093
property float x
property float y
property float z
property uchar red
property uchar green
property uchar blue
element face 0
element camera 0
property float view_px
property float view_py
property float view_pz
property float x_axisx
property float x_axisy
property float x_axisz
property float y_axisx
property float y_axisy
property float y_axisz
property float z_axisx
property float z_axisy
property float z_axisz
property float focal
property float scalex
property float scaley
property float centerx
property float centery
property int viewportx
property int viewporty
property float k1
property float k2
end_header
-97.712883 -55.285439 22.102116 137 141 144
-97.318985 -55.249031 22.118776 86 108 96
-96.858215 -55.345032 22.13555 62 74 63
-96.688049 -55.291573 22.094854 65 78 69
-96.48558 -55.274292 22.084269 93 102 103
-96.326797 -55.279762 22.126574 100 111 115
-96.121666 -55.28112 22.134924 132 137 144
-95.807838 -55.340572 22.017185 130 138 140
-95.773964 -55.360172 22.006636 93 101 104
-98.130562 -55.013546 22.016214 117 124 121
-97.824486 -55.188129 22.196505 146 152 163
-97.688438 -55.135895 22.112427 124 129 130
-97.507477 -55.083076 22.106297 101 110 107
-97.333946 -55.076965 22.097406 94 108 102
-96.860565 -55.090271 22.129997 113 114 111
-96.688553 -55.092625 22.060646 90 98 90
-96.503731 -55.064445 22.072687 87 98 95
-96.361115 -55.086647 22.063181 101 110 112
-98.229767 -54.903076 22.029724 113 121 119
-98.059647 -54.903625 22.042654 122 127 124
-97.983391 -54.905144 22.037201 133 134 133
-97.616791 -54.941528 22.096197 91 100 96
-97.501816 -54.934307 22.08674 101 111 106
-97.355736 -54.875034 22.13625 114 124 119
-97.126328 -54.877766 22.108854 116 126 122
-96.874008 -54.876331 22.111012 112 116 112
-96.685303 -54.899277 22.104012 105 113 108
-96.525124 -54.94577 22.098328 97 108 107
-98.240311 -54.775349 22.17347 153 161 164
-98.189354 -54.748219 22.08242 118 129 131
-97.468994 -54.752686 22.12195 152 149 155
-97.276787 -54.729881 22.119877 128 131 130
-97.097191 -54.721836 22.098137 122 126 124
-96.882149 -54.677361 22.124596 118 120 119
-96.724342 -54.725388 22.082619 107 115 116
-96.594131 -54.745632 22.057329 108 120 124
-97.035347 -54.558876 22.116264 132 134 129
-96.913818 -54.554897 22.086634 126 131 130
-96.773567 -54.563992 22.035536 98 110 107
-97.235901 -52.821632 22.102915 183 167 169
-97.131081 -52.824329 22.049398 153 147 143
-96.480209 -52.885708 22.049028 170 155 148
-96.299446 -52.822063 22.06497 139 137 133
-97.621124 -52.620655 22.061249 148 119 125
-97.256233 -52.73378 22.072018 187 171 169
-97.122704 -52.739372 22.063396 153 144 141
-96.98111 -52.717911 22.0494 148 151 130
-96.462433 -52.718338 22.069426 180 161 151
-96.30201 -52.689823 22.075424 172 154 154
-96.174576 -52.758423 22.02177 134 131 126
-97.896225 -52.518986 22.000414 198 173 176
-97.604347 -52.518764 22.025078 191 178 185
-96.473366 -52.506836 22.095165 163 155 147
-96.329758 -52.559757 22.047743 175 155 154
-97.226059 -52.276108 22.034107 177 162 158
-97.132408 -52.256195 22.011953 168 152 149
-96.673569 -52.275368 22.031597 143 143 145
-96.500099 -52.291538 22.091894 127 130 124
-96.391762 -52.399887 22.010635 147 142 138
-97.671791 -52.049183 22.041428 220 204 204
-97.440529 -52.107029 22.056885 141 139 140
-97.262337 -52.053616 22.098005 171 159 157
-97.113052 -52.063648 22.069061 166 155 154
-96.911003 -52.037155 22.061874 110 110 102
-96.68824 -52.057892 22.068401 125 129 122
-96.567909 -52.058163 22.057627 136 142 136
-97.71431 -51.883709 22.110325 180 165 169
-97.47905 -51.884094 22.095053 156 147 141
-97.299484 -51.892574 22.101324 158 149 146
-97.096962 -51.903515 22.099052 175 166 164
-96.90036 -51.894573 22.094969 144 143 139
-96.694595 -51.902218 22.09889 164 161 162
-96.542557 -51.873402 22.040199 159 160 157
-98.039047 -51.6614 22.086895 163 150 147
-97.926964 -51.657497 22.092949 148 138 134
-97.717026 -51.699104 22.089893 129 129 121
-97.506851 -51.724232 22.113174 141 134 126
-97.277863 -51.70483 22.136549 145 140 138
-97.096458 -51.707676 22.120041 154 149 143
-96.913757 -51.73727 22.161436 168 161 159
-96.686157 -51.705837 22.118681 157 155 154
-96.532875 -51.700123 22.054569 153 147 145
-96.284607 -51.656414 22.067474 163 144 143
-96.101501 -51.646271 22.049913 165 147 150
-98.96566 -51.402946 22.156525 168 154 148
-98.695107 -51.449581 22.089806 167 139 141
-98.214081 -51.404457 22.134104 144 135 118
-98.101746 -51.480774 22.097363 161 149 142
-97.900787 -51.517059 22.11298 144 137 127
-97.720047 -51.531124 22.121817 155 154 146
-97.243324 -51.579487 22.091629 92 92 87
-97.100754 -51.538727 22.124439 105 107 97
-96.858887 -51.46965 22.137684 127 133 125
-96.704025 -51.486069 22.074587 145 148 143
-96.511566 -51.497169 22.070007 131 130 121
-96.289398 -51.494328 22.076632 184 172 172
-96.126945 -51.508244 22.060642 185 169 171
-99.053719 -51.265556 22.082104 175 163 163
-98.894135 -51.288288 22.100353 154 142 143
-98.693779 -51.302338 22.0762 160 142 143
-98.52578 -51.276817 22.042818 139 123 118
-98.266609 -51.267006 22.08518 154 144 133
-98.090469 -51.305737 22.103533 162 153 142
-97.913567 -51.304905 22.105808 124 121 110
-97.75399 -51.354088 22.118868 156 157 143
-97.05632 -51.294712 22.078503 107 117 110
-96.88839 -51.332027 22.105495 115 124 119
-96.726387 -51.358124 22.086216 129 133 128
-96.45536 -51.279343 22.06538 145 142 131
-96.283981 -51.309189 22.07633 172 164 161
-96.141602 -51.285202 22.035057 148 141 140
-99.237946 -51.043056 22.03936 165 155 155
-99.094246 -51.098831 22.096849 170 160 165
-98.907036 -51.080536 22.108067 152 145 147
-98.702614 -51.081448 22.072948 122 120 117
-98.504478 -51.082211 22.093798 133 120 119
-98.28157 -51.108452 22.110785 164 153 142
-98.102005 -51.088463 22.114998 158 149 138
-97.946198 -51.098228 22.13232 139 133 127
-97.741554 -51.051567 22.056431 118 127 117
-97.074959 -51.110371 22.088196 121 128 122
-96.911346 -51.097084 22.111605 113 118 116
-96.776207 -51.13097 22.034464 114 116 120
-96.4039 -51.161869 22.029417 159 150 141
-96.269531 -51.120747 22.066689 183 165 162
-96.157402 -51.144848 22.07464 160 150 150
-99.413483 -50.914204 22.037094 208 187 189
-99.288803 -50.909222 22.061785 163 150 152
-99.103638 -50.907627 22.093895 159 152 152
-98.903961 -50.87595 22.083874 144 145 143
-98.703011 -50.90152 22.088484 134 131 127
-98.491821 -50.894695 22.116098 138 128 126
-98.331993 -50.902554 22.050058 108 104 95
-98.078575 -50.905788 22.101187 137 131 125
-97.932152 -50.893028 22.099018 132 132 127
-97.764977 -50.92569 22.106644 134 140 132
-97.244385 -50.836628 22.148451 77 94 78
-97.078773 -50.886509 22.09815 108 119 111
-96.94239 -50.875084 22.115662 111 118 114
-96.759483 -50.869583 22.119799 109 113 104
-96.468292 -50.870041 22.061388 134 130 125
-96.323135 -50.847569 22.069534 162 150 149
-96.189552 -50.908722 22.07493 149 137 139
-94.584511 -50.808605 22.079939 154 147 148
-94.334999 -50.80648 22.160227 143 131 133
-99.284332 -50.685833 22.094473 157 150 150
-99.086777 -50.699409 22.106007 173 166 170
-98.90007 -50.700634 22.100731 160 154 154
-98.715553 -50.69199 22.098885 126 123 118
-98.509148 -50.691898 22.099302 133 127 122
-98.307838 -50.690662 22.094505 101 105 91
-98.08297 -50.702671 22.10112 124 123 119
-97.920547 -50.700378 22.123697 142 143 141
-97.719193 -50.645493 22.082191 120 128 122
-97.488068 -50.627888 22.085602 90 103 92
-97.267159 -50.638245 22.157551 120 126 116
-97.101425 -50.698681 22.12245 125 131 126
-96.908493 -50.71114 22.11408 120 125 121
-96.692863 -50.702507 22.070757 116 117 111
-96.470703 -50.692135 22.088675 163 150 148
-96.339699 -50.709328 22.073732 179 161 163
-96.159981 -50.753731 22.023521 150 149 145
-95.32222 -50.621407 22.08675 193 185 181
-94.681969 -50.675873 22.120913 185 177 176
-94.472984 -50.672424 22.073471 169 160 156
-94.312614 -50.681232 22.096075 159 151 149
-94.116852 -50.658455 22.060926 168 156 157
-99.465225 -50.446316 22.098095 132 128 126
-99.291306 -50.502598 22.079241 156 149 151
-99.098679 -50.510628 22.104225 173 164 168
-98.895241 -50.498135 22.093378 137 130 126
-98.711845 -50.505688 22.106247 122 118 112
-98.505257 -50.539417 22.13023 128 124 121
-98.292 -50.51429 22.118839 104 105 98
-98.111641 -50.50584 22.109201 104 108 101
-97.889572 -50.513943 22.132513 124 125 124
-97.691086 -50.504719 22.114458 113 119 113
-97.512558 -50.51992 22.100056 94 105 94
-97.301849 -50.496151 22.117672 106 113 104
-97.098785 -50.494453 22.111839 126 126 122
-96.939842 -50.533947 22.093567 124 123 120
-96.664391 -50.468231 22.078247 135 129 121
-96.486191 -50.505501 22.083126 162 146 144
-96.354179 -50.504028 22.048155 141 123 124
-95.416893 -50.436344 22.079355 175 165 161
-95.304344 -50.488075 22.053652 178 167 163
-94.636543 -50.482868 22.057997 166 159 151
-94.497192 -50.502792 22.103294 182 173 168
-94.31868 -50.484806 22.139568 173 165 164
-94.075981 -50.491611 22.108431 169 161 162
-93.951286 -50.511265 22.084581 180 175 174
-101.40688 -50.2132 22.062073 196 196 196
-101.3317 -50.215611 22.074661 125 128 117
-99.621758 -50.257179 22.074368 177 171 175
-99.496025 -50.312935 22.089495 152 147 147
-99.303612 -50.295067 22.101852 145 144 141
-99.082878 -50.280281 22.099409 122 122 117
-98.89502 -50.296528 22.100828 130 129 125
-98.744751 -50.326237 22.128489 160 155 158
-98.46032 -50.334145 22.161188 140 137 135
-98.265778 -50.307423 22.125151 116 116 111
-98.090324 -50.289886 22.123644 99 102 94
-97.891373 -50.287014 22.086649 94 99 89
-97.712013 -50.29575 22.091335 122 126 119
-97.525612 -50.319675 22.087791 117 124 114
-97.279839 -50.305099 22.116478 120 121 110
-97.088615 -50.290276 22.117176 135 131 127
-96.93399 -50.295818 22.080406 120 119 115
-96.689262 -50.30883 22.072973 152 134 131
-96.513939 -50.32151 22.053207 171 145 146
-96.379738 -50.355591 22.093864 148 120 124
-95.863647 -50.23819 22.09708 102 104 95
-95.794518 -50.230545 22.073746 135 131 120
-95.497002 -50.229935 22.059191 163 159 152
-95.306763 -50.331211 22.026911 177 169 164
-95.151199 -50.22644 22.084986 144 145 132
-94.859818 -50.283211 22.090281 140 143 130
-94.672737 -50.326694 22.094374 161 162 154
-94.487595 -50.345795 22.090425 142 142 133
-94.300446 -50.306904 22.104858 164 158 156
-94.127678 -50.317917 22.101933 171 164 166
-93.92836 -50.276043 22.04582 139 136 136
-93.631546 -50.211418 22.061924 114 114 112
-93.509979 -50.234062 22.076744 113 107 108
-101.81287 -50.019032 22.012091 37 46 41
-101.71651 -50.044941 22.094637 171 167 166
-101.50488 -50.058571 22.094952 142 146 139
-101.29649 -50.088444 22.067572 139 143 135
-101.15489 -50.03434 22.075628 135 144 136
-100.99942 -50.060616 22.128937 148 158 147
-100.79828 -50.001072 22.044916 117 109 105
-100.54892 -50.016769 22.084778 159 153 154
-99.61306 -50.095715 22.016443 206 197 207
-99.477638 -50.089981 22.09775 161 154 155
-99.299072 -50.084389 22.110455 143 137 135
-99.12542 -50.099487 22.116968 143 139 137
-98.893929 -50.120132 22.138884 138 137 136
-98.726852 -50.071625 22.152843 147 145 149
-98.474335 -50.0868 22.178324 127 125 118
-98.288879 -50.104778 22.133343 114 115 107
-98.091644 -50.109631 22.131348 121 121 113
-97.895233 -50.113388 22.088518 114 114 108
-97.697906 -50.113914 22.119234 125 124 124
-97.524406 -50.101479 22.121393 124 130 123
-97.280663 -50.085514 22.125904 126 125 117
-97.10379 -50.105953 22.127691 151 140 137
-96.918701 -50.108158 22.082026 154 143 140
-96.696236 -50.120106 22.052015 153 131 132
-96.015114 -50.071167 22.108698 180 170 171
-95.908051 -50.095581 22.113878 156 149 151
-95.708961 -50.090313 22.088606 141 138 136
-95.502892 -50.06646 22.074686 152 149 143
-95.279823 -50.073189 22.074539 150 146 139
-95.097878 -50.070297 22.115541 140 138 130
-94.906303 -50.085793 22.12554 136 139 131
-94.707664 -50.09782 22.101242 115 123 110
-94.478622 -50.081486 22.112974 131 132 124
-94.325356 -50.129154 22.143913 168 160 158
-94.105835 -50.13483 22.137356 157 155 153
-93.895615 -50.109283 22.123796 152 149 148
-93.694077 -50.096165 22.118002 159 153 153
-93.528099 -50.109653 22.126345 147 141 145
-93.318802 -50.101013 22.173317 115 108 104
-102.04838 -49.828011 22.06955 172 170 171
-101.82309 -49.887371 22.056335 190 185 187
-101.70837 -49.889969 22.100105 167 165 163
-101.50444 -49.876534 22.078499 157 158 152
-101.27802 -49.893837 22.083776 136 143 133
-101.08131 -49.885498 22.098555 133 138 130
-100.9146 -49.924469 22.066946 136 139 132
-100.79436 -49.946564 22.020479 118 124 114
-100.56039 -49.993378 22.005114 157 155 147
-100.27266 -49.811035 22.035603 132 135 127
-99.773468 -49.81979 22.036335 172 163 153
-99.490845 -49.939922 22.084211 168 156 163
-99.285034 -49.927296 22.096453 153 145 146
-99.112938 -49.894962 22.129618 155 151 151
-98.892937 -49.930149 22.137121 138 137 137
-98.683411 -49.89909 22.155895 135 136 138
-98.528885 -49.860691 22.141754 141 139 137
-98.288994 -49.905922 22.116558 115 117 109
-98.096069 -49.89566 22.114973 107 113 103
-97.888954 -49.883381 22.081415 98 102 95
-97.677048 -49.901081 22.117302 117 118 114
-97.50032 -49.888016 22.136972 135 133 128
-97.302711 -49.884605 22.11241 144 141 137
-97.116959 -49.91798 22.094896 149 134 137
-96.899384 -49.923515 22.080173 145 131 131
-96.77417 -49.831062 22.041908 108 97 101
-96.202957 -49.81345 22.093931 169 160 153
-96.071945 -49.872734 22.096756 148 143 140
-95.926727 -49.940262 22.138077 159 149 152
-95.683372 -49.905678 22.111341 144 141 139
-95.509132 -49.915768 22.107407 151 147 145
-95.323517 -49.919525 22.11977 149 147 140
-95.126617 -49.975224 22.121038 129 125 120
-94.811592 -49.973679 22.145432 118 114 113
-94.671295 -49.946377 22.135782 121 120 112
-94.537766 -49.951515 22.106274 124 124 112
-94.347809 -49.932198 22.188286 178 159 157
-94.06546 -49.84227 22.144949 155 150 151
-93.88723 -49.885174 22.154413 151 147 143
-93.732407 -49.94614 22.141117 163 157 153
-93.483162 -49.914867 22.14118 170 163 165
-101.92789 -49.759689 22.141373 93 98 94
-101.67931 -49.700817 22.067274 160 155 152
-101.51252 -49.707779 22.078245 172 164 160
-101.29161 -49.683636 22.099102 151 150 147
-101.08755 -49.703236 22.089069 142 145 139
-100.95549 -49.708809 22.020014 114 124 112
-100.43473 -49.623402 22.147409 185 177 179
-100.29664 -49.684605 22.092623 154 155 150
-100.15358 -49.684765 22.065983 124 131 123
-99.890152 -49.61409 22.104763 139 140 136
-99.729568 -49.698219 22.05278 140 134 127
-99.471863 -49.770645 22.075338 153 155 158
-99.272156 -49.695518 22.092705 151 150 152
-99.109558 -49.695866 22.104311 148 146 149
-98.897964 -49.673359 22.127584 144 140 142
-98.694756 -49.691677 22.127514 136 136 136
-98.525864 -49.676117 22.132515 152 150 150
-98.273888 -49.675884 22.134031 136 137 134
-98.119461 -49.708633 22.109282 116 121 115
-97.879295 -49.695324 22.100033 118 119 116
-97.673935 -49.722923 22.120125 152 145 149
-97.500732 -49.700161 22.113499 155 147 150
-97.300232 -49.729656 22.082123 142 135 137
-97.117699 -49.755707 22.072357 119 109 113
-96.250374 -49.66354 22.061071 129 129 129
-96.088028 -49.702492 22.115805 153 147 149
-95.962852 -49.724308 22.149664 155 148 149
-95.663666 -49.742172 22.129114 117 117 112
-95.519402 -49.742504 22.128828 115 117 109
-95.397003 -49.776936 22.082918 90 94 79
-94.428162 -49.781078 22.188898 128 117 116
-94.294487 -49.74332 22.151344 143 128 124
-94.081718 -49.723583 22.126822 135 135 130
-93.924843 -49.787258 22.175493 146 146 138
-93.491241 -49.709156 22.131453 138 138 133
-93.324051 -49.639206 22.129128 131 127 125
-102.06907 -49.580273 22.013901 128 137 132
-101.80685 -49.564865 22.049934 156 155 150
-101.65892 -49.496044 22.073328 161 157 157
-101.4982 -49.515438 22.080017 161 157 156
-101.30919 -49.516479 22.061373 154 155 153
-101.10965 -49.547218 22.04224 133 140 132
-100.96254 -49.593285 22.046751 109 116 109
-100.45311 -49.509045 22.036457 155 152 150
-100.29959 -49.499958 22.084173 151 154 149
-100.0971 -49.476948 22.075039 141 145 138
-99.918701 -49.507885 22.093441 138 141 132
-99.714813 -49.509418 22.079597 139 136 130
-99.55764 -49.481815 22.063133 131 130 120
-99.285797 -49.527714 22.088737 155 149 158
-99.104401 -49.505703 22.104187 147 147 153
-98.905861 -49.536148 22.104589 146 146 149
-98.694633 -49.511669 22.111019 145 142 145
-98.471519 -49.519695 22.117807 144 145 146
-98.312828 -49.525295 22.096361 132 136 134
-98.080917 -49.488243 22.067429 135 133 128
-97.925606 -49.494534 22.073959 126 124 120
-97.709183 -49.527699 22.122484 148 144 150
-97.538826 -49.534916 22.103964 154 147 152
-97.300789 -49.576977 22.061663 160 144 154
-96.267296 -49.515953 22.127686 151 144 144
-96.116127 -49.561596 22.119041 138 134 132
-95.705154 -49.567242 22.163002 109 113 108
-95.513084 -49.50185 22.159126 102 106 100
-94.243217 -49.507915 22.18829 143 133 130
-94.075455 -49.515816 22.145292 127 128 120
-93.907471 -49.456249 22.153692 145 145 139
-93.757286 -49.458008 22.148026 142 137 132
-93.519821 -49.476227 22.12932 188 175 170
-93.369888 -49.532074 22.105392 135 124 122
-102.16518 -49.239941 22.158176 133 141 130
-101.80267 -49.399464 22.177662 72 81 76
-101.77438 -49.352856 22.053438 136 136 133
-101.50027 -49.305267 22.080133 157 156 154
-101.31818 -49.236626 22.098194 161 170 159
-101.14485 -49.309235 22.117012 93 106 89
-100.89798 -49.261936 22.114931 140 148 136
-100.70065 -49.261108 22.103765 121 131 118
-100.49494 -49.287102 22.048744 121 127 117
-100.26797 -49.345577 22.038261 134 139 130
-100.08985 -49.308651 22.093254 155 155 151
-99.90773 -49.300938 22.084705 150 151 145
-99.707008 -49.291889 22.083532 149 143 140
-99.550926 -49.282116 22.069572 141 138 134
-99.226631 -49.384903 22.091709 132 127 138
-99.099701 -49.340099 22.049501 124 121 129
-98.859619 -49.293308 22.060652 126 127 128
-98.706581 -49.270718 22.073519 129 132 131
-98.490005 -49.287212 22.062923 125 129 127
-98.311462 -49.300724 22.055559 131 132 129
-98.115913 -49.297615 22.083319 140 137 137
-97.887093 -49.309956 22.063843 131 128 128
-97.694252 -49.310181 22.058424 138 127 127
-97.558723 -49.250557 22.040375 142 133 132
-96.447311 -49.260685 22.083683 130 130 127
-96.326057 -49.290829 22.109982 159 156 157
-96.129021 -49.264545 22.069416 102 111 103
-95.908539 -49.350994 22.177607 83 85 80
-95.629929 -49.318497 22.164652 112 122 113
-94.723068 -49.277073 22.125326 83 81 76
-94.238129 -49.354847 22.179569 117 113 111
-94.191803 -49.240509 22.158495 108 108 101
-93.824463 -49.36438 22.1614 140 140 130
-93.75367 -49.335148 22.14576 157 153 144
-93.47583 -49.299255 22.109024 147 145 143
-93.346252 -49.304359 22.084534 108 106 101
-102.24082 -49.118675 22.074677 142 143 142
-101.90717 -49.096268 22.072857 144 145 150
-101.7897 -49.182423 22.081112 181 193 193
-101.46438 -49.073421 22.077477 146 153 146
-101.29839 -49.077023 22.082363 134 141 130
-101.10792 -49.103794 22.101894 137 143 131
-100.88926 -49.111897 22.098114 127 137 126
-100.70255 -49.095066 22.074989 109 122 108
-100.49432 -49.09388 22.049385 132 138 128
-100.31388 -49.054974 22.063816 128 131 121
-100.09473 -49.087963 22.089989 134 134 128
-99.895233 -49.103104 22.101614 130 131 127
-99.709709 -49.08865 22.09643 125 129 124
-99.578972 -49.110451 22.030832 123 123 116
-99.016205 -49.106136 22.034338 155 145 151
-98.865982 -49.111904 22.090849 146 142 147
-98.706497 -49.103519 22.075848 155 152 153
-98.494614 -49.08812 22.068653 148 146 146
-98.311157 -49.09959 22.088923 143 142 144
-98.119133 -49.115082 22.091156 138 131 135
-97.892731 -49.08902 22.064444 141 125 129
-97.685112 -49.103664 22.066694 163 144 149
-97.561378 -49.136234 22.021561 154 137 141
-96.641464 -49.07151 22.070644 113 123 111
-96.498741 -49.119495 22.069466 141 139 139
-96.298767 -49.10347 22.098524 135 137 136
-96.150063 -49.110271 22.13341 116 121 118
-94.210266 -49.155849 22.097641 56 63 55
-94.155777 -49.179512 22.116856 103 106 94
-93.818008 -49.085274 22.157631 108 112 103
-93.760086 -49.114422 22.146191 129 134 123
-93.470276 -49.112949 22.110409 136 136 134
-93.339615 -49.035992 22.119551 78 84 73
-102.51377 -48.870239 22.003838 163 155 159
-101.92786 -48.996918 22.00713 192 190 201
-101.68797 -48.895252 22.110947 156 160 158
-101.49367 -48.923084 22.061399 133 140 132
-101.30035 -48.894321 22.101652 166 166 158
-101.11084 -48.931282 22.106112 151 151 143
-100.87909 -48.895355 22.092518 109 124 109
-100.72676 -48.896492 22.089092 100 115 100
-100.51169 -48.891491 22.080034 113 121 111
-100.29419 -48.900894 22.051331 121 125 116
-100.09026 -48.916264 22.068642 124 129 124
-99.909775 -48.91927 22.087538 126 131 125
-99.706764 -48.92218 22.045322 125 130 127
-99.411461 -48.84314 22.057945 104 109 103
-99.030998 -48.896103 22.074402 221 196 204
-98.842583 -48.927254 22.078056 144 137 137
-98.698563 -48.920826 22.080835 158 149 149
-98.494247 -48.945244 22.081661 157 151 151
-98.336441 -48.955391 22.089378 134 132 135
-98.127945 -48.921192 22.072414 127 120 127
-97.887352 -48.957279 22.046305 139 128 134
-97.657822 -48.961262 22.059254 111 103 111
-97.5681 -48.990967 22.042664 140 121 126
-96.454742 -48.897358 22.089596 147 147 145
-96.342781 -48.939148 22.100239 128 128 126
-96.136635 -48.911148 22.084915 96 99 94
-95.888611 -48.843803 22.081753 107 108 105
-95.703529 -48.859684 22.059906 104 102 100
-94.681404 -48.816795 22.191967 112 115 106
-94.564812 -48.843983 22.125549 131 129 130
-94.042747 -48.884399 22.111504 118 117 113
-93.904816 -48.913342 22.150068 117 119 114
-93.403336 -48.919174 22.196081 170 168 171
-93.33242 -48.887547 22.101471 140 137 134
-93.178879 -48.902905 22.187637 31 50 22
-101.81295 -48.661118 22.067444 145 152 154
-101.69544 -48.712494 22.103659 129 134 132
-101.48916 -48.720787 22.12233 129 135 127
-101.34966 -48.702225 22.114735 165 166 158
-101.05492 -48.635448 22.081417 93 113 95
-100.85205 -48.685833 22.068277 117 130 119
-100.69577 -48.706856 22.093544 95 112 97
-100.52528 -48.654835 22.119675 102 120 103
-100.29419 -48.666759 22.102106 113 120 111
-100.1092 -48.662312 22.098057 131 137 128
-99.948288 -48.650356 22.097422 123 130 119
-99.613686 -48.607327 22.065744 107 112 108
-99.502869 -48.619991 22.125481 123 126 119
-99.03495 -48.660568 22.103157 135 126 125
-98.89106 -48.681103 22.032433 123 116 116
-98.713013 -48.727863 22.103804 116 116 115
-98.49894 -48.683804 22.055006 89 90 86
-96.670792 -48.717518 22.158161 136 131 133
-96.449127 -48.74334 22.097225 153 154 152
-96.321205 -48.676575 22.087507 124 132 127
-96.11647 -48.661346 22.112045 91 103 95
-95.903778 -48.709553 22.084871 88 91 86
-95.686531 -48.670506 22.122232 96 104 98
-95.569473 -48.696404 22.167778 165 160 157
-94.273209 -48.677376 22.124405 100 101 91
-94.065727 -48.742435 22.114319 96 97 90
-93.962234 -48.745064 22.10392 113 115 107
-93.421227 -48.747066 22.137388 135 134 130
-93.294243 -48.758823 22.119499 163 161 158
-93.157112 -48.772537 22.083874 144 142 143
-102.10235 -48.456463 22.139277 157 158 160
-101.90091 -48.489193 22.084518 132 138 135
-101.70734 -48.4645 22.075804 128 133 132
-101.47895 -48.48254 22.084509 170 168 162
-101.26298 -48.46843 22.065231 150 157 148
-101.0838 -48.4725 22.09094 123 138 124
-100.87626 -48.510273 22.088614 97 113 99
-100.71324 -48.510448 22.084377 97 114 98
-100.47208 -48.493732 22.091953 108 119 107
-100.30882 -48.504864 22.090233 127 133 123
-100.0825 -48.530857 22.097137 120 128 118
-99.919792 -48.488205 22.115866 116 127 116
-99.723907 -48.480343 22.081289 104 114 106
-99.47374 -48.509418 22.076416 118 122 118
-99.334076 -48.506565 22.091133 116 122 117
-99.080048 -48.475201 22.04726 149 141 141
-98.912285 -48.52 22.095545 144 134 135
-98.771057 -48.46669 22.095247 141 134 139
-96.714516 -48.517456 22.112814 155 139 149
-96.438583 -48.514118 22.095755 175 166 176
-96.280373 -48.481995 22.08655 137 139 137
-96.114037 -48.469845 22.085808 118 123 120
-95.880806 -48.463554 22.103277 120 123 123
-95.71817 -48.477852 22.089312 110 116 112
-95.511826 -48.440163 22.142395 106 115 109
-94.30188 -48.524864 22.159405 89 96 86
-93.238861 -48.415428 22.176392 135 138 133
-102.32175 -48.28791 22.111053 160 158 164
-102.10191 -48.295326 22.097189 149 151 152
-101.87744 -48.264347 22.103193 138 140 140
-101.67977 -48.309963 22.095158 150 150 150
-101.47557 -48.300274 22.087772 178 175 168
-101.3016 -48.293468 22.097574 154 160 148
-101.10428 -48.305058 22.088074 122 138 122
-100.90781 -48.357582 22.070951 118 135 119
-100.68237 -48.312988 22.103281 105 118 106
-100.49788 -48.32283 22.102825 116 125 114
-100.31274 -48.306778 22.098145 144 147 137
-100.11398 -48.31213 22.0734 137 143 131
-99.889221 -48.310505 22.094891 114 127 115
-99.732658 -48.302471 22.09153 121 130 121
-99.509293 -48.298592 22.094524 116 124 121
-99.28228 -48.312954 22.072615 116 125 119
-99.150009 -48.266552 22.146177 122 129 127
-98.904854 -48.328861 22.078239 147 145 151
-98.760414 -48.361874 22.067223 149 139 147
-98.495544 -48.26955 22.118509 45 58 41
-96.432159 -48.301331 22.105722 165 158 160
-96.289223 -48.285843 22.073313 151 148 149
-96.097076 -48.292725 22.076256 145 143 145
-95.903404 -48.322952 22.085747 129 129 129
-95.692528 -48.307331 22.072351 135 134 133
-95.541557 -48.268562 22.10741 122 126 119
-95.295303 -48.235233 22.08386 107 118 104
-94.452484 -48.25605 22.173754 89 100 94
-94.327454 -48.28072 22.145828 79 99 85
-94.073013 -48.305119 22.147579 62 81 62
-102.26792 -48.081436 22.101994 133 138 137
-102.09296 -48.14275 22.094194 141 145 144
-101.91706 -48.115311 22.066835 144 145 148
-101.71418 -48.138149 22.06241 150 152 151
-101.48792 -48.109009 22.12542 164 166 160
-101.2879 -48.081089 22.108398 141 149 139
-101.12053 -48.057186 22.106028 110 125 107
-100.86191 -48.063351 22.112213 98 113 99
-100.67889 -48.091164 22.100246 104 114 104
-100.50519 -48.12558 22.111603 140 145 137
-100.32942 -48.108509 22.115021 147 148 141
-100.07149 -48.053539 22.074257 115 126 113
-99.901604 -48.097992 22.089405 109 124 114
-99.740417 -48.133125 22.090349 117 128 120
-99.487457 -48.097649 22.093435 115 122 116
-99.303764 -48.117661 22.089287 123 132 126
-99.098259 -48.082966 22.087667 123 131 128
-98.943848 -48.081322 22.027668 107 122 114
-96.445 -48.118576 22.056118 172 154 148
-96.299736 -48.097561 22.080864 137 133 128
-96.097664 -48.112831 22.062716 111 113 105
-95.939888 -48.059589 22.086836 104 106 95
-95.625854 -48.123756 22.051693 120 125 115
-95.531578 -48.087463 22.093369 139 141 133
-95.378311 -48.068203 22.115715 123 133 120
-95.180214 -48.088612 22.165764 90 101 89
-94.665886 -48.042648 22.111238 108 112 111
-94.505302 -48.058434 22.11953 108 117 115
-94.304115 -48.086094 22.110476 100 113 105
-94.118515 -48.07988 22.027195 98 112 99
-93.898064 -48.009335 22.002117 91 107 95
-102.43681 -47.874733 22.044842 141 142 140
-102.30544 -47.900475 22.081848 137 140 139
-102.15038 -47.952312 22.031082 107 113 108
-101.90839 -47.883266 22.106661 138 136 135
-101.62466 -47.827873 22.137096 150 148 139
-101.49341 -47.891464 22.086264 156 157 148
-101.30603 -47.939018 22.08535 143 150 134
-101.07833 -47.927593 22.083036 106 123 107
-100.90595 -47.876503 22.088989 95 110 94
-100.7053 -47.881443 22.094999 102 115 102
-100.48857 -47.904781 22.121794 138 142 132
-100.32811 -47.868382 22.077953 134 134 128
-100.06684 -47.905174 22.092386 107 123 110
-99.92971 -47.919659 22.09128 109 125 113
-99.679672 -47.843437 22.099236 129 138 134
-99.491295 -47.873417 22.08185 133 141 138
-99.302109 -47.87722 22.073923 136 146 142
-99.106781 -47.88422 22.084639 123 134 129
-98.953766 -47.871372 22.052521 107 117 110
-96.635742 -47.807846 22.123865 162 148 148
-96.479805 -47.879368 22.094418 166 159 155
-96.318428 -47.953152 22.093111 146 140 131
-96.096809 -47.934525 22.095301 128 124 110
-95.889587 -47.911049 22.087492 111 110 95
-95.729034 -47.884579 22.096748 91 96 84
-95.496346 -47.956215 22.087358 121 124 116
-95.33403 -47.908009 22.092686 139 142 132
-95.073006 -47.844315 22.098728 127 129 118
-94.856888 -47.826118 22.115843 136 132 123
-94.713722 -47.910606 22.094786 117 117 115
-94.502808 -47.931454 22.083216 121 124 125
-94.338753 -47.923603 22.037146 101 106 104
-94.083435 -47.970581 22.054693 133 140 134
-93.904449 -47.891655 22.048695 113 122 115
-102.67769 -47.679794 22.103174 181 177 182
-102.49003 -47.731728 22.043465 139 137 138
-102.29657 -47.684368 22.06366 144 144 140
-102.14349 -47.7075 22.066946 142 146 141
-101.90259 -47.630707 22.157631 123 124 123
-101.69419 -47.6614 22.088009 149 151 146
-101.52114 -47.724476 22.079983 150 148 141
-101.21046 -47.672966 22.042961 113 125 123
-101.07426 -47.698517 22.100237 107 125 111
-100.91653 -47.72834 22.115681 111 125 112
-100.71767 -47.74646 22.077215 118 128 117
-100.54626 -47.70623 22.116413 119 124 120
-100.30035 -47.718212 22.119177 106 119 105
-100.11745 -47.709831 22.109732 117 128 118
-99.878296 -47.666149 22.10462 177 174 171
-99.667542 -47.671734 22.095808 121 129 123
-99.490303 -47.696789 22.079405 148 152 150
-99.315331 -47.703556 22.097019 152 153 151
-99.119568 -47.701569 22.101423 129 138 131
-98.876923 -47.687439 22.09366 139 142 139
-98.764839 -47.661087 22.136902 105 111 103
-96.639694 -47.692665 22.109018 182 175 178
-96.551079 -47.708542 22.065731 176 169 168
-96.338486 -47.696926 22.16637 138 129 123
-96.14286 -47.739201 22.122908 157 147 141
-95.891129 -47.706635 22.11791 133 126 119
-95.692184 -47.725773 22.10008 100 103 94
-95.529343 -47.675686 22.102793 103 105 101
-95.28006 -47.685139 22.095564 125 126 117
-95.111275 -47.692417 22.101431 128 126 114
-94.868042 -47.704086 22.119511 119 119 111
-94.713539 -47.679653 22.074743 114 114 106
-94.499481 -47.646027 22.046677 124 122 118
-94.074982 -47.668495 22.010124 87 108 93
-102.55255 -47.52272 22.115051 121 120 125
-102.28046 -47.527821 22.104078 155 151 157
-102.0804 -47.504978 22.08234 164 160 165
-101.9231 -47.471901 22.088264 166 163 163
-101.69112 -47.506977 22.107718 169 162 164
-101.51675 -47.443733 22.084551 159 155 156
-101.23948 -47.487671 22.032593 112 128 115
-101.07653 -47.530556 22.11095 111 128 116
-100.92529 -47.52248 22.145832 125 133 124
-100.73921 -47.440392 22.098223 128 129 123
-100.46989 -47.476036 22.104048 126 136 125
-100.28309 -47.471363 22.091518 113 127 116
-100.12486 -47.493271 22.116905 114 130 119
-99.82547 -47.511486 22.03668 104 111 101
-99.6605 -47.492844 22.033958 133 138 137
-99.481812 -47.502014 22.08231 160 158 155
-99.310036 -47.501461 22.082172 151 151 148
-99.100594 -47.501621 22.079908 137 145 141
-98.894753 -47.493008 22.065577 153 154 153
-98.726028 -47.50111 22.108433 122 127 123
-96.663361 -47.496479 22.097788 183 177 179
-96.485588 -47.476627 22.083193 141 140 133
-96.367485 -47.535255 22.133415 124 129 117
-95.914024 -47.519455 22.081015 86 93 85
-95.493073 -47.532394 22.103907 92 97 89
-95.31292 -47.528824 22.134571 125 121 113
-95.152832 -47.567799 22.189934 155 144 133
-94.850655 -47.528957 22.140566 126 124 117
-94.694229 -47.511745 22.127148 144 137 132
-94.51046 -47.501659 22.107307 148 138 135
-94.391678 -47.430878 22.005381 135 126 122
-102.34439 -47.294968 22.041555 147 144 152
-102.11651 -47.33054 22.088308 159 156 158
-101.9063 -47.286514 22.099497 172 165 165
-101.70236 -47.309414 22.115343 156 152 153
-101.50484 -47.301407 22.114834 150 151 150
-101.35823 -47.271065 22.116375 155 153 154
-101.14632 -47.331982 22.12793 130 129 125
-100.88912 -47.318714 22.115875 140 153 144
-100.69378 -47.372967 22.17942 127 128 123
-100.51654 -47.334717 22.116831 150 156 146
-100.29224 -47.295738 22.11166 134 144 137
-100.11353 -47.308617 22.128046 131 142 134
-99.915222 -47.345257 22.004812 107 121 108
-99.645958 -47.326786 22.042553 128 139 131
-99.482727 -47.313351 22.048624 141 145 141
-99.306992 -47.331856 22.059357 145 151 147
-99.107086 -47.315659 22.083916 144 148 146
-98.900032 -47.302959 22.060026 156 156 157
-98.739319 -47.324581 22.058176 116 120 119
-96.668678 -47.2827 22.078936 162 161 155
-96.543289 -47.326874 22.106419 151 149 142
-96.346252 -47.314304 22.191628 140 138 127
-95.86068 -47.247116 22.159479 92 97 90
-95.742157 -47.255264 22.137491 125 130 123
-95.386795 -47.39146 22.17038 83 81 75
-94.811684 -47.292965 22.0284 102 114 114
-94.662895 -47.319416 22.058279 139 138 132
-94.494164 -47.298382 22.107981 157 147 142
-94.326836 -47.304512 22.033787 148 138 136
-94.188972 -47.252636 22.03447 130 121 125
-102.085 -47.105064 22.07272 165 159 163
-101.8689 -47.132774 22.102621 208 197 204
-101.72515 -47.100918 22.062971 175 169 172
-101.53703 -47.119926 22.1339 175 170 175
-101.36092 -47.041206 22.171043 158 158 152
-101.03944 -47.140575 22.110018 145 152 145
-100.97038 -47.082016 22.125406 146 157 151
-100.64821 -47.107693 22.006029 157 164 148
-100.47835 -47.146378 22.094946 141 150 138
-100.34189 -47.131645 22.071054 134 144 138
-100.1386 -47.152851 22.071686 132 142 137
-99.537514 -47.165588 22.071247 151 149 155
-99.266876 -47.130909 22.051455 145 146 146
-99.122986 -47.139469 22.066187 157 159 157
-98.934372 -47.130337 22.060877 133 138 137
-98.748238 -47.136013 22.099133 173 173 183
-96.862343 -47.073555 22.087736 186 177 171
-96.712151 -47.091209 22.108011 162 157 152
-96.55677 -47.132061 22.132019 142 143 131
-95.854523 -47.121391 22.15321 113 117 111
-95.704018 -47.079353 22.120203 112 119 110
-95.599678 -47.111851 22.188749 128 139 125
-94.66153 -47.196465 22.055571 99 103 103
-94.552727 -47.113945 22.108839 119 118 117
-102.10768 -46.989918 22.02738 216 210 212
-101.96043 -46.970219 22.04924 157 156 152
-101.77914 -46.83424 22.184395 133 127 141
-100.92709 -46.936157 22.16081 141 150 145
-96.819572 -46.979149 22.143917 186 177 171
-96.720627 -46.896717 22.137356 178 170 166
-96.509949 -46.887028 22.19499 160 154 148
-95.875359 -46.920643 22.188646 119 122 114
-95.681168 -46.922207 22.133257 108 115 105
-95.578308 -46.894623 22.11528 121 124 120
-94.511169 -46.902637 22.110619 98 105 106
-101.84038 -46.659668 22.091454 118 114 122
-101.72366 -46.657352 22.016693 117 115 121
-101.19161 -46.791176 22.052879 112 125 108
-100.91833 -46.766582 22.170607 157 158 152
-96.700729 -46.716221 22.132896 174 167 164
-96.529083 -46.655346 22.124535 171 164 160
-96.318512 -46.679367 22.181646 149 149 144
-96.166031 -46.633076 22.196163 156 153 148
-95.910049 -46.762489 22.194357 129 133 125
-95.695366 -46.759007 22.146666 123 127 121
-95.244522 -46.670193 22.177219 124 123 120
-95.174408 -46.676022 22.170006 132 128 124
-101.81564 -46.482758 22.014502 117 116 117
-101.27686 -46.438896 22.165451 167 159 168
-101.04762 -46.494049 22.084267 150 153 148
-96.478218 -46.561844 22.14328 192 183 181
-96.301994 -46.483547 22.128677 182 168 165
-96.103409 -46.441525 22.179758 173 162 158
-95.564636 -46.42342 22.19137 154 153 152
-95.205788 -46.573036 22.176517 121 119 117
-95.054466 -46.472664 22.156492 138 136 137
-101.30624 -46.351257 22.089178 178 186 188
-96.285561 -46.316643 22.097555 157 149 148
-96.097481 -46.287537 22.10458 164 154 151
-95.991524 -46.227287 22.076172 214 200 187
-95.45813 -46.364841 22.17341 171 165 163
-95.376999 -46.367535 22.161709 173 160 152
-94.940216 -46.386616 22.12385 201 191 200
-96.263756 -46.158112 22.06222 167 156 153
-96.129097 -46.107246 22.104288 170 157 158
-95.902336 -46.058929 22.110058 184 173 163
-95.78273 -46.082798 22.104425 206 194 180
-96.212143 -45.979599 22.088715 164 149 145
-96.095695 -45.907398 22.064411 197 181 181
-95.895782 -45.918972 22.086773 181 167 167
-95.762154 -45.864994 22.040066 165 153 153
-96.053993 -45.77383 22.071486 187 173 172
-95.95285 -45.771992 22.071548 154 141 133
-98.332649 -58.415039 22.316071 103 112 111
-98.028 -58.476868 22.261021 62 84 65
-97.955986 -58.433144 22.246176 62 84 63
-98.479675 -58.330673 22.359371 104 109 113
-98.322639 -58.261002 22.285826 103 114 110
-98.050278 -58.259418 22.352394 75 93 77
-97.912613 -58.238808 22.243824 67 87 71
-98.826447 -58.007034 22.232841 80 96 88
-98.763542 -58.052441 22.219721 85 98 89
-98.456207 -58.067825 22.294361 68 86 71
-98.325256 -58.043316 22.311127 104 110 108
-98.067741 -58.074505 22.333914 73 91 74
-97.917992 -58.110748 22.316183 80 99 85
-97.731621 -58.177502 22.238832 113 123 113
-98.895767 -57.856476 22.28265 75 92 83
-98.723732 -57.871574 22.291317 85 99 89
-98.597908 -57.925892 22.24172 101 116 110
-98.321739 -57.886921 22.287085 105 118 113
-98.131615 -57.906487 22.295673 73 93 75
-97.992828 -57.936863 22.309069 42 67 46
-97.695435 -57.897522 22.320259 108 122 109
-99.02578 -57.687626 22.230762 92 113 104
-98.909706 -57.711609 22.258383 101 114 112
-98.709526 -57.694073 22.269558 119 124 124
-98.589233 -57.775841 22.220602 115 126 120
-97.655029 -57.709621 22.311291 51 69 50
-98.899513 -57.583664 22.255896 125 133 136
-98.746315 -57.556957 22.209251 90 105 90
-97.815132 -57.504776 22.253521 29 58 30
-97.689857 -57.471191 22.276499 74 91 84
-97.665535 -57.334969 22.30554 125 135 138
-97.471161 -57.213207 22.217236 98 110 106
-97.047989 -57.264297 22.361244 64 88 73
-96.731743 -57.07711 22.369278 53 75 49
-98.805222 -56.874046 22.207472 65 78 69
-98.71505 -56.881931 22.213469 81 91 93
-97.671509 -56.856503 22.290667 79 95 82
-97.099487 -56.875893 22.241907 48 73 58
-98.732933 -56.633442 22.225267 138 143 143
-98.458488 -56.685581 22.2904 131 133 129
-98.295029 -56.657066 22.250479 99 106 94
-98.070961 -56.639145 22.225559 76 90 74
-97.925537 -56.682735 22.236744 69 83 70
-97.722321 -56.676071 22.36145 71 89 78
-97.289215 -56.769325 22.34551 72 89 79
-97.194466 -56.794006 22.281303 67 90 74
-98.804123 -56.418724 22.234661 147 155 162
-98.73214 -56.491905 22.282951 124 131 133
-98.516487 -56.550453 22.371336 105 115 114
-98.271004 -56.47831 22.332458 102 112 106
-98.093071 -56.484863 22.280165 99 108 101
-97.93589 -56.51012 22.283901 92 100 91
-97.740593 -56.521564 22.28833 110 116 122
-98.821854 -56.344902 22.270115 147 151 158
-98.735359 -56.284184 22.295301 134 139 150
-98.419701 -56.39529 22.346933 122 126 131
-98.282158 -56.355843 22.369614 129 134 138
-98.082504 -56.300808 22.335691 121 128 128
-97.891037 -56.303188 22.280951 100 109 104
-97.678055 -56.265717 22.321304 98 111 110
-97.465324 -56.273796 22.281858 67 83 78
-97.329071 -56.258183 22.316809 73 87 83
-97.099457 -56.299362 22.273348 71 92 83
-96.900238 -56.254402 22.25926 55 76 60
-96.696571 -56.232334 22.323206 65 84 73
-98.712097 -56.141258 22.307686 128 134 141
-98.512566 -56.115223 22.295807 115 124 127
-98.06823 -56.115211 22.335503 112 119 116
-97.930145 -56.071911 22.24884 69 86 74
-97.633606 -56.183323 22.309664 122 142 143
-97.459671 -56.143742 22.329515 76 90 85
-97.322144 -56.093632 22.332506 81 95 89
-97.089325 -56.142719 22.316166 87 99 98
-96.87619 -56.140049 22.28669 66 85 74
-96.752083 -56.1007 22.311064 58 77 64
-96.591095 -56.130699 22.387642 75 97 80
-98.86985 -55.877781 22.249773 122 126 127
-98.739243 -55.867069 22.234154 92 101 96
-98.442398 -55.90155 22.295864 126 134 139
-98.307365 -55.867271 22.248936 104 114 115
-98.094208 -55.837437 22.262688 99 108 107
-97.94416 -55.916862 22.283775 78 93 85
-97.687881 -55.892609 22.286434 60 80 64
-97.469063 -55.887756 22.303083 55 72 59
-97.319756 -55.896996 22.265686 58 75 63
-97.061279 -55.850067 22.257105 48 68 51
-96.925545 -55.885311 22.236313 42 68 49
-96.676376 -55.884666 22.283735 76 90 79
-96.583771 -55.892876 22.326889 65 84 66
-96.034241 -55.845142 22.271858 56 80 67
-95.984528 -55.82127 22.246122 56 79 67
-99.035027 -55.664246 22.301147 103 112 111
-98.891418 -55.676933 22.309109 154 153 158
-98.764763 -55.73275 22.265087 130 130 133
-98.209076 -55.769371 22.254919 94 104 103
-98.11261 -55.751831 22.295248 114 122 122
-97.668114 -55.713203 22.280828 102 113 108
-97.529915 -55.732109 22.314138 73 87 79
-97.312363 -55.758747 22.344988 78 93 84
-97.090057 -55.72551 22.346598 59 75 61
-96.940887 -55.685238 22.295757 60 74 62
-96.695869 -55.702633 22.283289 77 91 80
-96.263023 -55.616722 22.267122 58 84 75
-96.08223 -55.72773 22.309875 67 87 77
-95.88884 -55.726139 22.298452 71 89 82
-95.723709 -55.635815 22.296463 96 112 110
-95.480026 -55.666897 22.295237 105 119 121
-95.281403 -55.675957 22.340715 100 113 112
-95.110382 -55.706051 22.30311 128 136 140
-94.9823 -55.642372 22.266987 99 107 106
-99.033516 -55.582157 22.293514 114 116 127
-98.890717 -55.531677 22.2714 144 144 148
-98.707458 -55.497349 22.227793 117 124 123
-98.163971 -55.560574 22.355495 95 106 108
-97.813774 -55.470863 22.23243 44 62 50
-97.701988 -55.486084 22.270231 109 118 115
-97.527969 -55.439613 22.241684 121 135 137
-97.374344 -55.436684 22.316807 84 105 99
-97.037315 -55.496746 22.318901 82 95 86
-96.931313 -55.508488 22.269085 73 84 75
-96.677612 -55.506382 22.296637 88 100 96
-96.537125 -55.470581 22.368221 99 110 110
-96.264313 -55.494385 22.245119 65 83 79
-96.109871 -55.466667 22.372223 114 122 125
-95.806915 -55.574783 22.394869 76 84 73
-95.523705 -55.582874 22.273752 100 111 108
-95.185509 -55.585369 22.342768 92 101 98
-98.740639 -55.357471 22.242273 142 146 149
-97.848793 -55.26228 22.270626 84 96 94
-97.719261 -55.307064 22.292194 128 133 135
-97.492081 -55.250984 22.290997 90 106 104
-97.396072 -55.2253 22.326206 94 106 102
-97.059723 -55.324154 22.320436 98 103 99
-96.905548 -55.28561 22.291613 64 75 63
-96.676292 -55.296307 22.2973 87 101 96
-96.507118 -55.28212 22.30146 98 109 108
-96.317345 -55.262241 22.278494 117 124 128
-96.135612 -55.312927 22.309662 87 96 98
-97.822464 -55.198494 22.292486 173 173 175
-97.69529 -55.10944 22.312193 144 149 152
-97.5159 -55.110252 22.297325 111 120 119
-97.339653 -55.096104 22.299692 111 119 115
-97.117645 -55.06813 22.32473 101 105 101
-96.847191 -55.102081 22.328743 87 95 88
-96.715904 -55.1157 22.325062 82 92 87
-96.49012 -55.177002 22.28406 98 110 110
-96.327484 -55.176579 22.286589 104 110 120
-97.463737 -54.866676 22.289345 113 123 118
-97.300468 -54.901596 22.318613 106 115 107
-97.14138 -54.91608 22.280958 108 117 110
-96.856857 -54.902252 22.330761 126 123 119
-96.719017 -54.913177 22.294846 121 120 118
-97.466866 -54.72464 22.297844 143 145 146
-97.291328 -54.696346 22.294785 130 134 134
-97.084991 -54.693996 22.276773 136 136 135
-96.908546 -54.738232 22.311974 131 128 128
-96.798431 -54.776165 22.243784 152 146 153
-97.379356 -54.58749 22.325939 171 176 172
-97.040245 -54.569416 22.239557 139 140 139
-96.974586 -54.59716 22.230734 158 153 158
-96.24688 -52.567711 22.200274 77 71 71
-97.503654 -52.052711 22.225286 193 191 194
-97.712608 -51.931347 22.32926 170 164 162
-97.423981 -51.88472 22.338715 138 142 140
-97.316673 -51.851391 22.272459 178 169 166
-97.084816 -51.857464 22.270277 168 159 154
-96.908958 -51.876469 22.237383 160 152 143
-96.717941 -51.893005 22.263395 158 155 153
-97.828384 -51.639038 22.288305 112 108 111
-97.69545 -51.69173 22.303856 155 145 140
-97.457169 -51.71183 22.320099 160 148 145
-97.300613 -51.700958 22.300064 161 154 152
-97.102531 -51.71175 22.286747 173 165 162
-96.885994 -51.695465 22.291466 165 157 155
-96.72097 -51.674805 22.297306 172 164 166
-96.127487 -51.66835 22.273878 162 143 142
-98.064827 -51.452789 22.248938 155 143 129
-97.889473 -51.48048 22.325485 167 157 154
-97.743744 -51.497097 22.305008 157 154 147
-97.452477 -51.526497 22.344763 170 167 166
-97.325798 -51.577175 22.298832 118 118 112
-97.068237 -51.509342 22.317263 132 132 127
-96.89473 -51.495556 22.309977 163 156 157
-96.751877 -51.519672 22.294479 179 171 171
-96.271042 -51.470062 22.249365 185 172 170
-98.933113 -51.289532 22.212297 171 156 157
-98.252663 -51.251163 22.259054 142 125 111
-98.087502 -51.295155 22.254173 178 165 152
-97.888802 -51.283489 22.299015 145 139 132
-97.715614 -51.333973 22.343285 144 146 139
-97.545937 -51.280384 22.332672 135 139 131
-97.284912 -51.336945 22.328045 99 111 99
-97.035149 -51.320087 22.328676 135 140 136
-96.911026 -51.302181 22.3002 141 143 143
-96.786186 -51.319019 22.37071 154 155 150
-96.344322 -51.372883 22.248999 165 155 153
-99.034752 -51.068096 22.222589 162 149 151
-98.937355 -51.119732 22.226341 156 144 148
-98.24575 -51.148991 22.240404 172 157 145
-98.08036 -51.124638 22.264549 157 147 138
-97.914825 -51.117851 22.322887 141 135 129
-97.640053 -51.184944 22.397669 124 121 117
-97.555 -51.187088 22.368385 156 162 152
-97.373291 -51.143593 22.312237 85 99 83
-97.061165 -51.111942 22.303738 119 125 121
-96.924156 -51.086777 22.31806 132 135 135
-96.777412 -51.080627 22.227221 112 114 109
-99.245926 -50.994625 22.200029 225 199 208
-99.040833 -50.901672 22.243624 160 148 152
-98.924469 -50.86528 22.277754 146 141 136
-98.640739 -50.881138 22.222887 154 139 134
-98.59832 -50.87582 22.289177 158 143 141
-98.202789 -50.959068 22.220186 77 73 74
-98.051506 -50.863644 22.318346 160 155 154
-97.935532 -50.911114 22.321447 168 159 161
-97.673309 -50.931438 22.372828 131 127 122
-97.280762 -50.849857 22.288872 89 104 89
-97.054787 -50.869659 22.307686 118 126 120
-96.939957 -50.911953 22.308607 132 133 133
-96.322533 -50.830017 22.224737 184 159 159
-99.071266 -50.698654 22.279623 170 160 164
-98.924034 -50.696781 22.30928 157 147 148
-98.70887 -50.734646 22.21607 154 151 147
-98.498062 -50.657948 22.281597 127 125 121
-98.311119 -50.637634 22.262838 121 124 110
-98.074188 -50.699047 22.295099 145 137 139
-97.940147 -50.693665 22.318285 162 154 155
-97.689354 -50.65097 22.296083 123 129 121
-97.541496 -50.645264 22.283421 95 112 99
-97.291908 -50.661152 22.304874 113 124 115
-97.078232 -50.694149 22.312656 125 130 125
-96.948151 -50.67675 22.29178 121 125 122
-96.458588 -50.658432 22.245178 169 150 149
-96.285667 -50.778316 22.261059 168 151 150
-94.486176 -50.660007 22.285318 181 170 169
-94.367111 -50.607403 22.255713 183 174 174
-94.173233 -50.614273 22.222086 143 139 135
-99.46875 -50.461952 22.251747 158 150 150
-99.352081 -50.439426 22.227194 155 150 148
-99.077187 -50.527565 22.26646 172 162 167
-98.889969 -50.505943 22.292185 152 140 140
-98.694595 -50.482212 22.281767 145 140 139
-98.516167 -50.49696 22.288097 156 152 156
-98.302246 -50.490726 22.30628 122 124 118
-98.115692 -50.487881 22.295254 113 114 110
-97.892937 -50.528606 22.312704 153 149 155
-97.694633 -50.520939 22.293297 127 131 129
-97.505585 -50.501221 22.300207 111 119 110
-97.305267 -50.504436 22.306719 121 127 120
-97.087036 -50.517284 22.306683 140 139 137
-96.945023 -50.544502 22.307844 144 140 141
-96.686249 -50.45171 22.223154 203 186 176
-96.453644 -50.496403 22.239523 176 149 153
-96.349754 -50.421032 22.200144 105 101 92
-95.403648 -50.564892 22.222858 168 157 151
-94.663383 -50.462769 22.252487 193 187 176
-94.496887 -50.507751 22.297073 184 176 171
-94.302361 -50.484982 22.283129 179 170 170
-94.159782 -50.452145 22.266851 172 164 164
-99.466179 -50.306244 22.274059 167 160 165
-99.3368 -50.319134 22.239105 148 144 144
-99.058182 -50.266449 22.282406 148 143 143
-98.888931 -50.288528 22.305613 151 147 149
-98.712395 -50.30439 22.315054 163 156 161
-98.500221 -50.335243 22.316557 171 163 171
-98.296036 -50.296444 22.325989 153 143 147
-98.115303 -50.306988 22.28842 121 116 112
-97.89135 -50.277142 22.292852 114 113 109
-97.690773 -50.284836 22.307098 121 121 118
-97.501305 -50.310631 22.318621 127 129 121
-97.293854 -50.314686 22.332388 131 130 125
-97.113335 -50.294998 22.306242 148 139 139
-96.937325 -50.315395 22.260851 120 117 113
-95.92762 -50.227039 22.207621 141 140 135
-94.700668 -50.25243 22.238495 143 144 135
-94.509338 -50.294163 22.273653 148 147 138
-94.301956 -50.361347 22.271645 195 184 185
-94.161621 -50.393906 22.208719 197 192 192
-93.596916 -50.20718 22.205788 72 68 59
-101.4759 -50.048237 22.258457 155 160 152
-101.21378 -50.037674 22.300323 160 162 152
-99.450371 -50.087837 22.271553 173 157 166
-99.315544 -50.078732 22.280794 163 153 156
-99.102768 -50.080223 22.292147 150 146 148
-98.90287 -50.105858 22.296906 147 145 147
-98.688538 -50.107098 22.280632 152 150 152
-98.4963 -50.097382 22.317036 157 150 152
-98.288078 -50.104721 22.295174 139 133 131
-98.116325 -50.093204 22.286779 122 120 114
-97.908173 -50.118797 22.271528 110 111 105
-97.675461 -50.109093 22.322546 153 143 148
-97.526787 -50.078552 22.334743 162 151 152
-97.280731 -50.079262 22.313585 158 147 144
-97.135468 -50.11446 22.310953 168 149 150
-96.992844 -50.064667 22.282843 141 129 128
