ply
format ascii 1.0
comment PCL generated
element vertex 1105
property float x
property float y
property float z
property uchar red
property uchar green
property uchar blue
element face 0
element camera 0
property float view_px
property float view_py
property float view_pz
property float x_axisx
property float x_axisy
property float x_axisz
property float y_axisx
property float y_axisy
property float y_axisz
property float z_axisx
property float z_axisy
property float z_axisz
property float focal
property float scalex
property float scaley
property float centerx
property float centery
property int viewportx
property int viewporty
property float k1
property float k2
end_header
-115.82939 -52.474911 18.372051 116 125 117
-119.21436 -52.361374 18.364664 98 95 104
-119.18713 -52.241013 18.375957 186 170 181
-116.52004 -52.338795 18.334473 135 137 125
-116.26162 -52.345032 18.345417 138 137 129
-116.12392 -52.368225 18.317347 169 164 156
-115.90195 -52.368629 18.367599 176 170 167
-120.70331 -51.070164 18.239347 141 133 140
-120.44893 -51.089531 18.300964 135 133 137
-120.39275 -51.045471 18.376465 112 107 104
-120.05606 -51.047279 18.307175 127 124 123
-120.90559 -50.904053 18.244947 95 92 101
-120.706 -50.89455 18.301466 154 154 152
-120.49373 -50.928871 18.288757 153 150 150
-120.27468 -50.899471 18.334173 141 139 139
-120.11282 -50.938644 18.35273 155 147 149
-119.90681 -50.920883 18.333704 139 134 134
-119.76689 -50.875546 18.349213 93 99 91
-120.84186 -50.662861 18.294603 150 147 147
-120.70564 -50.691765 18.278069 119 123 119
-120.538 -50.723076 18.318769 133 138 132
-120.26171 -50.72839 18.297304 153 153 152
-120.11338 -50.670204 18.361933 149 149 147
-119.84863 -50.64312 18.326689 175 168 172
-121.01424 -50.529007 18.227345 116 117 112
-120.90443 -50.45293 18.355059 156 157 155
-120.71481 -50.478401 18.338341 130 135 131
-120.50537 -50.485729 18.313704 120 130 128
-120.30886 -50.487221 18.301006 116 124 118
-120.13619 -50.47683 18.347351 147 149 146
-119.85963 -50.498356 18.331915 153 152 149
-119.72678 -50.447418 18.378609 109 124 109
-121.05962 -50.301319 18.344582 174 172 168
-120.91052 -50.29911 18.316191 156 156 151
-120.67738 -50.327354 18.342459 135 141 138
-120.49744 -50.302296 18.349014 129 135 132
-120.34 -50.296741 18.317221 127 132 130
-120.14564 -50.26062 18.334314 134 139 134
-119.89647 -50.283253 18.349188 152 155 153
-119.73489 -50.295238 18.289869 153 153 154
-115.45855 -50.336914 18.283123 77 90 81
-115.30264 -50.296181 18.219681 95 103 103
-115.10341 -50.241951 18.260235 139 137 147
-120.87202 -50.118179 18.335577 144 148 141
-120.72339 -50.094383 18.325014 150 152 147
-120.47515 -50.115658 18.357218 149 152 148
-120.31158 -50.08485 18.30826 131 137 132
-120.10658 -50.078388 18.333849 112 121 115
-119.88469 -50.08152 18.313707 154 155 151
-115.263 -50.118378 18.257614 117 117 121
-115.1525 -50.124947 18.253492 128 127 131
-120.8135 -49.919563 18.339371 134 143 135
-120.72545 -49.886436 18.288719 131 138 133
-120.47855 -49.91254 18.338583 144 146 143
-120.29825 -49.918751 18.292341 116 124 120
-120.12625 -49.875286 18.33761 124 130 125
-119.91924 -49.910545 18.322536 133 138 134
-115.43777 -49.868832 18.233416 125 126 126
-115.31329 -49.914433 18.257215 124 126 129
-115.12443 -49.904457 18.271986 121 122 123
-114.95113 -49.863419 18.20878 119 120 123
-114.75119 -49.897579 18.212233 69 75 72
-114.58569 -49.871346 18.251575 32 41 32
-120.82615 -49.698452 18.330507 109 120 111
-120.70155 -49.748665 18.316914 124 131 127
-120.55282 -49.772392 18.344482 140 142 142
-120.28462 -49.757202 18.33803 100 111 106
-120.08711 -49.7108 18.323467 115 124 120
-116.29655 -49.660416 18.222986 184 177 180
-116.16302 -49.697063 18.269852 180 172 179
-115.85909 -49.622246 18.224354 155 152 153
-115.68978 -49.670227 18.2747 138 137 137
-115.49435 -49.670727 18.32024 133 134 137
-115.27885 -49.701538 18.29348 137 137 142
-115.10958 -49.693138 18.299515 119 122 124
-114.90907 -49.684498 18.258638 121 121 126
-114.73286 -49.737591 18.249683 104 102 111
-114.49307 -49.729206 18.316057 35 48 41
-114.1931 -49.606384 18.236439 36 52 42
-120.257 -49.448265 18.20495 73 88 82
-120.13894 -49.563328 18.293968 101 114 107
-116.41247 -49.573044 18.204105 134 128 124
-116.27343 -49.47308 18.289349 163 157 160
-116.12025 -49.467537 18.270365 166 164 165
-115.86349 -49.452633 18.314171 138 137 134
-115.68186 -49.517101 18.337963 162 157 156
-115.4755 -49.528145 18.353552 157 153 152
-115.29459 -49.509201 18.34169 168 163 164
-115.08712 -49.505844 18.328648 166 159 162
-114.92029 -49.49408 18.303825 162 156 161
-114.72734 -49.479069 18.332027 96 99 102
-114.47184 -49.452885 18.333843 99 95 96
-114.10849 -49.534447 18.272602 39 52 45
-120.27534 -49.37751 18.200638 100 109 106
-116.43661 -49.316833 18.221094 127 125 119
-116.28809 -49.326321 18.324913 180 173 176
-116.12083 -49.319012 18.288168 152 149 149
-115.93001 -49.280212 18.331499 135 133 124
-115.72082 -49.318542 18.369038 158 153 142
-115.52901 -49.334297 18.365496 138 129 120
-115.30858 -49.32457 18.379145 156 149 145
-115.09009 -49.341328 18.32465 157 150 145
-114.90119 -49.315056 18.341942 151 150 148
-114.72195 -49.363377 18.386963 106 111 111
-114.51829 -49.323757 18.37347 154 145 150
-114.26833 -49.301929 18.37352 103 101 97
-114.12552 -49.25148 18.342497 104 96 94
-118.48738 -49.040001 18.257381 187 185 179
-116.65321 -49.124897 18.22953 144 144 152
-116.58829 -49.092907 18.220449 173 166 177
-116.24123 -49.095032 18.247658 111 116 108
-116.09942 -49.089134 18.323235 138 137 132
-115.93189 -49.117344 18.32291 151 145 141
-115.73137 -49.104721 18.37818 167 155 152
-115.45271 -49.059643 18.384697 178 169 172
-115.31565 -49.081364 18.370029 144 138 136
-115.15684 -49.118328 18.346912 141 140 134
-114.93562 -49.073429 18.372295 138 136 133
-114.65849 -49.11496 18.387705 150 144 144
-114.57894 -49.052505 18.349918 188 179 182
-114.05847 -49.116463 18.297113 121 112 110
-113.86107 -49.028458 18.352476 132 128 120
-118.66424 -48.891907 18.258417 83 83 78
-118.55882 -48.86377 18.312189 100 104 101
-118.39884 -48.886696 18.307034 130 125 119
-118.16255 -48.980873 18.327612 120 119 117
-116.6218 -48.942314 18.244236 189 183 193
-116.47217 -48.870419 18.247576 131 132 127
-116.25166 -48.903252 18.293982 118 122 115
-116.11824 -48.88596 18.322899 143 139 135
-115.91854 -48.910046 18.340431 158 146 142
-115.78915 -48.844826 18.274662 115 122 115
-115.4146 -48.958496 18.373295 140 132 132
-115.27775 -48.892082 18.35165 117 120 113
-115.1491 -48.858612 18.37443 123 121 115
-114.68085 -48.984482 18.366806 132 120 122
-114.49363 -48.846947 18.280628 122 127 122
-113.89617 -48.96312 18.387297 108 100 98
-113.15086 -48.956749 18.377056 51 54 47
-118.8288 -48.664501 18.248308 90 91 86
-118.67655 -48.708736 18.32461 142 141 139
-118.49818 -48.662132 18.331787 171 162 161
-118.2844 -48.751934 18.248657 87 88 83
-118.03334 -48.657806 18.319931 118 121 112
-117.79292 -48.632195 18.386318 70 70 70
-116.47604 -48.653625 18.26614 125 126 122
-116.28702 -48.695175 18.304316 125 129 121
-116.09994 -48.698856 18.323957 134 133 126
-115.92688 -48.690796 18.332243 128 125 119
-115.13214 -48.76989 18.312958 127 126 123
-114.72141 -48.717442 18.395496 131 130 135
-114.45184 -48.67955 18.314348 84 92 85
-114.34284 -48.699188 18.390743 142 152 143
-113.16257 -48.615936 18.339903 173 159 150
-119.03274 -48.4739 18.225502 170 172 171
-118.9173 -48.519165 18.32173 132 134 130
-118.68679 -48.522041 18.335255 178 167 171
-118.52561 -48.49881 18.378046 129 124 125
-118.29247 -48.486427 18.32765 114 115 112
-118.13322 -48.45879 18.321037 125 126 125
-117.80421 -48.445831 18.359631 153 143 142
-117.75198 -48.496078 18.332697 167 150 152
-117.29299 -48.463131 18.361946 187 186 184
-116.63489 -48.537258 18.222328 110 109 104
-116.49695 -48.470024 18.316545 138 136 130
-116.28636 -48.509251 18.323179 114 118 107
-116.08426 -48.526505 18.327635 109 106 95
-115.87848 -48.519691 18.331831 125 123 115
-115.79004 -48.532692 18.375286 152 144 144
-114.4913 -48.556122 18.351467 89 94 92
-114.36855 -48.541462 18.39513 87 92 85
-114.06357 -48.590508 18.39822 170 171 176
-113.11447 -48.546642 18.380646 66 61 55
-112.69302 -48.459274 18.294605 113 110 110
-112.54489 -48.432716 18.243164 150 142 138
-112.19625 -48.536419 18.208179 143 140 133
-119.0713 -48.304474 18.262512 143 143 142
-118.91159 -48.2864 18.318619 165 154 156
-118.7134 -48.296581 18.362263 156 145 149
-118.4834 -48.348679 18.393221 129 120 120
-118.3399 -48.385429 18.393147 244 224 233
-118.07908 -48.283401 18.362593 142 132 134
-117.88348 -48.290131 18.310535 103 100 98
-117.72756 -48.242188 18.338531 118 115 113
-117.53377 -48.225266 18.365322 103 90 96
-117.29007 -48.308826 18.247532 100 100 99
-117.08429 -48.252167 18.268042 144 141 140
-116.9607 -48.286785 18.290651 148 148 147
-116.64922 -48.312256 18.305279 120 121 117
-116.51311 -48.295418 18.309925 125 127 122
-116.29826 -48.288937 18.346867 90 96 88
-116.11227 -48.246239 18.331003 125 127 124
-115.97488 -48.284786 18.354475 112 112 108
-112.82129 -48.338341 18.329473 117 115 118
-112.69155 -48.359783 18.340059 149 142 138
-112.50249 -48.265594 18.387369 83 81 82
-119.09312 -48.071926 18.328093 138 136 137
-118.91103 -48.122028 18.33609 129 125 125
-118.72604 -48.096291 18.348946 145 135 137
-118.50835 -48.130672 18.200949 169 160 163
-117.68272 -48.120266 18.313688 149 143 150
-117.53201 -48.065216 18.30221 137 135 135
-117.3121 -48.073528 18.317011 140 133 133
-117.11784 -48.114807 18.286819 163 156 153
-116.9027 -48.082741 18.256792 164 162 156
-116.67634 -48.103634 18.295839 136 134 130
-116.52513 -48.122856 18.337025 121 121 117
-116.08233 -48.174576 18.33346 94 97 92
-115.9328 -48.129955 18.394117 99 105 95
-114.79688 -48.164627 18.328373 119 125 115
-112.28963 -48.157963 18.350662 150 147 148
-120.67191 -47.833584 18.277987 65 69 72
-119.4017 -47.954128 18.204702 122 116 114
-119.29597 -47.883705 18.279842 142 139 138
-119.10651 -47.897575 18.34164 141 137 139
-118.95003 -47.937508 18.384953 136 132 133
-118.64996 -47.952789 18.373524 178 167 169
-118.54028 -47.965118 18.223595 121 123 120
-117.48569 -47.914726 18.327467 135 134 139
-117.32014 -47.897198 18.290415 143 137 143
-117.12321 -47.869316 18.277802 125 128 126
-116.86622 -47.915302 18.293224 150 148 141
-116.7065 -47.904415 18.321272 122 124 121
-116.52246 -47.911518 18.313396 96 98 95
-116.06868 -47.801315 18.269091 143 137 140
-115.1792 -47.834644 18.300245 123 121 116
-114.88205 -47.820885 18.368502 108 110 98
-114.72277 -47.83873 18.349596 102 103 95
-112.49529 -47.801289 18.3374 122 123 119
-112.30463 -47.830971 18.274002 137 134 138
-112.03789 -47.876835 18.259157 76 72 71
-111.84135 -47.922588 18.34621 134 137 145
-111.73241 -47.897442 18.399452 131 121 129
-119.82455 -47.641193 18.259943 112 113 115
-119.26037 -47.680866 18.283892 146 142 145
-119.14445 -47.706734 18.32513 150 142 147
-118.804 -47.653198 18.388729 81 85 83
-118.73843 -47.686199 18.312433 91 98 97
-117.45914 -47.701298 18.324024 121 123 123
-117.30296 -47.699718 18.301367 137 134 136
-117.11369 -47.666073 18.273022 108 112 107
-116.88528 -47.701923 18.29604 90 100 89
-116.72316 -47.684612 18.307384 83 89 83
-116.48468 -47.69099 18.30266 116 112 113
-116.34487 -47.719486 18.387609 84 83 81
-115.22248 -47.650848 18.359287 92 95 90
-115.14008 -47.692944 18.340832 88 95 87
-114.86277 -47.696209 18.329123 68 74 65
-114.69579 -47.668633 18.357201 94 97 89
-114.56686 -47.618881 18.367357 97 100 91
-112.50627 -47.746056 18.286907 126 132 127
-112.28601 -47.740097 18.305832 141 140 145
-112.15615 -47.749226 18.364498 133 134 137
-119.86572 -47.510201 18.259228 96 104 93
-119.69282 -47.446472 18.271692 131 134 126
-119.5025 -47.45369 18.325443 102 104 101
-119.29667 -47.499645 18.311335 140 136 141
-119.13191 -47.508591 18.3326 133 130 133
-118.90548 -47.51281 18.345488 120 118 120
-118.76027 -47.525181 18.334492 106 107 108
-117.42001 -47.518242 18.349003 132 130 133
-117.29088 -47.510098 18.33811 122 123 122
-117.09554 -47.509171 18.32712 121 121 119
-116.95071 -47.509102 18.326063 114 115 109
-116.6787 -47.481941 18.303907 103 110 102
-116.52872 -47.51442 18.333551 87 90 83
-116.3539 -47.47187 18.348454 105 111 107
-116.19804 -47.507324 18.398697 138 144 144
-115.89957 -47.440342 18.33428 82 94 90
-115.71979 -47.483738 18.24548 68 81 74
-115.23059 -47.493027 18.341198 77 85 78
-115.14585 -47.481323 18.327335 71 77 69
-114.8839 -47.517326 18.316431 91 97 90
-114.67271 -47.494946 18.351467 92 91 84
-114.56454 -47.455643 18.341461 65 70 62
-112.66888 -47.497772 18.37184 117 125 119
-112.48364 -47.447891 18.362032 116 116 113
-112.33886 -47.477341 18.321056 117 117 115
-120.13579 -47.221825 18.299656 93 95 86
-119.90398 -47.275661 18.352074 116 106 107
-119.72968 -47.247246 18.256237 138 136 136
-119.49624 -47.290276 18.320354 126 125 126
-119.27774 -47.2967 18.307259 126 126 128
-119.11372 -47.295326 18.313848 102 104 103
-118.91734 -47.307259 18.35046 98 100 97
-117.29579 -47.333702 18.386238 120 122 122
-117.08469 -47.291801 18.319603 134 131 129
-116.94601 -47.317684 18.312994 123 118 117
-116.68612 -47.29594 18.298344 94 101 92
-116.52674 -47.289822 18.311708 87 96 91
-116.27284 -47.266693 18.298 86 98 92
-116.11884 -47.276176 18.29954 68 83 75
-115.91663 -47.278042 18.343107 79 89 85
-115.70021 -47.285027 18.319996 63 77 71
-115.53217 -47.266121 18.303738 69 82 77
-115.34458 -47.285656 18.273657 100 108 105
-115.0877 -47.2766 18.319069 76 79 73
-114.94949 -47.328182 18.34067 87 86 92
-112.43101 -47.2747 18.360638 128 127 130
-112.31027 -47.287106 18.317705 135 132 138
-109.22074 -47.308739 18.253815 95 97 91
-119.85876 -47.062046 18.234186 145 140 135
-119.69046 -47.120438 18.272276 152 149 148
-119.47784 -47.063721 18.332495 146 141 140
-119.2966 -47.103535 18.317308 135 131 132
-119.11533 -47.085712 18.341696 118 116 116
-118.9452 -47.147205 18.35976 100 101 99
-117.49635 -47.084717 18.374294 102 108 104
-117.34415 -47.103825 18.383583 110 112 109
-117.02818 -47.097504 18.335562 101 104 101
-116.90789 -47.0821 18.30065 95 100 97
-116.69733 -47.094902 18.306963 87 90 84
-116.51637 -47.106125 18.303844 105 109 106
-116.27816 -47.089806 18.290895 76 89 83
-116.10029 -47.087898 18.316607 69 82 76
-115.9386 -47.065853 18.318916 81 91 88
-115.67223 -47.091644 18.294233 65 78 72
-115.50317 -47.078571 18.303579 77 85 80
-115.29254 -47.069904 18.3304 86 91 86
-115.07296 -47.115761 18.361099 100 98 94
-114.97153 -47.099701 18.384943 105 100 94
-112.62973 -47.061195 18.349274 113 120 115
-112.46229 -47.100662 18.348927 134 135 138
-112.27603 -47.093536 18.282341 147 144 150
-109.4608 -47.007645 18.26103 106 107 101
-109.33796 -47.116741 18.261471 108 107 102
-120.10992 -46.926388 18.282221 154 151 153
-119.93073 -46.858639 18.278633 143 140 135
-119.72875 -46.892178 18.284346 142 141 137
-119.47601 -46.937908 18.294161 119 119 114
-119.31303 -46.910271 18.347925 128 126 123
-119.11137 -46.924072 18.348034 111 108 109
-118.92189 -46.913651 18.383337 116 111 112
-117.27058 -46.855129 18.321981 160 164 163
-117.05915 -46.869839 18.297333 121 123 124
-116.88507 -46.871582 18.313707 108 110 110
-116.73351 -46.923244 18.305923 94 97 95
-116.504 -46.881931 18.300299 105 110 109
-116.29385 -46.94273 18.324301 84 95 91
-116.08429 -46.916824 18.292784 70 82 76
-115.90095 -46.887856 18.308474 75 85 81
-115.69321 -46.90176 18.304094 67 78 72
-115.51494 -46.90284 18.310589 72 79 72
-115.35075 -46.897121 18.316416 94 97 91
-115.16323 -46.958702 18.388647 143 144 145
-114.8362 -46.913193 18.323471 65 75 74
-112.29824 -46.931915 18.369965 127 119 121
-109.40941 -46.996895 18.268923 150 152 147
-120.72688 -46.609249 18.279331 209 194 197
-120.2288 -46.688679 18.316668 160 155 150
-120.06327 -46.705353 18.320951 142 139 137
-119.89224 -46.683598 18.297457 134 131 127
-119.70536 -46.705387 18.328894 129 125 121
-119.48907 -46.703541 18.328772 115 108 107
-119.31135 -46.749451 18.376482 107 102 104
-118.9534 -46.627598 18.33939 82 80 83
-118.50937 -46.629803 18.372234 78 78 75
-117.24795 -46.70052 18.331564 90 98 97
-117.0968 -46.701576 18.311592 86 92 91
-116.90787 -46.704884 18.294558 96 100 98
-116.67862 -46.669426 18.305607 78 86 81
-116.50684 -46.690598 18.335041 77 87 82
-116.33607 -46.676517 18.270555 76 81 80
-116.08356 -46.69294 18.312948 78 87 83
-115.93048 -46.71357 18.352118 77 86 83
-115.6801 -46.718681 18.329765 73 81 75
-115.50642 -46.733208 18.328699 81 85 78
-115.34562 -46.721951 18.371771 83 83 77
-120.69073 -46.487209 18.333931 173 165 171
-120.44643 -46.501484 18.33301 137 138 135
-120.2869 -46.47868 18.292271 150 145 144
-120.11015 -46.506695 18.311537 154 144 144
-119.90911 -46.517101 18.304323 137 129 126
-119.7346 -46.492466 18.330774 103 104 97
-119.5665 -46.44389 18.372074 85 81 83
-119.31737 -46.411301 18.371876 103 101 97
-118.65025 -46.556343 18.374489 105 94 94
-118.51119 -46.4561 18.365015 130 124 126
-118.24924 -46.527771 18.358248 68 71 70
-118.10913 -46.439041 18.307833 69 77 74
-117.94184 -46.42691 18.369804 85 86 88
-117.78354 -46.48233 18.335117 75 82 76
-117.41462 -46.463951 18.331219 98 112 112
-117.24857 -46.481365 18.334328 99 101 99
-117.0798 -46.516571 18.319019 90 94 91
-116.90694 -46.510536 18.351938 91 94 89
-116.71117 -46.517681 18.350149 90 92 89
-116.52885 -46.487957 18.336409 85 87 84
-116.32433 -46.503338 18.288939 77 85 84
-116.06543 -46.52066 18.284691 95 101 99
-115.90123 -46.487221 18.322725 110 113 112
-115.70463 -46.481388 18.31642 102 103 99
-115.52358 -46.512875 18.319202 87 89 85
-115.31321 -46.492413 18.301283 80 90 87
-115.15504 -46.569519 18.252968 99 107 109
-112.45909 -46.433868 18.3162 156 153 158
-112.31244 -46.516899 18.290131 125 124 128
-112.14047 -46.481354 18.340118 188 179 182
-121.13316 -46.255547 18.250429 170 166 163
-120.80128 -46.315697 18.316833 151 152 155
-120.69624 -46.249821 18.308977 153 152 153
-120.48719 -46.299438 18.295778 142 141 141
-120.30904 -46.304695 18.279316 160 149 146
-120.12612 -46.31778 18.280161 151 136 133
-119.8992 -46.290615 18.314863 119 111 111
-119.66278 -46.380821 18.325001 91 92 88
-119.53595 -46.398895 18.395828 135 136 140
-118.60133 -46.370113 18.271006 84 74 82
-118.43224 -46.368229 18.324965 71 73 70
-118.24501 -46.282154 18.348255 61 67 60
-118.07044 -46.322449 18.331303 64 70 65
-117.93758 -46.304264 18.323942 71 78 74
-117.75987 -46.230862 18.337887 58 72 62
-117.2575 -46.328609 18.349581 71 73 68
-117.07008 -46.297699 18.337667 104 105 101
-116.92453 -46.30975 18.334581 104 105 98
-116.65594 -46.314968 18.328861 122 120 115
-116.51493 -46.288609 18.349506 109 109 107
-116.28094 -46.31601 18.313505 80 87 87
-116.01897 -46.341377 18.37257 113 119 123
-115.8906 -46.331924 18.300152 94 98 93
-115.70901 -46.332222 18.327845 93 97 93
-115.50066 -46.321404 18.346497 89 93 86
-115.36306 -46.267345 18.316793 99 98 93
-115.16223 -46.359253 18.384212 103 110 103
-112.49076 -46.302502 18.324942 135 132 136
-112.314 -46.272335 18.286673 151 145 148
-112.09334 -46.264244 18.291935 185 173 174
-111.99356 -46.312057 18.277136 139 139 137
-121.26626 -46.028763 18.261845 135 134 135
-121.06998 -46.075073 18.268627 166 165 165
-120.87557 -46.081711 18.299204 150 148 150
-120.70726 -46.077976 18.302916 149 146 146
-120.49738 -46.090282 18.298573 138 136 134
-120.31357 -46.118546 18.3029 146 141 133
-120.10519 -46.106567 18.308842 126 119 115
-119.90961 -46.179874 18.293924 105 95 97
-118.07584 -46.154575 18.3484 69 75 69
-117.90267 -46.099644 18.344297 75 80 77
-117.66158 -46.081318 18.316372 67 79 72
-117.51372 -46.054852 18.317177 78 86 82
-117.26233 -46.015564 18.30698 98 106 100
-117.08755 -46.065109 18.322145 96 99 91
-116.94192 -46.07925 18.337696 107 109 102
-116.6687 -46.075748 18.315685 125 121 117
-116.53651 -46.11269 18.323792 113 111 107
-116.33124 -46.09557 18.312744 72 75 75
-116.0633 -46.069511 18.295389 70 79 73
-115.91621 -46.092552 18.327326 73 80 74
-115.73048 -46.099968 18.333868 68 75 68
-115.51202 -46.145588 18.307076 58 65 57
-115.36184 -46.034645 18.330816 124 129 132
-114.93126 -46.177273 18.359913 88 87 83
-114.29234 -46.023041 18.242111 75 82 74
-114.05451 -46.059952 18.293125 83 85 82
-113.07513 -46.037468 18.311981 104 109 108
-112.92679 -46.048409 18.287947 123 129 127
-112.71973 -46.071079 18.29249 136 137 138
-112.50411 -46.078236 18.286461 156 148 154
-112.27087 -46.136612 18.276798 151 137 140
-112.1944 -46.179817 18.31543 186 172 176
-110.01236 -46.160416 18.285536 119 118 122
-109.98244 -46.133621 18.226513 147 147 151
-121.40279 -45.956131 18.206728 189 182 189
-121.26047 -45.882862 18.292269 166 163 166
-121.11495 -45.893265 18.305094 152 150 152
-120.91524 -45.891941 18.314817 155 147 149
-120.70377 -45.910393 18.307241 165 155 156
-120.48465 -45.920876 18.331463 133 128 124
-120.315 -45.899025 18.2908 139 128 127
-120.08466 -45.915783 18.298853 127 122 121
-119.98232 -45.842514 18.370859 124 115 120
-117.85701 -45.92485 18.286263 92 97 92
-117.66505 -45.884296 18.331703 72 80 75
-117.50762 -45.915726 18.328753 76 85 81
-117.30058 -45.914845 18.316738 91 96 94
-117.09498 -45.915237 18.306921 88 94 88
-116.92065 -45.893349 18.317518 99 103 96
-116.66611 -45.904995 18.323681 116 117 114
-116.57248 -45.910767 18.350086 115 112 112
-116.30899 -45.90572 18.316648 64 71 66
-116.08941 -45.912399 18.312679 102 106 105
-115.93523 -45.88448 18.305798 114 116 117
-115.7485 -45.910423 18.287514 111 115 113
-115.57993 -45.948425 18.363285 81 85 79
-115.12721 -45.917793 18.295544 82 89 87
-114.80933 -45.824219 18.366911 110 114 115
-114.46879 -45.879406 18.307255 82 88 83
-114.32082 -45.883614 18.294006 76 84 76
-114.08916 -45.811184 18.291822 105 109 104
-113.88493 -45.880386 18.275345 117 116 114
-113.25858 -45.858475 18.330164 121 126 124
-113.09953 -45.889229 18.281725 113 114 112
-112.89093 -45.89389 18.289236 122 124 125
-112.68324 -45.910007 18.292904 139 137 141
-112.50674 -45.857918 18.223955 154 153 159
-110.26706 -45.941383 18.213022 93 95 93
-110.06763 -45.998333 18.21632 147 142 143
-121.42169 -45.709717 18.272427 151 139 129
-121.25274 -45.721272 18.28833 178 173 176
-121.0789 -45.71711 18.33424 176 166 170
-120.91734 -45.672951 18.30934 146 142 140
-120.66425 -45.711685 18.285141 153 143 140
-120.49477 -45.711422 18.296906 144 135 131
-120.29119 -45.693195 18.305126 110 102 100
-120.09883 -45.69759 18.329506 110 108 105
-117.6216 -45.683945 18.338806 91 93 93
-117.50864 -45.705166 18.328245 78 85 81
-117.28603 -45.693401 18.309946 75 83 77
-117.08173 -45.675755 18.29726 77 83 76
-116.9174 -45.711151 18.319735 92 94 90
-116.68094 -45.682678 18.313105 130 126 124
-116.54571 -45.727116 18.324318 120 114 115
-116.29812 -45.702759 18.313099 111 107 104
-116.08042 -45.703041 18.326435 104 109 108
-115.89642 -45.713425 18.307638 109 111 110
-115.71126 -45.716259 18.30143 96 103 100
-115.51902 -45.626179 18.290287 100 107 106
-115.30896 -45.644009 18.311296 83 93 90
-115.08533 -45.685108 18.274734 78 89 86
-114.90019 -45.68066 18.32967 86 97 95
-114.6467 -45.627823 18.391785 92 99 95
-114.49663 -45.705032 18.298033 75 82 78
-114.28645 -45.703842 18.305874 82 88 83
-114.10282 -45.688175 18.294559 104 109 104
-113.94884 -45.673878 18.314693 94 98 92
-113.49319 -45.682373 18.311562 97 99 98
-113.31113 -45.730118 18.332193 117 119 121
-113.10237 -45.747829 18.309971 116 119 121
-112.87103 -45.727486 18.314268 126 125 129
-112.69926 -45.688198 18.291956 95 96 98
-112.58069 -45.704918 18.280695 150 146 150
-121.27328 -45.499596 18.285862 160 160 156
-121.11079 -45.478268 18.319021 154 152 149
-120.91492 -45.503712 18.319078 134 136 131
-120.70574 -45.497772 18.334869 127 126 122
-120.50595 -45.497849 18.297514 115 109 105
-120.30969 -45.490849 18.292032 104 100 97
-120.09763 -45.51894 18.316525 103 100 99
-119.54423 -45.515404 18.326672 85 93 86
-117.48344 -45.533596 18.326538 91 96 94
-117.28442 -45.505863 18.330641 82 84 81
-117.10897 -45.52623 18.341869 99 98 99
-116.90392 -45.497318 18.305597 103 102 101
-116.71139 -45.497746 18.302267 121 115 113
-116.5197 -45.499401 18.327854 147 137 139
-116.27846 -45.480759 18.310568 106 106 101
-116.13166 -45.487186 18.316347 109 110 107
-115.88959 -45.516911 18.311941 92 99 96
-115.69603 -45.514374 18.318962 105 109 109
-115.51212 -45.501362 18.302576 101 107 107
-115.31243 -45.49691 18.304892 86 95 91
-115.09641 -45.461987 18.300934 80 90 85
-114.86327 -45.462513 18.30876 99 104 104
-114.67826 -45.492012 18.31826 83 91 87
-114.50928 -45.49007 18.282461 75 81 76
-114.3028 -45.501644 18.312527 78 85 80
-114.14922 -45.534447 18.291435 83 90 86
-113.90874 -45.581333 18.228481 90 91 86
-113.45306 -45.404312 18.272934 73 78 81
-113.2938 -45.515991 18.302212 104 106 112
-112.91386 -45.500866 18.321825 148 143 151
-112.71159 -45.5214 18.261625 109 105 116
-112.57373 -45.553734 18.272322 60 62 66
-121.28425 -45.248737 18.314022 150 150 149
-121.10049 -45.293068 18.312689 141 138 136
-120.9122 -45.305046 18.313452 127 128 123
-120.73518 -45.313614 18.331278 129 122 122
-120.47064 -45.318371 18.309875 108 105 101
-120.30497 -45.300201 18.296879 107 106 104
-120.09962 -45.27219 18.292797 100 99 95
-119.92413 -45.280354 18.21134 131 134 127
-119.48991 -45.376377 18.38093 110 120 112
-117.60281 -45.241634 18.370041 78 80 77
-117.46846 -45.294529 18.312689 76 80 75
-117.30529 -45.305775 18.333057 86 90 88
-117.06178 -45.311695 18.363945 114 113 116
-116.89098 -45.324501 18.322546 102 102 103
-116.72089 -45.300636 18.317968 98 97 96
-116.52794 -45.279427 18.328865 103 101 97
-116.29633 -45.297932 18.314877 124 119 114
-116.12952 -45.348537 18.313696 119 117 115
-115.91386 -45.284859 18.318752 77 83 82
-115.70352 -45.284889 18.285078 95 96 95
-115.50728 -45.35902 18.337132 115 116 117
-115.27863 -45.278851 18.303757 100 104 105
-115.12908 -45.298538 18.296635 94 100 98
-114.91216 -45.294357 18.293758 88 93 93
-114.71348 -45.275902 18.281916 78 85 82
-114.51549 -45.304459 18.287712 75 84 79
-114.32802 -45.315643 18.332632 75 84 78
-114.11218 -45.249523 18.305004 100 109 106
-113.8858 -45.223053 18.28639 92 100 95
-113.75821 -45.312866 18.227966 88 95 90
-113.43338 -45.357998 18.339462 126 124 130
-113.30173 -45.315941 18.266014 105 110 114
-113.11771 -45.307617 18.339098 119 120 122
-121.43904 -45.115704 18.283001 168 165 168
-121.32735 -45.129753 18.317381 162 153 158
-121.12257 -45.176407 18.342239 148 142 144
-120.89951 -45.1446 18.334465 126 123 120
-120.78585 -45.160709 18.322811 127 120 118
-120.45239 -45.11953 18.37676 138 130 132
-120.28671 -45.181744 18.311083 119 118 116
-120.12044 -45.15519 18.300665 71 71 68
-119.91306 -45.084606 18.293304 75 75 73
-119.79729 -45.038204 18.333105 141 131 140
-117.50352 -45.097496 18.301495 87 90 84
-117.32318 -45.13335 18.368292 96 98 94
-117.08908 -45.085381 18.337688 89 90 90
-116.92023 -45.136372 18.358505 95 95 96
-116.7357 -45.133926 18.296314 113 108 110
-116.47691 -45.140831 18.305567 98 97 96
-116.28309 -45.108662 18.298229 101 100 95
-116.08787 -45.098679 18.324326 102 99 97
-115.91577 -45.147465 18.304125 90 90 90
-115.69081 -45.096104 18.33289 92 98 98
-115.47586 -45.123482 18.308523 91 96 97
-115.27605 -45.092693 18.276875 76 82 81
-115.10019 -45.081142 18.304243 86 93 91
-114.88472 -45.093044 18.284569 86 93 90
-114.70577 -45.097446 18.314793 86 92 89
-114.52309 -45.122311 18.349535 83 88 87
-114.27775 -45.095467 18.307365 102 108 108
-114.09595 -45.095669 18.316048 97 104 102
-113.92284 -45.072933 18.342232 97 104 101
-113.69434 -45.083443 18.293875 87 96 93
-113.47607 -45.078632 18.286528 121 125 129
-113.36697 -45.129581 18.294943 145 142 152
-121.45844 -44.894287 18.278593 172 167 172
-121.34492 -44.893902 18.344707 167 155 163
-121.14754 -44.973015 18.393429 124 102 105
-120.07602 -44.997147 18.387712 72 70 71
-119.84973 -44.910534 18.335701 88 84 87
-119.76208 -44.989182 18.252258 100 89 103
-117.64535 -44.888748 18.289507 72 79 73
-117.52322 -44.911083 18.319637 85 89 84
-117.3409 -44.905605 18.330709 96 96 94
-117.15732 -44.923656 18.304049 80 81 78
-116.94884 -44.88763 18.293032 107 103 104
-116.22568 -44.874538 18.392057 109 108 103
-116.08136 -44.920719 18.318285 93 92 89
-115.94685 -44.88139 18.330118 97 94 92
-115.71838 -44.902866 18.316011 91 94 94
-115.48982 -44.916 18.272448 100 105 104
-115.27196 -44.907192 18.280621 90 96 94
-115.09486 -44.902287 18.297796 96 100 100
-114.91772 -44.937546 18.297081 101 108 109
-114.69959 -44.938011 18.307486 100 105 106
-114.50135 -44.903721 18.311853 108 112 114
-114.28061 -44.883492 18.307447 110 114 116
-114.10545 -44.912796 18.317862 105 109 108
-113.93368 -44.911781 18.30686 121 124 126
-113.67831 -44.888062 18.304676 141 137 142
-113.51487 -44.921757 18.285984 134 133 140
-113.39233 -44.985569 18.211029 120 119 126
-121.44764 -44.761421 18.286882 167 159 165
-121.29106 -44.693691 18.316839 144 138 143
-117.62959 -44.776955 18.284348 74 80 78
-117.49971 -44.677273 18.29966 70 73 72
-117.29005 -44.708904 18.322052 90 87 86
-117.12534 -44.679039 18.271353 98 97 98
-116.95452 -44.691898 18.326542 112 110 105
-116.04646 -44.748013 18.353531 111 109 107
-115.90617 -44.70187 18.3029 102 101 96
-115.69917 -44.68261 18.310913 110 107 106
-115.50333 -44.689335 18.288248 98 100 101
-115.2876 -44.695621 18.310049 106 110 113
-115.07206 -44.728661 18.283875 115 118 122
-114.87824 -44.728931 18.266405 96 100 106
-114.68853 -44.730438 18.231747 99 103 103
-114.45015 -44.730133 18.311989 108 110 114
-114.30853 -44.751472 18.305479 121 121 127
-114.0817 -44.732441 18.31432 117 119 123
-113.91549 -44.677551 18.307571 136 134 139
-113.75854 -44.680149 18.285929 129 126 133
-121.24426 -44.48016 18.308064 142 137 141
-121.16507 -44.469063 18.338413 152 142 148
-117.3537 -44.585224 18.358526 66 67 71
-117.11533 -44.563313 18.305805 95 93 93
-115.86392 -44.580078 18.295576 101 98 93
-115.68456 -44.510258 18.299171 123 114 116
-115.49815 -44.485558 18.298639 120 112 113
-115.37875 -44.470333 18.351171 149 138 139
-115.05595 -44.585094 18.288361 158 164 162
-114.94141 -44.520874 18.306129 59 70 65
-114.67918 -44.543652 18.243881 103 109 107
-114.40143 -44.480869 18.299791 68 83 80
-114.2599 -44.490845 18.318949 97 105 107
-114.08099 -44.499798 18.282536 116 116 122
-113.90577 -44.513092 18.302549 130 125 134
-113.76306 -44.495853 18.296316 102 96 104
-121.42674 -44.275291 18.251633 114 119 125
-121.27509 -44.311783 18.290565 142 139 141
-121.12965 -44.291988 18.277323 127 121 125
-120.9982 -44.213867 18.21357 143 136 143
-117.50498 -44.304672 18.319258 66 70 66
-116.95919 -44.355377 18.223917 84 86 85
-116.03233 -44.285263 18.284792 111 105 103
-115.90334 -44.308643 18.298948 116 113 111
-115.67753 -44.310513 18.289707 136 126 128
-115.49857 -44.307537 18.300255 135 127 130
-115.31293 -44.307808 18.316961 115 109 111
-115.1764 -44.303757 18.258606 96 100 98
-114.90459 -44.329422 18.284431 79 91 88
-114.71228 -44.343616 18.225388 86 96 97
-114.57887 -44.314728 18.393898 98 108 109
-114.22706 -44.395428 18.224297 65 74 79
-114.10412 -44.383987 18.242027 125 130 138
-113.89361 -44.382664 18.235775 99 93 104
-121.43781 -44.065979 18.257418 129 128 133
-121.28313 -44.114941 18.308092 139 135 139
-121.07597 -44.116474 18.304876 110 108 108
-120.94267 -44.091721 18.301626 127 121 125
-119.93845 -44.05949 18.354509 82 77 74
-117.57965 -44.156593 18.245338 76 76 81
-117.31149 -44.134033 18.318388 65 70 68
-117.1157 -44.081966 18.319929 86 83 84
-116.96987 -44.096806 18.31514 74 76 72
-116.09977 -44.103394 18.288481 96 92 94
-115.89728 -44.089622 18.278069 87 89 86
-115.71272 -44.093098 18.317804 110 106 108
-115.52232 -44.125469 18.319519 121 115 120
-115.27572 -44.110081 18.333082 94 96 98
-115.11683 -44.110321 18.313379 92 95 95
-114.87193 -44.149868 18.245501 85 93 95
-114.78522 -44.042156 18.294552 104 112 115
-121.44215 -43.895214 18.255077 169 166 167
-121.33802 -43.876225 18.283384 176 162 171
-121.04688 -43.858006 18.357185 96 96 95
-120.93746 -43.875648 18.358286 100 101 100
-120.46075 -43.809391 18.332634 76 81 75
-117.42893 -43.900318 18.318289 67 71 70
-117.28669 -43.899597 18.312456 72 75 74
-117.08057 -43.86552 18.277971 71 72 74
-116.93599 -43.900417 18.300739 65 63 64
-116.02522 -43.830978 18.392809 99 94 98
-115.8803 -43.940693 18.262819 79 80 79
-115.65655 -43.916962 18.330818 115 114 113
-115.51255 -43.901848 18.304621 115 112 114
-115.33884 -43.919426 18.30566 138 136 139
-115.12321 -43.916279 18.29858 95 99 98
-121.4479 -43.660156 18.309437 161 158 166
-121.28278 -43.706825 18.297302 162 149 157
-121.18095 -43.673523 18.376036 138 128 136
-117.44792 -43.732925 18.248627 59 56 58
-117.2692 -43.766205 18.249487 57 65 60
-117.09671 -43.761261 18.282633 70 72 70
-116.92611 -43.691319 18.301041 78 79 79
-116.06745 -43.770088 18.36101 79 76 85
-115.50695 -43.700962 18.308167 107 106 107
-115.3256 -43.701283 18.296076 105 105 105
-115.14256 -43.691101 18.358475 83 84 81
-121.5119 -43.451122 18.21711 175 179 182
-121.29549 -43.523193 18.311783 158 148 156
-121.18703 -43.52026 18.335413 184 171 178
-117.18984 -43.475529 18.232452 70 73 68
-116.82579 -43.527702 18.334698 97 94 91
-116.77243 -43.490913 18.258354 66 64 67
-116.01113 -43.486553 18.323973 103 97 99
-115.48571 -43.491604 18.265123 124 121 119
-115.28667 -43.495007 18.328196 134 129 130
-115.08548 -43.505936 18.292208 111 107 111
-114.96037 -43.462002 18.270016 96 91 93
-121.23332 -43.289474 18.30875 160 154 164
-121.18312 -43.271584 18.279919 164 157 169
-117.39639 -43.274712 18.201723 53 62 59
-117.03386 -43.279907 18.329706 81 83 80
-116.90842 -43.276974 18.333805 76 75 77
-116.72901 -43.206734 18.381231 84 83 82
-115.70789 -43.315323 18.235748 113 106 104
-115.45602 -43.320587 18.308655 97 96 93
-115.27654 -43.345436 18.294033 125 119 119
-115.09043 -43.327164 18.316814 141 133 136
-114.94652 -43.32143 18.337797 127 121 124
-121.41279 -43.056011 18.238699 184 180 171
-121.25584 -43.110348 18.293928 154 147 153
-121.10913 -43.076328 18.37122 123 120 126
-120.06174 -43.06493 18.366331 111 116 119
-117.17265 -43.159237 18.365049 94 96 95
-115.45618 -43.127579 18.317451 88 90 86
-115.04593 -43.163322 18.339245 156 149 153
-114.9178 -43.158443 18.331261 165 149 149
-114.78731 -43.107601 18.345789 130 129 133
-121.23727 -42.911533 18.329029 169 156 162
-121.14487 -42.859417 18.349115 149 143 148
-120.47501 -42.826092 18.300766 139 135 144
-119.9295 -42.805164 18.393042 91 95 102
-119.77856 -42.817566 18.384247 123 117 126
-117.90121 -42.870258 18.207653 66 71 67
-117.41592 -42.844532 18.240337 82 89 82
-117.35705 -42.905262 18.336678 87 91 93
-117.13143 -42.980556 18.359333 79 81 86
-114.83002 -42.884499 18.362871 188 182 190
-114.68887 -42.94236 18.332394 111 110 110
-121.2706 -42.728199 18.328693 163 154 160
-121.15084 -42.725197 18.339888 162 150 158
-120.86121 -42.611492 18.342493 153 147 154
-120.65657 -42.672592 18.313961 129 131 132
-120.51418 -42.725582 18.285374 113 115 119
-120.33762 -42.67712 18.310375 118 116 125
-119.86546 -42.684578 18.355104 85 91 95
-119.70678 -42.693111 18.296612 90 92 97
-119.56155 -42.654945 18.320938 112 109 118
-117.45216 -42.777115 18.23019 66 70 70
-117.2646 -42.714577 18.255377 72 72 71
-117.01466 -42.640293 18.391808 72 68 69
-114.87151 -42.663898 18.327082 133 129 132
-114.77283 -42.670265 18.292789 164 156 162
-121.2141 -42.429607 18.378313 124 123 121
-121.07491 -42.5042 18.302502 168 157 166
-120.89137 -42.507954 18.302752 139 138 141
-120.71919 -42.527138 18.308271 159 149 157
-120.46144 -42.510159 18.313524 142 136 142
-120.30866 -42.5009 18.303061 139 131 138
-120.04677 -42.408688 18.387407 144 141 150
-119.87733 -42.472599 18.339289 122 121 129
-119.67957 -42.531868 18.328323 89 90 94
-119.48965 -42.472988 18.314203 105 105 112
-119.32121 -42.486279 18.283817 105 105 111
-119.10634 -42.482227 18.289108 118 119 123
-118.85151 -42.451862 18.310698 84 83 88
-117.60629 -42.574963 18.292133 82 86 91
-117.55704 -42.528255 18.310579 90 92 97
-114.85789 -42.500259 18.330532 145 141 147
-114.75797 -42.465702 18.237476 186 173 178
-121.33502 -42.295258 18.270576 153 152 154
-121.1086 -42.310284 18.277126 168 163 171
-120.92074 -42.34008 18.315908 162 157 164
-120.67914 -42.276306 18.305027 144 143 145
-120.50986 -42.318649 18.292938 130 131 130
-120.27485 -42.330566 18.289335 150 145 152
-120.09131 -42.310841 18.317228 143 138 148
-119.90471 -42.302345 18.288702 119 118 127
-119.70588 -42.296856 18.310738 138 129 140
-119.53751 -42.309135 18.289206 117 117 125
-119.34513 -42.36483 18.292189 114 113 120
-119.18535 -42.397518 18.339268 161 153 166
-118.87866 -42.319542 18.276901 105 105 111
-118.75072 -42.299053 18.286081 91 88 93
-118.45184 -42.244198 18.312027 136 124 134
-114.87617 -42.294018 18.339941 137 134 137
-120.68639 -42.120953 18.263912 162 160 157
-120.51366 -42.146927 18.289753 145 144 143
-120.30423 -42.08485 18.286726 135 130 134
-120.09554 -42.135452 18.279251 146 145 152
-119.87472 -42.127407 18.2899 138 135 143
-119.71404 -42.134068 18.285492 157 150 159
-119.55025 -42.159122 18.296076 126 121 129
-119.27413 -42.04903 18.256588 113 116 120
-119.04466 -42.078327 18.308559 110 111 112
-118.90935 -42.056362 18.268827 90 92 93
-118.67974 -42.118965 18.307909 122 119 124
-118.58766 -42.029373 18.311829 136 132 137
-115.28726 -42.025856 18.238724 124 129 132
-115.07253 -42.052139 18.345278 134 121 127
-114.98073 -42.071205 18.303761 126 124 128
-114.78143 -42.0896 18.259418 132 127 129
-119.85062 -41.916878 18.265985 160 153 160
-119.7065 -41.867027 18.266491 155 150 157
-119.51725 -41.90704 18.276575 126 124 126
-119.35288 -41.907364 18.351839 126 130 130
-119.06586 -41.893372 18.269974 123 118 123
-118.90572 -41.891983 18.272045 112 111 114
-118.67487 -41.885853 18.301027 96 102 103
-118.57096 -41.89426 18.307571 108 109 112
-118.13214 -41.893406 18.365347 85 87 90
-117.81069 -41.83511 18.296185 121 115 119
-117.68678 -41.817158 18.369381 97 98 101
-115.44855 -41.889603 18.313568 133 132 138
-115.3255 -41.882732 18.30743 84 79 84
-115.0655 -41.844688 18.291895 132 132 130
-114.87858 -41.991074 18.345922 135 129 136
-119.88233 -41.791344 18.20195 167 164 171
-119.63802 -41.775288 18.24725 147 146 142
-119.45686 -41.721603 18.254486 134 131 134
-119.28835 -41.668964 18.309805 138 138 140
-119.07908 -41.702774 18.292322 134 135 137
-118.92367 -41.684078 18.299644 131 130 135
-118.68801 -41.683327 18.287701 106 109 111
-118.55116 -41.694725 18.32934 123 120 124
-117.96923 -41.75396 18.381779 85 87 88
-117.76904 -41.734314 18.378164 74 73 76
-117.13134 -41.612423 18.363161 159 161 156
-115.60697 -41.609905 18.373207 156 151 158
-115.26584 -41.628311 18.239779 98 99 104
-114.95199 -41.600578 18.29911 123 123 125
-119.44846 -41.473671 18.213951 133 133 139
-119.26382 -41.511723 18.295637 163 163 170
-119.09646 -41.50404 18.306503 144 147 151
-118.87766 -41.507595 18.294058 137 135 139
-118.69184 -41.489288 18.295967 132 128 131
-118.49739 -41.498871 18.29258 116 115 117
-118.37997 -41.485081 18.315647 124 120 123
-117.86436 -41.503868 18.361441 107 103 108
-117.71935 -41.501358 18.326504 98 98 98
-116.02864 -41.414337 18.3319 102 105 111
-115.91222 -41.408371 18.353119 131 132 141
-115.67496 -41.46661 18.325245 141 136 144
-115.54103 -41.42131 18.324013 98 98 105
-115.2782 -41.49786 18.273539 122 122 128
-119.24159 -41.320541 18.207169 169 171 178
-119.13897 -41.386864 18.310209 103 109 118
-118.84362 -41.33931 18.248268 130 132 143
-118.69363 -41.329033 18.294691 147 144 152
-118.50745 -41.307686 18.297972 133 131 135
-118.36317 -41.302387 18.320131 124 121 122
-117.68436 -41.278732 18.351801 107 106 108
-117.48444 -41.271477 18.307102 111 112 115
-117.27539 -41.266251 18.368221 94 94 99
-117.0717 -41.286369 18.297224 104 107 112
-116.97201 -41.277409 18.314732 84 89 90
-116.2588 -41.243065 18.324318 164 157 164
-116.11951 -41.279095 18.329351 137 137 145
-115.93005 -41.317024 18.299679 154 153 162
-115.72834 -41.376411 18.238575 156 152 159
-115.42298 -41.359447 18.226059 120 118 124
-115.25614 -41.290627 18.293554 97 96 99
-115.12258 -41.315193 18.295357 126 115 116
-118.61626 -41.178864 18.254875 166 165 181
-118.48182 -41.152966 18.252174 157 154 161
-118.32092 -41.089054 18.302454 148 142 146
-117.68257 -41.087051 18.321821 110 109 109
-117.49973 -41.093761 18.297714 105 107 105
-117.30459 -41.11684 18.329885 103 102 105
-117.07785 -41.080158 18.320044 97 97 99
-116.89591 -41.103622 18.307096 115 114 117
-116.72994 -41.083805 18.282454 146 141 145
-116.3634 -41.094414 18.343523 100 101 106
-116.07053 -41.127609 18.296589 146 143 148
-115.94054 -41.110142 18.224897 158 151 159
-115.29056 -41.114971 18.279724 105 104 106
-114.93738 -41.121727 18.371994 105 106 101
-118.68411 -40.983887 18.21244 142 137 134
-118.55116 -40.979034 18.381092 184 181 192
-118.2598 -40.940556 18.331177 161 152 159
-118.1385 -40.895226 18.33399 163 148 154
-117.8712 -40.845039 18.300531 158 151 161
-117.67621 -40.919991 18.290342 130 128 135
-117.51586 -40.902107 18.307766 125 121 125
-117.31933 -40.867516 18.321873 139 132 134
-117.06622 -40.894341 18.307575 138 134 139
-116.91494 -40.919453 18.309031 114 112 115
-116.7298 -40.890713 18.311939 149 141 146
-116.52324 -40.869835 18.283323 165 155 162
-116.30223 -40.913723 18.28895 142 134 140
-116.15115 -40.90163 18.288942 138 123 129
-115.69879 -40.967628 18.376268 151 135 145
-115.27332 -40.844543 18.299644 177 167 176
-115.07529 -40.924942 18.303448 134 134 133
-118.22143 -40.619179 18.244526 193 186 202
-118.07554 -40.729809 18.34193 188 177 185
-117.86568 -40.644089 18.310984 158 156 167
-117.71039 -40.687874 18.31221 160 158 167
-117.49383 -40.720821 18.285982 119 110 116
-117.28078 -40.736912 18.289179 175 159 168
-117.15054 -40.73278 18.308769 162 148 156
-116.67122 -40.663013 18.279821 166 157 168
-116.4702 -40.732056 18.260015 167 158 167
-116.302 -40.685471 18.296263 152 145 151
-116.1674 -40.762558 18.337601 98 94 101
-115.27171 -40.681511 18.296227 147 141 142
-115.12091 -40.753967 18.305334 134 129 131
-114.26105 -40.672756 18.274485 169 162 168
-117.8906 -40.504734 18.270546 166 162 167
-117.7822 -40.473934 18.323185 142 136 150
-117.09208 -40.561172 18.336615 167 163 164
-116.37216 -40.577133 18.328918 163 152 166
-115.27738 -40.481606 18.320555 148 138 145
-115.06662 -40.486923 18.263769 145 135 138
-114.96523 -40.463219 18.322699 164 153 159
-118.03644 -40.342728 18.242374 185 173 187
-115.40124 -40.319202 18.211729 164 159 166
-115.28187 -40.345661 18.261551 157 148 153
-115.07474 -40.299038 18.287247 176 163 171
-114.91557 -40.293381 18.281918 157 148 154
-115.06055 -40.142715 18.239079 176 165 181
-114.90347 -40.10593 18.275126 175 171 178
-114.34895 -40.091461 18.237694 154 138 147
-114.77492 -39.936928 18.23699 169 159 167
-114.54278 -39.86562 18.303888 161 153 159
-115.03104 -39.718887 18.228321 138 139 141
-114.90099 -39.677425 18.272861 132 129 131
-114.72195 -39.688339 18.303219 161 152 158
-114.55081 -39.780624 18.300274 140 135 142
-115.10452 -39.475708 18.295969 129 120 127
-114.91598 -39.495388 18.309731 152 145 148
-114.69328 -39.494366 18.335911 164 151 160
-114.55624 -39.488594 18.325247 166 153 164
-115.03762 -39.307953 18.280472 154 145 151
-114.90177 -39.274548 18.302664 156 144 149
-114.71016 -39.320744 18.329939 154 142 151
-114.57131 -39.295994 18.253918 86 78 93
-115.05508 -39.167686 18.285645 153 142 146
-114.90669 -39.105263 18.268324 161 147 156
-114.7571 -39.142918 18.319613 158 146 157
-116.72319 -54.372993 18.449797 142 146 158
-116.28244 -54.235226 18.497381 116 117 121
-116.73269 -54.12188 18.509094 138 136 150
-116.48473 -54.031391 18.486338 142 146 149
-116.29242 -54.068527 18.514475 122 125 129
-115.60853 -54.001141 18.552723 88 95 87
-115.56078 -54.079742 18.536705 112 121 120
-116.48572 -53.880608 18.484993 131 130 131
-116.32249 -53.887402 18.50296 145 144 149
-115.5944 -53.822651 18.585314 119 129 127
-116.49123 -53.679771 18.508196 135 136 134
-116.35501 -53.701359 18.447681 128 134 132
-116.06084 -53.76685 18.418182 86 97 93
-115.91046 -53.67194 18.507397 124 130 126
-115.68191 -53.668667 18.531301 109 118 116
-115.54598 -53.70496 18.578753 142 146 154
-115.36395 -53.627094 18.488831 116 118 113
-115.13414 -53.644722 18.572605 175 175 187
-116.51841 -53.521156 18.505407 127 130 127
-116.09399 -53.452301 18.49972 108 113 111
-115.89882 -53.534016 18.522194 133 134 131
-115.73762 -53.514103 18.557203 112 118 112
-115.50764 -53.505043 18.557484 141 143 140
-115.31466 -53.516552 18.558132 127 128 125
-115.19229 -53.536503 18.535395 110 115 108
-116.28808 -53.262997 18.555656 97 104 102
-116.04977 -53.302929 18.544243 138 139 133
-115.88836 -53.302834 18.514202 136 137 131
-115.69748 -53.296661 18.546022 132 134 128
-115.53139 -53.33432 18.506216 121 123 116
-117.03068 -53.034782 18.529058 98 104 92
-116.91728 -53.064167 18.479519 98 105 97
-116.27452 -53.10677 18.512188 125 132 123
-116.1134 -53.119484 18.554478 128 131 123
-115.88428 -53.106182 18.558035 119 122 116
-115.66181 -53.105591 18.503698 111 114 107
-115.54328 -53.105305 18.486973 136 140 133
-117.02361 -52.862545 18.552885 144 146 147
-116.89007 -52.916241 18.523308 124 125 124
-116.76953 -52.918442 18.506058 108 115 109
-116.43298 -52.879436 18.418583 107 110 101
-116.28429 -52.872139 18.5399 134 134 128
-116.09389 -52.9006 18.558121 127 128 123
-115.93364 -52.891731 18.519588 153 152 152
-117.02925 -52.688717 18.526463 164 158 157
-116.87075 -52.7174 18.547974 162 157 159
-116.75912 -52.689785 18.520079 155 153 156
-116.45169 -52.662521 18.474443 115 120 113
-116.32944 -52.694229 18.550684 148 146 145
-116.06693 -52.673447 18.563223 132 135 130
-115.91826 -52.677589 18.506672 114 117 114
-117.07063 -52.545147 18.563499 77 81 74
-116.90028 -52.484512 18.522152 146 144 143
-116.72403 -52.490135 18.519106 154 154 153
-116.4615 -52.483784 18.496773 157 156 152
-116.31274 -52.47258 18.520617 154 149 145
-116.11353 -52.488323 18.55714 157 150 150
-115.88459 -52.502975 18.537928 115 119 113
-115.77679 -52.547474 18.494284 117 121 115
-119.25909 -52.32811 18.429409 187 175 189
-119.14773 -52.29644 18.454287 171 156 169
-118.99195 -52.32214 18.430691 81 80 86
-116.88563 -52.325298 18.523602 148 147 144
-116.71034 -52.318901 18.500729 174 169 168
-116.49693 -52.344025 18.506647 147 147 140
-116.26263 -52.309368 18.502157 133 131 123
-116.09171 -52.270733 18.530073 172 166 160
-115.90348 -52.279556 18.519051 158 152 147
-115.73379 -52.293468 18.515774 127 126 126
-119.2431 -52.14188 18.460236 181 171 181
-119.17126 -52.148968 18.511139 181 163 177
-116.83586 -52.185108 18.588203 156 155 153
-116.78456 -52.190304 18.518103 182 178 175
-116.09053 -52.175323 18.584749 181 172 165
-115.87705 -52.171307 18.571316 154 145 142
-120.82859 -51.000095 18.407166 57 72 68
-120.45588 -51.008827 18.419052 173 170 168
-120.06844 -51.045891 18.427357 101 105 101
-119.95631 -51.035503 18.424387 112 119 114
-120.66399 -50.906403 18.420231 141 142 137
-120.44247 -50.945187 18.451775 152 153 150
-120.25915 -50.848225 18.446289 157 155 152
-120.08207 -50.84573 18.465034 155 151 148
-119.97594 -50.888699 18.46941 94 95 89
-119.74487 -50.826744 18.461288 88 100 88
-120.49448 -50.738209 18.43454 149 153 150
-120.27967 -50.696827 18.473888 165 166 160
-120.08485 -50.701885 18.502565 155 152 148
-119.92867 -50.681324 18.49922 147 143 141
-119.75913 -50.646744 18.437723 208 198 206
-120.89681 -50.447895 18.456228 140 139 138
-120.71894 -50.465858 18.475769 112 118 113
-120.26328 -50.504906 18.483774 144 150 146
-120.1108 -50.489674 18.5014 148 151 147
-119.9127 -50.496151 18.490072 161 159 157
-121.04603 -50.294987 18.468557 158 157 154
-120.8971 -50.29076 18.499472 159 160 156
-120.69828 -50.272465 18.466297 138 144 140
-120.51522 -50.267185 18.45422 120 128 122
-120.28839 -50.300571 18.479858 133 139 135
-120.0892 -50.309265 18.500622 153 154 150
-119.91148 -50.29855 18.460039 143 145 142
-119.78561 -50.323696 18.407471 172 175 168
-115.45918 -50.269482 18.514444 55 54 52
-115.38134 -50.363029 18.426353 46 49 42
-121.04247 -50.084347 18.48979 159 157 154
-120.90835 -50.106365 18.506157 162 162 157
-120.71101 -50.10265 18.496799 150 151 149
-120.50315 -50.109379 18.489489 146 151 146
