ply
format ascii 1.0
comment PCL generated
element vertex 1095
property float x
property float y
property float z
property uchar red
property uchar green
property uchar blue
element face 0
element camera 0
property float view_px
property float view_py
property float view_pz
property float x_axisx
property float x_axisy
property float x_axisz
property float y_axisx
property float y_axisy
property float y_axisz
property float z_axisx
property float z_axisy
property float z_axisz
property float focal
property float scalex
property float scaley
property float centerx
property float centery
property int viewportx
property int viewporty
property float k1
property float k2
end_header
-44.047695 0.53885394 0.70130813 170 156 135
-43.919373 0.5358423 0.70481765 142 136 115
-43.678516 0.49468276 0.69811845 143 140 108
-43.512474 0.51960367 0.702142 138 131 109
-43.361122 0.47923329 0.65636176 115 106 96
-42.853294 0.59145463 0.67330408 160 138 148
-42.444439 0.56432664 0.61280203 104 96 85
-49.831161 0.60346216 0.77559543 91 105 80
-49.600739 0.65570551 0.73592782 107 118 95
-49.520172 0.70375031 0.75801116 98 106 86
-49.315487 0.7164923 0.72901326 99 111 90
-49.1133 0.71006626 0.73169583 99 110 88
-48.927017 0.67958319 0.70737183 103 113 87
-48.722256 0.69213003 0.71723777 105 113 89
-48.513069 0.7173152 0.68576288 110 116 91
-48.319786 0.69755262 0.68198961 104 108 87
-48.096218 0.72363895 0.68145019 110 114 94
-47.902767 0.68441957 0.69124776 116 120 107
-47.714924 0.68508226 0.67875332 125 126 119
-47.508495 0.70986259 0.72678238 110 114 102
-47.308594 0.70205998 0.72641224 113 113 109
-47.111446 0.69579148 0.70736456 111 116 106
-46.903702 0.69098407 0.70005667 111 117 108
-46.707951 0.68205798 0.68016815 111 119 102
-46.51228 0.698062 0.66709906 96 106 80
-46.288643 0.7128135 0.6732586 97 110 78
-46.089905 0.70884299 0.69306839 106 117 83
-45.892475 0.69894123 0.68819332 95 106 73
-45.713184 0.70992017 0.68383002 106 118 81
-45.507172 0.70173866 0.6870594 107 118 78
-45.311756 0.72052419 0.68941784 110 115 79
-45.088844 0.69513875 0.67682046 115 122 85
-44.925789 0.69479614 0.66504514 108 115 81
-44.674767 0.6854592 0.68791276 113 124 83
-44.508919 0.67717242 0.70664835 113 120 87
-44.370544 0.70327812 0.69157428 114 117 92
-44.044163 0.68878174 0.70862865 147 143 113
-43.9132 0.69390059 0.70849317 131 134 100
-43.71035 0.68567574 0.71296048 131 131 97
-43.546459 0.67186111 0.66202265 109 105 89
-43.308834 0.63525915 0.6348362 148 132 126
-43.057358 0.70154923 0.64909911 165 146 153
-42.877598 0.70023263 0.64771903 154 139 139
-42.718525 0.71948195 0.66986328 161 144 144
-42.477718 0.71450132 0.67086965 148 134 137
-42.326752 0.70715272 0.62040651 157 152 139
-41.749874 0.74515522 0.61789465 133 121 114
-49.81131 0.88436079 0.78646111 134 147 119
-49.687801 0.97089595 0.78977388 88 98 76
-49.519703 0.877491 0.75737494 106 118 95
-49.284512 0.90140378 0.74220198 98 109 90
-49.091465 0.91583616 0.72141343 102 114 93
-48.89249 0.87673932 0.71853113 100 112 88
-48.708954 0.89583039 0.70581245 102 112 89
-48.514809 0.90229052 0.70146132 110 115 91
-48.310078 0.90826786 0.69285738 110 116 90
-48.109734 0.91441697 0.67590714 109 115 92
-47.912544 0.89022076 0.68615443 112 116 98
-47.698082 0.88355929 0.66708517 121 122 107
-47.498001 0.89997345 0.68587291 125 126 116
-47.312572 0.92676073 0.70580381 116 119 104
-47.102184 0.916403 0.68349266 111 116 102
-46.894852 0.88332415 0.70757079 115 118 109
-46.699234 0.88897413 0.68448478 113 117 101
-46.502384 0.88967091 0.69143921 97 109 83
-46.300713 0.9218933 0.66738212 100 111 84
-46.093857 0.90287459 0.666794 106 114 88
-45.86451 0.88253886 0.66040593 123 126 100
-45.695721 0.87879318 0.67318577 118 127 97
-45.503384 0.89798981 0.69841182 118 126 93
-45.315826 0.87908089 0.69397211 113 115 81
-45.102093 0.89363521 0.66771019 120 123 89
-44.915535 0.91128731 0.67912072 108 113 84
-44.682682 0.88951808 0.65774804 110 116 87
-44.496689 0.89391243 0.64205825 115 117 94
-44.337955 0.9109599 0.66581392 115 115 100
-44.05732 0.90642059 0.68252277 106 109 76
-43.89603 0.89554667 0.72095799 136 134 103
-43.700897 0.91093618 0.70254302 129 124 97
-43.570847 0.87864131 0.67493284 119 109 97
-43.212231 0.88350993 0.68178368 194 165 196
-42.987267 0.93270481 0.63668346 192 176 179
-42.68079 0.87363482 0.65232825 157 144 137
-42.526566 0.8538304 0.66880035 151 138 133
-42.304932 0.91345632 0.6965639 151 138 140
-42.182129 0.9235301 0.71157551 146 134 144
-41.892834 0.89173579 0.65602589 125 116 109
-49.62883 1.1821209 0.7843647 106 116 91
-49.46447 1.1051879 0.77752471 104 112 91
-49.288559 1.0971335 0.75139874 105 114 93
-49.095005 1.0940418 0.74884003 104 112 92
-48.903519 1.0874565 0.70788044 102 110 87
-48.701668 1.0939049 0.70625544 102 109 86
-48.49818 1.0910925 0.69813299 105 112 86
-48.315266 1.0944175 0.67714274 100 108 81
-48.099327 1.1044213 0.66660404 104 110 86
-47.899075 1.092689 0.67532605 112 115 92
-47.708824 1.0688633 0.66977417 115 116 98
-47.505772 1.1049836 0.69827104 110 115 99
-47.297577 1.1158975 0.69877577 109 114 97
-47.094021 1.1085584 0.70004469 120 122 113
-46.882706 1.1068305 0.70489359 122 123 113
-46.705338 1.0798552 0.70287114 113 119 101
-46.493687 1.0950612 0.69347686 115 119 106
-46.300152 1.0885032 0.69036645 113 118 97
-46.102444 1.1091777 0.67370462 110 115 93
-45.895889 1.1163976 0.6877566 118 122 102
-45.70842 1.1096251 0.66023833 117 120 98
-45.502338 1.0910002 0.68065244 119 121 98
-45.303688 1.094593 0.6972025 111 114 89
-45.086777 1.0944184 0.67720085 126 127 108
-44.9007 1.1122847 0.67055821 119 119 106
-44.688972 1.1034865 0.6639756 125 125 113
-44.501194 1.0932658 0.64371806 128 126 114
-44.287731 1.063364 0.63373107 141 137 129
-44.109119 1.1185569 0.63980812 141 136 132
-43.887497 1.0501813 0.67260754 128 123 92
-43.74044 1.0477356 0.65156251 141 131 112
-43.565334 1.0788693 0.61897135 159 146 145
-43.37492 1.1215127 0.63121319 170 150 162
-43.078339 1.1684085 0.6395731 152 134 145
-42.896221 1.100075 0.64169788 158 138 149
-42.768589 1.1144485 0.60318232 163 145 157
-42.464962 1.0489018 0.63058472 150 132 141
-42.261158 1.0990211 0.67285383 144 129 134
-42.109589 1.0653795 0.68142629 135 123 125
-49.674416 1.3338892 0.78795832 95 106 82
-49.476261 1.3424104 0.77733678 93 103 78
-49.27536 1.3076526 0.76654804 94 105 83
-49.077438 1.3209932 0.7597397 96 107 81
-48.880558 1.2766817 0.727961 101 109 83
-48.691605 1.2784941 0.70070904 100 106 81
-48.512783 1.2933335 0.69311386 105 111 88
-48.306904 1.3064649 0.69037879 106 114 90
-48.11882 1.3166257 0.6678521 103 110 87
-47.893417 1.2960826 0.68587226 114 118 101
-47.704269 1.2817931 0.69706488 108 113 94
-47.489429 1.298201 0.70164567 109 114 98
-47.288639 1.3015491 0.6943298 111 119 98
-47.093506 1.3041785 0.69621307 118 121 106
-46.896893 1.3117957 0.71110034 121 122 108
-46.712608 1.2878574 0.71138704 122 123 111
-46.505543 1.3305849 0.70284456 125 126 114
-46.298443 1.3030975 0.70856094 116 119 101
-46.111401 1.3066151 0.69653583 113 115 97
-45.894894 1.2786046 0.70368028 104 113 86
-45.679256 1.2952921 0.69559038 106 112 87
-45.50362 1.2859572 0.70179921 109 113 91
-45.305145 1.2877773 0.69842237 111 114 94
-45.095287 1.3211247 0.67688537 115 118 100
-44.917324 1.3304766 0.67084122 116 119 105
-44.709286 1.2979199 0.65646768 117 119 105
-44.488457 1.3031461 0.68140209 131 130 121
-44.295097 1.2869629 0.65664703 129 128 119
-44.084415 1.3032347 0.67468911 126 126 121
-43.895851 1.2999855 0.6344381 133 129 127
-43.737358 1.3480444 0.64040673 141 134 134
-43.555496 1.3217704 0.61207366 136 131 129
-43.325611 1.305479 0.61299753 149 136 144
-43.06662 1.2840563 0.62280178 148 133 142
-42.920479 1.3761427 0.65461445 150 135 143
-42.701962 1.3173407 0.62955976 157 142 154
-42.423172 1.3085471 0.6093483 155 138 141
-42.349812 1.3246272 0.6122551 166 143 163
-41.126137 1.2149843 0.63606596 136 138 137
-49.692295 1.4741253 0.78778529 91 104 77
-49.504219 1.5580111 0.77313077 94 107 80
-49.294788 1.5264879 0.76553857 99 110 84
-49.098331 1.5013336 0.73595029 90 102 75
-48.892036 1.5066538 0.73302996 104 114 87
-48.70396 1.4852551 0.71686411 106 115 89
-48.484516 1.4881364 0.69448274 101 110 83
-48.290775 1.5059935 0.67957449 110 117 93
-48.101116 1.5269585 0.69416332 112 118 98
-47.884422 1.5132279 0.66521496 108 112 93
-47.672626 1.4864368 0.67738259 113 116 101
-47.51228 1.4959735 0.70327598 106 111 93
-47.289833 1.4976804 0.70385373 119 121 107
-47.098213 1.5059946 0.73402894 109 114 95
-46.914204 1.5147451 0.71809745 115 117 100
-46.684078 1.4859065 0.71947885 119 122 106
-46.50536 1.4979216 0.72410548 118 123 107
-46.300716 1.5059806 0.71135467 125 126 116
-46.104595 1.4792571 0.71358579 126 126 114
-45.88866 1.4826152 0.70880574 114 119 100
-45.679485 1.4634295 0.70977283 103 111 86
-45.483654 1.4765412 0.72208697 103 110 86
-45.277233 1.4855546 0.68681252 103 109 87
-45.097042 1.4956266 0.67399627 106 112 93
-44.901363 1.5113405 0.67555577 106 111 92
-44.710579 1.5134208 0.66828841 104 109 89
-44.518742 1.5052551 0.67999285 120 123 108
-44.288464 1.4899293 0.6945802 122 123 114
-44.102131 1.5238881 0.68729877 127 126 122
-43.931637 1.5151645 0.64956439 126 125 120
-43.733044 1.4963452 0.64613467 132 128 125
-43.535152 1.5146627 0.64813149 135 128 130
-43.349773 1.5231161 0.66530722 136 132 134
-43.078308 1.5502043 0.60743976 147 134 142
-42.914211 1.552534 0.64446902 149 137 147
-42.777252 1.5260017 0.62967741 146 131 141
-42.544895 1.5998089 0.61809826 161 161 149
-50.103348 1.6381023 0.79811311 80 92 72
-49.673401 1.7009757 0.78033549 96 107 81
-49.501583 1.7576824 0.77006578 107 116 92
-49.315395 1.7365279 0.76663607 100 111 86
-49.099319 1.6998277 0.7567451 101 112 87
-48.909126 1.7019172 0.73217958 101 111 87
-48.696793 1.6843369 0.71828371 107 115 90
-48.484936 1.6978575 0.69256347 111 118 93
-48.310101 1.7096 0.69388133 107 116 92
-48.126308 1.7262899 0.68685597 107 117 93
-47.930412 1.7047585 0.68105727 111 118 98
-47.721699 1.7067916 0.67965508 107 111 94
-47.505943 1.6617601 0.68922508 112 113 101
-47.304825 1.7045193 0.68076271 118 119 108
-47.104786 1.6967292 0.70223719 113 115 100
-46.881115 1.6956605 0.71257973 124 123 112
-46.714249 1.6857972 0.70552003 118 119 105
-46.50563 1.6831868 0.69344389 128 130 119
-46.302948 1.6933831 0.67442644 134 132 126
-46.114498 1.7249368 0.65615803 140 135 131
-45.909874 1.7001895 0.65074408 130 129 119
-45.721024 1.6954428 0.64363438 137 136 126
-45.521294 1.7324873 0.65384877 123 125 108
-45.299683 1.6819993 0.68103874 105 113 88
-45.098354 1.6764998 0.68798393 107 114 92
-44.899624 1.6816788 0.69492006 112 117 98
-44.724232 1.6926847 0.68049771 105 110 91
-44.505997 1.6948814 0.68313354 109 116 95
-44.334568 1.6824864 0.6871562 113 118 103
-44.105061 1.6985644 0.70776457 128 127 123
-43.894306 1.7130821 0.67446882 131 129 126
-43.705334 1.6965846 0.65905219 131 127 127
-43.508553 1.7195467 0.64860094 127 121 124
-43.301048 1.6834568 0.63481265 136 129 134
-43.140202 1.6987216 0.65012616 138 127 134
-42.900597 1.7057743 0.62783003 146 133 140
-42.665852 1.6981676 0.65289712 145 129 139
-42.504292 1.6616222 0.63189459 146 132 144
-42.314869 1.6252576 0.64750624 147 133 143
-42.123901 1.742052 0.62343264 154 140 155
-49.908787 1.8295218 0.77945113 102 114 86
-49.696812 1.924997 0.77596909 103 114 87
-49.506046 1.9181063 0.77255809 104 116 91
-49.308426 1.9180492 0.75610286 103 114 91
-49.098171 1.9211645 0.74688822 94 114 82
-48.891655 1.8946043 0.74259239 101 113 91
-48.709328 1.8834203 0.72079545 108 119 98
-48.512581 1.8843721 0.69314837 107 115 93
-48.301067 1.8876586 0.68028057 112 121 102
-48.110153 1.9272118 0.68668735 106 116 96
-47.900654 1.9100051 0.67366272 109 118 96
-47.69281 1.9081525 0.67771333 108 112 93
-47.507259 1.8815624 0.68713778 109 111 96
-47.296246 1.8977666 0.68320847 111 114 99
-47.113155 1.9173157 0.67649406 114 116 101
-46.91748 1.9162862 0.68440831 118 119 104
-46.706303 1.8913192 0.68840802 130 128 119
-46.506367 1.8911908 0.68405211 138 133 128
-46.312145 1.875054 0.66527921 141 137 131
-46.127071 1.9291943 0.6675629 136 132 128
-45.924454 1.9180031 0.64278412 137 133 127
-45.719349 1.9018418 0.63647711 136 134 125
-45.529449 1.8943392 0.63606894 139 137 127
-45.345737 1.9121504 0.64362335 113 118 100
-45.105488 1.8789189 0.66046613 108 114 92
-44.922569 1.863817 0.6603694 101 110 86
-44.701942 1.8903162 0.69303948 105 113 93
-44.519604 1.882365 0.66264373 102 110 88
-44.316998 1.8650334 0.70331317 122 126 114
-44.086132 1.8656881 0.71226174 127 128 123
-43.897079 1.9058176 0.7266224 125 125 123
-43.696968 1.8844365 0.72664708 128 127 125
-43.484375 1.9185873 0.68265671 132 129 130
-43.300365 1.9115697 0.703493 136 131 134
-43.088657 1.9155737 0.66381663 142 134 141
-42.903515 1.9370651 0.684614 148 137 147
-42.708359 1.9459958 0.68545824 153 139 152
-42.496822 1.9015857 0.65123487 146 132 144
-42.2976 1.9258997 0.63967919 144 132 143
-41.968594 1.925012 0.65669185 152 139 155
-49.829494 2.0407424 0.78021979 106 121 92
-49.614639 2.1693726 0.77679443 89 105 79
-49.489197 2.1271911 0.77331817 104 113 90
-49.314167 2.1247568 0.75679165 95 106 83
-49.119278 2.1166561 0.74405169 97 110 87
-48.902618 2.1066306 0.73800117 106 116 95
-48.689457 2.0980682 0.72344851 111 120 99
-48.495808 2.089922 0.71071208 107 117 96
-48.301662 2.0853176 0.6874392 109 117 98
-48.094574 2.1288853 0.69115388 107 114 94
-47.896305 2.1181793 0.68395203 110 116 97
-47.710098 2.0928197 0.66563827 101 109 88
-47.503929 2.0930185 0.66780406 102 109 90
-47.29195 2.1004362 0.69170856 111 117 102
-47.094173 2.1171398 0.66868579 109 111 94
-46.896191 2.1160901 0.66835183 119 120 99
-46.708073 2.0887356 0.66990185 122 125 105
-46.499268 2.1138284 0.6828438 130 126 113
-46.297462 2.0722198 0.68438858 131 127 118
-46.097191 2.1051731 0.67393088 126 125 116
-45.89645 2.1261988 0.67106473 135 131 124
-45.707687 2.1048102 0.64905822 136 133 126
-45.50758 2.079303 0.64822805 131 131 121
-45.303051 2.0886693 0.64161861 136 133 127
-45.10516 2.1169517 0.64638537 123 126 111
-44.901184 2.1082149 0.63603914 117 125 107
-44.701767 2.0901163 0.64842755 114 122 102
-44.474941 2.1155453 0.66584635 112 120 100
-44.299103 2.1007595 0.6678167 110 118 99
-44.117161 2.0676801 0.67538804 108 116 100
-43.903267 2.0762911 0.6956026 112 117 105
-43.675125 2.1235144 0.73255539 130 124 126
-43.501236 2.0606222 0.70509839 135 129 134
-43.31897 2.0802147 0.73618633 141 134 139
-43.101055 2.0996757 0.71305406 145 134 143
-42.890839 2.1151385 0.71143764 145 133 143
-42.693233 2.0920036 0.70588642 150 140 150
-42.473949 2.1215715 0.64345205 157 143 156
-42.344799 2.1107576 0.69058925 158 145 158
-42.1385 2.1541705 0.63830626 162 145 162
-41.940704 2.1223531 0.67829847 153 138 155
-49.518879 2.2887151 0.78608876 81 98 71
-49.263699 2.3195701 0.76282221 95 105 83
-49.095848 2.2878146 0.75799346 93 106 82
-48.908672 2.3052645 0.75263697 99 111 89
-48.697029 2.2894568 0.72132885 100 108 88
-48.500355 2.3019612 0.67289764 110 116 97
-48.305954 2.3028581 0.69960016 109 118 97
-48.093124 2.3068764 0.67592579 106 114 93
-47.891613 2.3024981 0.67030227 111 120 101
-47.706161 2.2899294 0.66364419 104 113 94
-47.519421 2.3092279 0.66963702 106 115 95
-47.30854 2.3129349 0.68317091 106 112 95
-47.083656 2.3250995 0.66033322 114 117 98
-46.898628 2.3175259 0.6623379 122 125 103
-46.683693 2.2965698 0.6681664 129 127 109
-46.473862 2.2813325 0.67344904 127 127 111
-46.275402 2.2876334 0.68291658 123 124 109
-46.076412 2.3050528 0.69760489 129 126 115
-45.881783 2.3198588 0.68427765 123 124 106
-45.673496 2.2980204 0.67470592 120 123 109
-45.471294 2.2965577 0.6689229 126 127 116
-45.271931 2.2898784 0.65366429 121 124 111
-45.066399 2.3026059 0.65381521 129 130 120
-44.883198 2.3291018 0.65743995 127 127 117
-44.672169 2.3247225 0.64760756 124 127 112
-44.483665 2.3115273 0.64586103 113 120 101
-44.292351 2.35132 0.63070351 103 111 88
-44.09473 2.3161747 0.64373606 107 114 96
-43.923512 2.274013 0.67109257 102 111 95
-43.747581 2.3089068 0.68167096 95 104 88
-43.519428 2.2381842 0.71214706 120 115 116
-43.299377 2.2958679 0.77143693 136 130 134
-43.077717 2.3538003 0.74132538 136 127 135
-42.866863 2.2956703 0.73479986 143 133 145
-42.712421 2.2659042 0.6985423 148 136 148
-42.503902 2.2320998 0.68960971 154 143 154
-42.290466 2.3246405 0.6807574 150 137 152
-42.079605 2.3191044 0.67671663 150 136 151
-41.944347 2.2983658 0.69567442 150 137 154
-49.48674 2.4153485 0.79547977 95 107 83
-49.290939 2.4944832 0.76943988 96 109 84
-49.089855 2.5214512 0.76505935 92 108 83
-48.898495 2.4858477 0.74526423 96 108 86
-48.694153 2.4833248 0.73656917 99 110 88
-48.503082 2.4957786 0.69746566 109 116 95
-48.281116 2.5138764 0.68887848 103 113 91
-48.087212 2.5125153 0.68488526 108 116 96
-47.900181 2.5042446 0.66519785 111 117 100
-47.694321 2.5004663 0.6831224 116 120 105
-47.478001 2.5160511 0.66616273 111 116 101
-47.282803 2.4973218 0.66180354 112 115 100
-47.067696 2.5357296 0.65970349 111 115 96
-46.889999 2.5074451 0.67554027 115 118 101
-46.694576 2.5050428 0.6739195 121 123 105
-46.473381 2.4880345 0.68721569 131 130 117
-46.284786 2.473248 0.67357308 123 126 109
-46.088463 2.4950333 0.69387335 124 125 110
-45.900425 2.4997709 0.69871527 127 124 111
-45.697479 2.5155947 0.69326973 125 124 111
-45.492447 2.5014808 0.69884145 125 126 115
-45.282848 2.4899879 0.69215512 125 129 115
-45.071587 2.4821556 0.69453639 123 128 115
-44.888672 2.5098996 0.68978274 120 127 109
-44.701008 2.5196667 0.6627568 126 128 115
-44.497177 2.4968033 0.65914249 119 121 107
-44.295387 2.5308425 0.6652171 106 114 92
-44.098595 2.507056 0.65827072 105 112 92
-43.916241 2.5074432 0.62516683 98 105 84
-43.645596 2.4700792 0.7274105 118 121 111
-43.323311 2.4937167 0.78475058 127 121 124
-43.05191 2.5399518 0.7604444 134 127 132
-42.891476 2.5162587 0.71510649 141 133 134
-42.727837 2.5006182 0.77714229 125 115 123
-42.501751 2.4529142 0.73550403 144 133 144
-42.309246 2.4875309 0.77129984 145 134 148
-42.059605 2.492461 0.70383072 146 137 151
-41.914749 2.480809 0.71452743 140 130 146
-49.447136 2.6504266 0.77001882 75 89 65
-49.248329 2.7609072 0.77905595 100 110 89
-49.105881 2.7138872 0.74900311 96 108 88
-48.895782 2.699733 0.7318731 95 108 85
-48.681046 2.6617949 0.72324616 101 111 89
-48.480896 2.704468 0.72560084 109 117 97
-48.295509 2.6881347 0.68575919 102 113 89
-48.082355 2.7053099 0.69522822 101 113 90
-47.908913 2.697391 0.69887 104 113 93
-47.712555 2.6959324 0.69074661 100 109 91
-47.515965 2.7071245 0.6686607 107 112 94
-47.301456 2.7119818 0.66557902 110 114 98
-47.110741 2.7076681 0.67479402 120 120 109
-46.91507 2.6976287 0.67132992 120 120 108
-46.690891 2.7090166 0.68792564 117 121 104
-46.510723 2.6932132 0.67328155 124 126 110
-46.312473 2.6756771 0.6794253 127 128 113
-46.121475 2.6973524 0.69438118 122 123 110
-45.912857 2.7041883 0.69397724 124 125 111
-45.698704 2.7123544 0.70812929 129 129 117
-45.509567 2.7015176 0.70532411 135 132 127
-45.311867 2.6854119 0.70380825 129 129 123
-45.10006 2.6800086 0.71487081 131 133 122
-44.911087 2.6999288 0.71347141 119 126 108
-44.705761 2.7152629 0.68612951 131 133 122
-44.506397 2.6921847 0.67196947 124 127 113
-44.309166 2.7226701 0.66421837 129 130 120
-44.13063 2.6948833 0.67040753 113 117 101
-43.907692 2.6976843 0.64295751 98 104 86
-43.710106 2.7060795 0.64842808 99 107 88
-43.584885 2.6113961 0.61318493 80 90 68
-43.085876 2.6584074 0.77340603 129 123 127
-42.836826 2.6995263 0.74339867 140 135 137
-42.710175 2.6284316 0.74012709 142 133 139
-42.590809 2.7624195 0.78244638 134 122 132
-41.962425 2.6645999 0.70981789 124 117 133
-49.375511 2.8991354 0.79376829 88 103 80
-49.1091 2.9142134 0.75862628 89 105 83
-48.917324 2.8969057 0.74480373 93 108 86
-48.707722 2.889432 0.72016966 95 106 85
-48.508404 2.8925056 0.71860409 104 113 91
-48.31749 2.91184 0.71302915 105 115 91
-48.104843 2.8981199 0.69716305 102 113 90
-47.898067 2.900388 0.68934399 102 113 90
-47.716751 2.8927577 0.68524677 100 111 89
-47.504696 2.8804958 0.68736523 103 109 91
-47.310307 2.911804 0.66896152 106 112 92
-47.112236 2.9086735 0.66900378 110 114 96
-46.904232 2.9011068 0.67039287 117 118 105
-46.704426 2.9052937 0.6737628 119 120 106
-46.508598 2.8670886 0.65618265 116 120 103
-46.314713 2.8897536 0.67684102 120 123 110
-46.112431 2.8957167 0.69361335 124 128 117
-45.913528 2.9053707 0.69692755 121 124 109
-45.709267 2.901459 0.70370591 121 122 109
-45.517708 2.9015653 0.69743246 130 128 120
-45.31049 2.9002547 0.70854205 139 136 129
-45.107227 2.8964355 0.70634848 143 141 131
-44.907661 2.9037855 0.72129273 132 134 123
-44.714592 2.9037688 0.72408009 127 131 118
-44.519428 2.8973691 0.70483327 126 132 118
-44.326187 2.9057486 0.69861841 128 132 122
-44.111629 2.8941495 0.67718929 126 128 119
-43.921307 2.9081624 0.67127514 110 115 102
-43.711533 2.9018259 0.63981849 102 104 90
-43.512642 2.9123702 0.62021893 95 99 83
-43.299252 2.930371 0.61647344 97 104 87
-42.782066 2.836504 0.74764776 127 116 124
-49.554115 3.0599034 0.79986787 96 108 86
-49.3755 3.1704235 0.78663898 86 102 76
-49.074493 3.0835004 0.76823217 82 100 77
-48.911247 3.0932622 0.74724567 95 108 88
-48.709064 3.0999675 0.72203076 102 113 93
-48.510372 3.0890884 0.70124793 99 112 90
-48.290699 3.1041362 0.68697649 100 110 87
-48.09985 3.0882123 0.69739729 106 116 94
-47.897476 3.1284928 0.67208189 101 112 90
-47.705814 3.1134851 0.65647262 108 116 94
-47.510189 3.0845885 0.67561418 103 110 91
-47.293087 3.1001785 0.6686101 106 111 94
-47.110523 3.097496 0.6541087 108 112 95
-46.917366 3.1073551 0.67270005 115 119 103
-46.718773 3.1090689 0.67386121 118 120 106
-46.514317 3.0917597 0.67729723 119 123 108
-46.306343 3.0896597 0.68969351 122 124 115
-46.101959 3.0870574 0.69168073 122 127 115
-45.895004 3.1106386 0.71031022 125 128 118
-45.705021 3.1206968 0.70527786 123 125 114
-45.508038 3.1032062 0.71526402 130 127 123
-45.29974 3.0951681 0.71836948 129 131 123
-45.105869 3.0855649 0.72056502 143 138 136
-44.897186 3.1152866 0.71250957 152 144 145
-44.690292 3.0985165 0.72113514 141 141 138
-44.491936 3.1045413 0.71515042 138 138 133
-44.287506 3.1104066 0.7057761 142 142 137
-44.102604 3.0923312 0.69032681 138 136 132
-43.890572 3.088721 0.67726785 117 119 111
-43.687614 3.1175585 0.66516173 105 108 96
-43.495575 3.0938733 0.64554137 104 108 96
-43.31274 3.0953999 0.62583345 90 97 82
-43.154995 3.0788217 0.61448288 127 127 115
-49.115318 3.3420615 0.78110647 93 107 82
-48.892529 3.2991238 0.75519818 93 105 85
-48.71656 3.2744355 0.73763847 96 108 88
-48.504841 3.2564516 0.69802207 97 107 88
-48.314732 3.3007004 0.68352699 102 111 91
-48.085476 3.2884405 0.67992079 106 115 96
-47.908958 3.3062854 0.66791797 102 113 94
-47.699818 3.287436 0.67337799 113 122 102
-47.510277 3.2936392 0.65589821 108 116 97
-47.292709 3.2905872 0.66633654 108 114 98
-47.098507 3.3004808 0.66702294 110 116 99
-46.889351 3.292835 0.65379632 111 118 99
-46.68874 3.2947893 0.67176622 115 121 103
-46.491062 3.2987063 0.66776735 115 119 103
-46.291958 3.2871454 0.6770075 120 125 110
-46.080746 3.2845042 0.69226724 124 127 115
-45.89941 3.309623 0.69783777 124 128 115
-45.6908 3.2999136 0.71307033 127 126 119
-45.483299 3.2924385 0.7105394 130 130 120
-45.291191 3.2905912 0.73629153 119 125 118
-45.08876 3.2765744 0.72333878 142 138 140
-44.873875 3.3025846 0.73141116 144 138 137
-44.682426 3.3098397 0.72699541 139 134 140
-44.484962 3.2967732 0.72304076 132 129 129
-44.293362 3.2839959 0.70997924 132 129 130
-44.087498 3.2796021 0.70867765 125 124 121
-43.887081 3.2907469 0.68625206 125 125 123
-43.699593 3.3260686 0.66178852 123 120 123
-43.482422 3.3089485 0.64752012 109 110 105
-43.302826 3.2808609 0.62492746 104 107 97
-43.07901 3.3127682 0.62448132 108 107 99
-42.869881 3.3455026 0.60795474 122 120 115
-49.075298 3.5093589 0.7584877 94 110 90
-48.854984 3.4852841 0.74953604 91 106 83
-48.67289 3.467299 0.75111443 97 111 89
-48.485691 3.4475372 0.71547735 95 106 84
-48.275806 3.4769523 0.6862188 92 103 81
-48.0868 3.4855702 0.68335646 98 109 85
-47.871006 3.5010843 0.67776448 104 115 95
-47.679379 3.4983137 0.64950323 107 116 97
-47.476814 3.4846945 0.64744794 109 117 101
-47.294392 3.4788032 0.64444631 114 121 105
-47.088104 3.4945686 0.65249795 110 118 100
-46.868057 3.5012984 0.64979094 112 119 102
-46.674461 3.5049412 0.65769166 110 119 100
-46.465576 3.4915888 0.65605444 110 116 101
-46.276958 3.4944777 0.65344614 112 117 103
-46.085037 3.468925 0.67783004 114 119 106
-45.884945 3.5046356 0.69593847 112 118 105
-45.68676 3.5148001 0.68701893 118 120 110
-45.489922 3.4947939 0.71530962 133 131 124
-45.289848 3.4942672 0.72925383 123 125 121
-45.088314 3.4808285 0.72904009 134 132 133
-44.89917 3.4907897 0.73484898 137 133 136
-44.698051 3.5148938 0.72533774 134 132 134
-44.496834 3.4876587 0.72318381 140 137 142
-44.29282 3.4899616 0.72397298 154 147 158
-44.104523 3.4792116 0.70863509 153 147 159
-43.89418 3.4977894 0.70231366 131 131 134
-43.725643 3.5163889 0.68449932 121 119 123
-43.535282 3.5093913 0.66756171 118 114 116
-43.345394 3.5104356 0.66039628 114 113 114
-43.095951 3.4966249 0.63427126 115 111 112
-42.861546 3.463747 0.61835688 119 114 114
-42.73061 3.5397811 0.60872424 117 112 114
-42.549637 3.5629692 0.60550201 115 109 110
-48.813828 3.7633543 0.73773766 105 116 94
-48.623146 3.6823571 0.75043893 94 109 83
-48.450428 3.6556513 0.72228914 93 107 80
-48.267399 3.6439772 0.6969474 99 113 85
-48.054661 3.6852057 0.68496585 98 111 83
-47.86945 3.7077785 0.65516913 100 114 86
-47.694054 3.7054217 0.64096904 98 108 88
-47.494175 3.6926465 0.63833201 95 106 88
-47.326202 3.6988869 0.6383276 108 116 101
-47.113205 3.6904285 0.63738286 106 112 98
-46.873348 3.7008677 0.64601254 108 113 98
-46.670818 3.7090111 0.65395713 107 113 98
-46.503891 3.6900792 0.63825494 114 119 106
-46.30146 3.6761944 0.65230453 113 119 104
-46.101776 3.6949534 0.66371971 111 115 104
-45.90987 3.6986732 0.66810745 110 116 102
-45.692368 3.7093837 0.68443751 114 117 106
-45.503918 3.6950212 0.70402277 117 120 110
-45.310783 3.6963191 0.7268551 122 125 115
-45.115017 3.689805 0.72836435 132 131 131
-44.922192 3.6926053 0.70975524 145 143 149
-44.708351 3.7035708 0.69974738 128 132 133
-44.515213 3.7093213 0.70981884 146 138 152
-44.326225 3.6864042 0.72903883 146 139 147
-44.115738 3.6857541 0.72436416 144 137 149
-43.911491 3.6996582 0.71355641 137 132 139
-43.714043 3.7247322 0.69982857 135 130 138
-43.542782 3.7082033 0.68723482 131 127 134
-43.342709 3.7266326 0.66456902 129 125 131
-43.146774 3.7044556 0.64438695 138 130 138
-42.957619 3.6611717 0.62193847 134 124 131
-42.738838 3.6385884 0.61646712 120 114 115
-42.546741 3.6961911 0.61742079 136 124 135
-48.582775 3.9116302 0.7385273 102 115 90
-48.325645 3.8539755 0.68931437 93 109 80
-48.131844 3.9008386 0.67840517 101 115 87
-47.90361 3.8945847 0.64958072 102 115 86
-47.699776 3.9111812 0.65511864 101 112 90
-47.504696 3.8829536 0.64814949 97 109 88
-47.302002 3.8782177 0.65415919 102 113 93
-47.10648 3.9018354 0.64769208 100 107 89
-46.886692 3.8905306 0.65142494 107 113 97
-46.674648 3.8877721 0.64628857 106 112 98
-46.477825 3.8976469 0.63955379 113 117 107
-46.306534 3.8927698 0.62935227 113 117 105
-46.105698 3.8885946 0.64048207 122 123 113
-45.919823 3.8902338 0.6558848 110 116 105
-45.727703 3.895153 0.67549932 119 120 112
-45.521942 3.8960688 0.69845575 117 120 112
-45.323933 3.896873 0.70303613 118 122 112
-45.108273 3.9004736 0.68539608 133 135 132
-44.91188 3.9039025 0.69742918 134 134 136
-44.700123 3.9111125 0.69777507 134 135 137
-44.52177 3.8875351 0.71543723 143 138 148
-44.296368 3.9190373 0.70592505 142 133 144
-44.105412 3.914047 0.71845347 149 141 155
-43.89333 3.897516 0.71395797 147 139 152
-43.711273 3.8837144 0.71759915 143 134 146
-43.511864 3.9184983 0.6941694 133 127 134
-43.325352 3.9276855 0.67961097 121 118 122
-43.108929 3.8924971 0.65706754 143 130 146
-42.885128 3.9024658 0.64403123 132 122 133
-42.695625 3.816061 0.63004065 136 126 137
-48.271633 4.0204787 0.68149537 99 112 84
-48.142365 4.0392628 0.67038774 98 111 80
-47.902897 4.0705142 0.64049906 97 110 81
-47.69709 4.1249199 0.6507501 92 106 79
-47.51725 4.0703473 0.6490981 89 105 81
-47.322052 4.0639763 0.63541472 95 106 87
-47.092178 4.0803199 0.62925267 95 105 86
-46.895821 4.0958371 0.63248575 99 105 90
-46.718201 4.0742974 0.63405275 100 105 92
-46.498291 4.072989 0.63090104 107 114 102
-46.300449 4.0987339 0.63392371 110 116 103
-46.102932 4.085712 0.63728112 113 116 106
-45.911354 4.0934153 0.64468122 109 115 105
-45.690559 4.0910721 0.6535033 108 113 105
-45.507412 4.1073518 0.6572336 110 115 109
-45.296837 4.0977268 0.67956746 120 123 118
-45.091751 4.1076312 0.67981231 129 130 128
-44.88763 4.1062689 0.69497269 132 134 135
-44.690556 4.1039224 0.71141016 132 129 133
-44.496738 4.0936971 0.70923024 136 132 139
-44.299397 4.1038251 0.73528498 140 134 141
-44.088097 4.113596 0.70515215 147 136 151
-43.886555 4.0892692 0.73523253 145 136 150
-43.684139 4.1005654 0.7235775 155 144 160
-43.491165 4.1108451 0.70937848 145 134 149
-43.279922 4.1058841 0.69948155 136 127 139
-43.063988 4.1112609 0.68856931 133 122 138
-42.881081 4.1170354 0.68386489 136 130 144
-42.646126 4.0014081 0.67075372 128 121 133
-48.088436 4.2372489 0.64530778 102 116 91
-47.917362 4.283123 0.64494902 96 109 84
-47.722996 4.2730412 0.63673455 92 106 79
-47.511703 4.3092184 0.63332582 95 110 84
-47.321938 4.297576 0.61954075 90 105 81
-47.103813 4.2486935 0.62588859 98 108 89
-46.868664 4.2972007 0.61383474 99 109 91
-46.685966 4.2796817 0.61941564 97 106 88
-46.503941 4.3095884 0.62567437 103 111 94
-46.288849 4.2860003 0.64619988 100 109 91
-46.090191 4.2956014 0.64592338 102 112 96
-45.902149 4.2939029 0.63954782 112 117 106
-45.692375 4.2851648 0.64159101 112 117 108
-45.488052 4.2769213 0.64584029 108 114 107
-45.289722 4.297678 0.65200108 118 120 118
-45.069283 4.3157783 0.66800225 115 121 119
-44.887577 4.2863736 0.67642641 124 123 124
-44.682259 4.3049664 0.68473405 125 124 126
-44.473087 4.2899699 0.70719856 128 125 131
-44.296108 4.3028464 0.71282142 137 133 140
-44.09412 4.3005171 0.7325598 135 128 139
-43.870316 4.3110995 0.72631335 141 132 148
-43.699551 4.305655 0.71504909 153 143 163
-43.491028 4.2931485 0.6993764 150 139 157
-43.289074 4.2871757 0.70634717 152 141 158
-43.126331 4.3217096 0.69980669 141 129 149
-42.916386 4.3459082 0.69032878 139 128 149
-48.051327 4.4310298 0.67080784 90 101 80
-47.85738 4.4078031 0.66385818 95 106 87
-47.697659 4.4571056 0.63712943 93 105 84
-47.466492 4.5099921 0.62570685 96 109 84
-47.287937 4.5011101 0.62859553 93 106 83
-47.042526 4.5199857 0.62221467 100 111 90
-46.689575 4.4490156 0.61069179 99 108 88
-46.461288 4.4644752 0.62517834 110 118 101
-46.245174 4.4970183 0.63328701 109 118 101
-46.070587 4.4936237 0.64330924 101 111 93
-45.873676 4.4826107 0.64315283 108 113 99
-45.699184 4.5040307 0.63385808 119 121 112
-45.498589 4.4859385 0.66137594 118 122 115
-45.308323 4.5001817 0.64956588 113 118 112
-45.09428 4.504838 0.65733224 122 125 125
-44.880081 4.4853578 0.66798389 117 120 118
-44.676006 4.5097232 0.66983402 123 123 123
-44.511875 4.4829578 0.67755032 128 124 129
-44.322754 4.5042748 0.69041562 139 133 142
-44.110359 4.5050354 0.70995724 132 125 139
-43.89497 4.4855299 0.72072566 143 131 149
-43.699898 4.4967985 0.72311592 151 137 160
-43.494305 4.4799519 0.72194308 150 140 157
-43.302475 4.4413958 0.69607198 149 136 156
-43.093208 4.4572749 0.70482957 135 124 142
-42.996754 4.4041834 0.68152332 133 127 142
-47.659164 4.6202836 0.6550343 94 107 84
-47.497261 4.699913 0.62515283 94 106 84
-47.276737 4.7242785 0.61289978 99 109 88
-47.039345 4.7447271 0.61251485 101 111 92
-46.826199 4.6553464 0.60800815 99 110 94
-46.632221 4.6748471 0.61900824 98 109 91
-46.466164 4.7103233 0.61026436 104 117 97
-46.269073 4.7081189 0.62079948 99 109 92
-46.074085 4.6632481 0.63505387 108 115 100
-45.877148 4.6928802 0.65250021 112 116 103
-45.696003 4.7086072 0.64110774 115 118 106
-45.500172 4.6924238 0.63890737 116 119 109
-45.296089 4.7119303 0.64116573 121 125 119
-45.09174 4.6749058 0.64252156 123 125 123
-44.88736 4.7115445 0.63594377 132 133 135
-44.712292 4.6746511 0.65971935 124 122 125
-44.492878 4.6810493 0.65667528 134 128 132
-44.278091 4.7199936 0.6615935 132 127 133
-44.103256 4.6682801 0.67991656 133 128 136
-43.888317 4.6878276 0.68636483 138 134 142
-43.668358 4.7303739 0.69323528 146 135 151
-43.504356 4.733222 0.73475373 145 133 150
-43.31369 4.6452641 0.74329424 146 132 153
-47.455032 4.894907 0.62655199 95 108 85
-47.294983 4.8593645 0.60426891 94 105 82
-46.608852 4.8502622 0.61568165 96 109 86
-46.52515 4.8719087 0.61671776 97 107 91
-46.330643 4.9083681 0.61765146 107 113 101
-46.005268 4.8998094 0.62630117 106 108 96
-45.902168 4.9037247 0.61324239 111 112 105
-45.672867 4.8804102 0.63284487 120 119 113
-45.464355 4.8985467 0.61996961 121 122 114
-45.266651 4.8847446 0.62628251 125 125 119
-45.097042 4.9153271 0.62450832 124 126 121
-44.87146 4.9062867 0.6331169 123 124 120
-44.659706 4.8864851 0.65521765 123 126 127
-44.489021 4.872386 0.64656889 123 122 122
-44.260147 4.9037008 0.64461434 131 128 133
-44.065712 4.8934193 0.66504687 127 124 127
-43.877869 4.8606868 0.68950725 139 135 141
-43.687817 4.8319316 0.69231868 147 139 151
-47.418709 5.1438556 0.62588024 94 107 84
-47.243176 5.1025753 0.6361798 94 112 88
-47.038853 5.0951757 0.6122601 94 110 86
-46.558922 5.0076232 0.61998272 106 114 107
-46.382805 5.1432581 0.60424542 112 121 111
-46.126293 5.0500317 0.60780084 106 110 103
-45.841583 5.1283321 0.62127888 111 112 104
-45.6786 5.1240396 0.63150281 118 120 115
-45.455269 5.1458821 0.62556678 122 121 118
-45.243977 5.0957136 0.62663311 117 118 111
-45.077965 5.0899539 0.64391774 114 115 113
-44.854523 5.076776 0.62712646 119 119 114
-44.654881 5.0559053 0.64610279 125 124 122
-44.521877 5.0682449 0.64000654 122 123 122
-44.276024 5.0528851 0.66635716 136 131 137
-44.021824 5.0481882 0.68261266 142 134 147
-43.824768 5.0145869 0.69160008 142 135 152
-47.222107 5.2113638 0.60032296 88 103 77
-47.191219 5.3108506 0.63495374 89 99 80
-46.98362 5.3443346 0.61423886 101 112 94
-46.178749 5.2160716 0.60073662 90 95 89
-45.933071 5.241117 0.63312197 116 117 112
-45.683044 5.2459846 0.65012074 113 120 109
-45.394062 5.3154135 0.62808752 108 110 106
-45.095646 5.265172 0.62566698 120 122 119
-45.15303 5.4842634 0.6072371 117 120 117
-42.412834 -8.0871744 0.86041069 87 99 49
-40.927311 -6.6631951 0.82431906 73 85 47
-41.062855 -6.5080795 0.84638786 61 71 37
-40.876263 -6.5013394 0.86014605 75 83 48
-41.408836 -6.3396192 0.84297848 70 72 35
-41.321739 -6.3243284 0.88477778 59 62 29
-41.452011 -6.1439376 0.87699604 97 106 70
-41.325138 -6.0957561 0.8089596 90 96 62
-41.521824 -5.9304113 0.86108232 72 82 45
-41.215008 -5.8291044 0.87261772 62 72 40
-41.112312 -5.8554354 0.82408047 66 75 45
-50.128613 -5.755856 0.86723137 113 120 86
-41.531219 -5.7849674 0.85621309 101 115 82
-41.220402 -5.7188668 0.90383339 73 85 53
-41.062569 -5.7182293 0.8588047 59 70 39
-48.443634 -5.2012291 0.81517792 119 110 76
-40.948517 -5.3350258 0.84645462 52 62 28
-40.263687 -5.2287912 0.8064723 81 97 57
-50.451084 -5.0315285 0.80052805 97 101 76
-49.501873 -5.0266347 0.87793696 86 90 59
-49.252701 -5.0924468 0.82071835 103 101 77
-49.180492 -5.0828805 0.82912064 122 117 98
-48.630901 -5.0232091 0.84232759 122 123 90
-48.50927 -5.0984054 0.84480333 136 139 108
-50.307793 -4.9482861 0.81306791 99 114 85
-49.464027 -4.9484706 0.87587571 95 98 65
-49.323593 -4.8669686 0.85346389 116 112 86
-49.01186 -4.954041 0.8271327 92 94 61
-48.91457 -4.8599243 0.87195182 94 94 58
-48.645298 -4.883657 0.84033823 121 120 92
-48.583878 -4.9033594 0.84796399 133 132 106
-52.503128 -4.6977305 0.81777352 93 101 83
-52.395283 -4.6392269 0.80496073 84 94 79
-50.322803 -4.6305585 0.84765291 115 119 86
-49.018257 -4.6274171 0.88137484 106 114 75
-48.899048 -4.709991 0.87533689 99 102 64
-48.698864 -4.7053442 0.83833176 126 120 95
-48.558773 -4.7029743 0.86001086 150 139 120
-52.490028 -4.5163198 0.82307386 92 97 79
-52.356796 -4.5034246 0.80592084 85 91 73
-50.286842 -4.5359769 0.81353998 143 140 125
-49.858494 -4.5506353 0.82094002 130 122 101
-49.420452 -4.4282322 0.81224442 86 92 56
-49.228004 -4.4951682 0.83905435 99 98 59
-49.126591 -4.4966092 0.85965395 100 102 61
-48.891869 -4.5056829 0.85423142 115 115 82
-48.73505 -4.5043836 0.85729986 134 125 95
-48.478466 -4.5043621 0.84221143 129 124 102
-48.358376 -4.4732771 0.8242299 113 108 89
-52.512821 -4.3848767 0.84139824 96 103 83
-52.292049 -4.2274847 0.82243776 92 96 75
-52.144676 -4.2830811 0.80519342 105 106 92
-50.329868 -4.352139 0.84722978 146 148 117
-50.067646 -4.2742581 0.85079867 101 101 72
-49.911289 -4.3123927 0.86195701 113 107 87
-49.676399 -4.2829261 0.85196716 88 93 57
-49.480682 -4.2515388 0.87359023 119 116 88
-49.330685 -4.2631335 0.82435089 115 117 85
-49.124557 -4.2038579 0.8071456 143 141 128
-48.836048 -4.2214103 0.84295893 84 86 60
-48.71067 -4.2887335 0.85034978 103 102 70
-48.489769 -4.3245201 0.83742261 105 107 78
-48.374767 -4.381135 0.82054782 115 107 99
-44.14349 -4.2378025 0.80851364 98 110 131
-52.488495 -4.1101089 0.90303588 97 102 80
-52.286415 -4.1092825 0.85815436 92 94 72
-52.128319 -4.1037369 0.83105296 91 94 75
-50.290794 -4.0938325 0.83277673 107 111 82
-50.041393 -4.0697479 0.87494791 101 101 69
-49.881721 -4.1072011 0.86456001 112 113 81
-49.71212 -4.0505319 0.86122656 113 115 81
-49.467869 -4.0844383 0.89261585 126 123 89
-49.314396 -4.0864277 0.86373848 117 118 89
-48.649239 -4.1144972 0.83645809 89 93 64
-43.603294 -4.0953202 0.84541225 217 224 242
-52.444382 -3.8993292 0.90791601 95 105 79
-52.271542 -3.8750961 0.88506895 92 100 76
-52.095325 -3.8984015 0.84812438 94 97 78
-51.875423 -3.929291 0.80630207 103 103 96
-51.422318 -3.8153358 0.8004117 96 97 83
-50.470554 -3.8683233 0.8782782 115 117 93
-50.296093 -3.8786092 0.82565969 101 104 76
-50.071907 -3.8922353 0.838866 108 108 84
-49.909603 -3.9054794 0.91190672 115 113 84
-49.694923 -3.9066982 0.88664013 119 120 90
-49.492783 -3.8927376 0.89941722 113 115 84
-49.312801 -3.9342692 0.88395566 110 113 84
-49.171741 -3.9370244 0.84744883 98 105 72
-44.089039 -3.9956837 0.81933737 129 160 178
-43.50766 -3.8220041 0.80047655 224 219 219
-52.449051 -3.7199154 0.94076604 94 104 78
-52.289337 -3.6912496 0.89284784 93 98 75
-52.124416 -3.6979356 0.86521131 95 99 76
-51.912205 -3.674814 0.81807691 98 99 82
-51.676201 -3.6383681 0.80399162 97 103 83
-51.450024 -3.7377219 0.81466985 94 101 75
-51.360367 -3.7034414 0.80343705 86 93 65
-50.616833 -3.6918023 0.82216406 109 110 90
-50.451988 -3.6964805 0.88982856 115 113 93
-50.286037 -3.7222095 0.88747746 104 104 79
-50.115608 -3.6998868 0.88251436 103 104 80
-49.887066 -3.6992137 0.91640007 125 123 96
-49.697567 -3.693013 0.94589567 119 122 86
-49.503853 -3.702827 0.89661473 102 109 74
-49.298325 -3.6840532 0.87614578 79 84 56
-49.166386 -3.6745355 0.84593838 76 81 56
-43.189716 -3.7357159 0.872509 191 201 222
-52.506897 -3.5748959 0.9279263 94 102 75
-52.306335 -3.4979455 0.95365095 103 105 85
-52.078701 -3.4971831 0.89186043 92 97 75
-51.879356 -3.5099039 0.84666657 107 105 93
-51.703655 -3.4771183 0.83473313 106 109 91
-51.478653 -3.4954512 0.81943321 97 104 79
-51.251892 -3.4365377 0.86016077 90 97 74
-50.689892 -3.5498946 0.83798987 103 106 79
-50.473122 -3.5223465 0.86791998 118 118 94
-50.320141 -3.4932909 0.88218629 104 103 79
-50.109505 -3.5040636 0.92992222 114 113 86
-49.903179 -3.5017917 0.92388505 117 115 91
-49.710293 -3.4798901 0.92746937 111 109 78
-49.52042 -3.502208 0.90761745 100 103 69
-49.300823 -3.4970958 0.89337301 75 79 49
-49.144436 -3.5037906 0.88842171 106 102 74
-43.646301 -3.5646672 0.81143832 213 211 212
-52.445744 -3.3584268 0.99030471 98 102 79
-52.322338 -3.3671689 0.9817493 106 108 89
-52.111317 -3.3080134 0.94388628 96 99 78
-51.88929 -3.319742 0.8780176 99 100 84
-51.708035 -3.3014522 0.85318947 99 101 83
-51.499119 -3.3067861 0.8501268 100 104 83
-51.316219 -3.2954066 0.84028113 102 105 85
-51.089199 -3.298018 0.81428182 103 107 85
-50.99704 -3.3100176 0.80479431 101 106 78
-50.640423 -3.3135843 0.84477001 109 115 84
-50.505192 -3.3023713 0.88571906 121 123 98
-50.310684 -3.2987578 0.92380482 124 119 102
-50.073006 -3.3024673 0.90299797 110 113 87
-49.89587 -3.3108323 0.90318829 96 97 72
-49.717453 -3.316505 0.90830284 103 103 76
-49.489796 -3.3053415 0.90829605 102 105 72
-49.298725 -3.3091643 0.9033553 102 101 73
-49.114872 -3.3154273 0.89672136 120 114 86
-52.098339 -3.0494752 0.97492182 105 109 88
-51.905029 -3.1299536 0.90019077 102 101 84
-51.719044 -3.1093695 0.8880772 113 114 96
-51.498703 -3.1206548 0.87459666 110 112 93
-51.290272 -3.1195774 0.86252999 102 105 87
-51.098389 -3.1181531 0.83666927 97 104 79
-50.94202 -3.0756586 0.8381384 96 100 82
-50.679806 -3.0698555 0.84002286 122 122 97
-50.48885 -3.0851276 0.91130441 134 131 111
-50.292236 -3.1469264 0.96663439 137 128 113
-50.06076 -3.1253176 0.90914345 72 79 52
-49.9086 -3.0958629 0.93727928 90 93 68
-49.662228 -3.1662526 0.96836215 105 97 84
-49.486679 -3.0967979 0.90346706 96 98 73
-49.325665 -3.0850034 0.87845039 77 81 57
-49.131462 -3.0800543 0.89657682 87 91 67
-52.033165 -2.8226507 0.99113464 98 104 79
-51.873135 -2.8907776 0.96596622 107 111 89
-51.67033 -2.9072132 0.93914187 114 114 97
-51.479206 -2.9240625 0.88666707 112 110 96
-51.285969 -2.9280035 0.86542147 109 109 93
-51.096359 -2.8943698 0.84544128 99 104 82
-50.917831 -2.8944013 0.83912212 103 106 88
-50.66095 -2.8886378 0.87914145 120 115 97
-50.512257 -2.9126043 0.9048205 128 123 109
-49.938328 -2.9412568 0.93159097 60 65 45
-49.477985 -2.9022815 0.91672581 92 92 68
-49.301998 -2.9098699 0.89702678 76 80 60
-49.110664 -2.8999662 0.9001599 82 85 71
-48.920135 -2.9418449 0.9167248 109 112 120
-51.834782 -2.7070961 0.97271955 104 108 82
-51.69059 -2.7033126 0.96652365 112 114 94
-51.477631 -2.7024624 0.9389925 114 113 96
-51.279842 -2.7161818 0.9080736 101 104 84
-51.089775 -2.7188087 0.8705551 106 105 86
-50.882893 -2.6697934 0.8599425 102 103 83
-50.686954 -2.6793149 0.87953794 134 127 114
-50.548096 -2.7317514 0.93563932 135 130 118
-50.39724 -2.7760837 0.99183059 128 119 113
-49.938473 -2.7537189 0.99625254 70 64 57
-49.647678 -2.6576841 0.94230372 79 90 58
-49.485756 -2.6939352 0.88410664 69 78 54
-49.30695 -2.7089155 0.88134086 77 79 61
-49.120007 -2.7044857 0.91129333 98 97 88
-48.931786 -2.6931214 0.9267624 81 89 82
-44.16135 -2.6917186 0.86531472 187 173 175
-43.945072 -2.6684437 0.80528259 161 143 155
-51.653625 -2.4775462 0.9812848 105 112 86
-51.443165 -2.5041814 0.9660061 109 111 91
-51.281696 -2.5156667 0.92938596 106 109 86
-51.096779 -2.5096107 0.90531749 103 105 81
-50.885288 -2.4953399 0.89952886 97 100 78
-50.719906 -2.5252964 0.90805387 123 118 108
-50.593029 -2.5379698 0.9883635 130 124 114
-50.385227 -2.4731848 0.9630003 79 78 50
-49.894276 -2.4926372 0.97248447 91 86 71
-49.695171 -2.5086086 0.90405834 72 78 54
-49.507298 -2.4885347 0.90305376 70 75 59
-49.316723 -2.5352514 0.90829563 71 75 60
-49.095558 -2.5093579 0.91152143 76 85 72
-48.942387 -2.4967196 0.87525386 55 71 67
-45.475727 -2.5033257 0.8282342 40 51 45
-44.153355 -2.5984766 0.80176735 146 130 132
-43.868465 -2.4710462 0.83345848 125 123 111
-43.691154 -2.4462466 0.87374449 129 125 112
-43.541775 -2.4855573 0.85403341 136 133 128
-43.261433 -2.4311554 0.86311895 147 146 140
-51.720486 -2.2720752 0.996171 101 104 84
-51.548206 -2.2781167 0.98656428 99 104 78
-51.328251 -2.3063314 0.95891643 92 101 78
-51.108807 -2.2838593 0.91949999 93 102 74
-50.906322 -2.3150961 0.93541092 99 106 80
-50.72229 -2.3061967 0.95074433 112 121 93
-50.543053 -2.2871752 0.96627599 108 109 89
-49.871609 -2.2804697 0.91108078 66 73 48
-49.734798 -2.2818389 0.91091365 79 80 65
-49.481983 -2.3186724 0.93744731 77 87 78
-49.293728 -2.3061028 0.88727027 47 58 56
-49.096638 -2.3467176 0.86233407 37 56 48
-48.980274 -2.3969381 0.87234259 46 65 63
-44.060028 -2.2635806 0.89627695 126 125 118
-43.868549 -2.3066919 0.86294353 131 128 105
-43.689648 -2.325124 0.87521094 133 127 96
-43.519184 -2.2972269 0.89702004 133 122 93
-43.303123 -2.3272088 0.88616258 151 134 106
-43.126667 -2.2731931 0.89614135 143 118 107
-51.50053 -2.1137497 0.97251946 101 106 85
-51.326366 -2.1249604 0.96695912 88 100 76
-51.117832 -2.1021581 0.93560165 91 100 75
-50.923477 -2.0990496 0.95391071 98 105 81
-50.714279 -2.0793557 0.97489715 122 132 100
-50.242664 -2.0761526 0.96217561 92 97 66
-50.107929 -2.0645645 0.90260333 70 73 50
-49.935482 -2.1338227 0.90771526 74 78 56
-49.705185 -2.092514 0.92446643 62 64 56
-49.487358 -2.1299889 0.88108605 49 63 57
-49.28611 -2.089988 0.86205751 48 62 59
-49.114365 -2.1458564 0.95774782 64 76 74
-44.018921 -2.1431258 0.8304221 111 118 94
-43.881397 -2.1410429 0.84338295 126 130 95
-43.653973 -2.108165 0.88256276 150 137 95
-43.520859 -2.1162124 0.91178036 170 152 106
-43.340366 -2.0815082 0.90224445 151 125 96
-43.145432 -2.1443586 0.87347996 153 128 84
-51.472054 -1.8866442 0.98108864 96 105 83
-51.28949 -1.9173532 0.97347516 93 104 84
-51.082989 -1.9078059 0.94122672 93 103 79
-50.881989 -1.9064986 0.9385677 96 108 81
-50.684608 -1.8618196 0.94761437 103 112 81
-50.497787 -1.8691502 0.97832614 77 85 54
-50.259628 -1.8845468 0.9550072 76 82 58
-50.111202 -1.9159968 0.89972693 64 69 49
-49.89603 -1.8917342 0.88540047 61 65 48
-49.721687 -1.8927361 0.91117179 45 56 42
-49.318947 -1.9771675 0.96977568 71 80 79
-48.396057 -1.8418673 0.80397987 155 163 173
-43.69434 -1.976486 0.91310513 158 132 92
-43.472565 -1.9099852 0.8714903 184 159 123
-51.760502 -1.6815126 0.99335361 99 107 84
-51.486694 -1.7102734 0.98938799 97 106 83
-51.285706 -1.7162864 0.9721489 92 103 81
-51.071407 -1.725408 0.95231217 89 101 79
-50.891373 -1.6883768 0.92227906 97 105 84
-50.674923 -1.7202283 0.9267748 99 110 79
-50.484875 -1.705458 0.90292978 85 91 64
-50.280724 -1.7154578 0.94217128 85 90 66
-50.089565 -1.7178845 0.91279823 77 83 61
-49.937485 -1.6862899 0.8643328 67 72 50
-49.750771 -1.7732987 0.91642821 56 68 44
-49.233025 -1.7924373 0.81341934 107 119 115
-49.194305 -1.765102 0.83016014 43 61 63
-48.681847 -1.7106138 0.80735683 142 158 167
-48.442101 -1.7301507 0.83691907 142 148 151
-48.245934 -1.6601925 0.82189703 108 117 119
-48.058586 -1.6652222 0.86909902 80 95 85
-47.837975 -1.6578171 0.83862281 120 107 117
-47.513176 -1.6401606 0.82013476 173 168 183
-47.274158 -1.73631 0.82872391 156 152 174
-43.609215 -1.7505901 0.82211018 146 131 92
-51.65736 -1.5236421 0.99433637 83 90 71
-51.47644 -1.531427 0.98092121 95 102 80
-51.253822 -1.4971629 0.97552556 85 97 75
-51.063457 -1.529464 0.94401997 87 102 79
-50.891369 -1.4897288 0.92636615 99 108 86
-50.698814 -1.4985104 0.92550701 94 104 81
-50.512547 -1.4938705 0.91585147 97 105 76
-50.318504 -1.5138541 0.92159653 88 91 67
-50.099049 -1.5160615 0.93591201 93 99 72
-49.905949 -1.4969271 0.89230436 94 95 75
-49.73048 -1.49505 0.88919783 80 89 69
-49.518894 -1.4353726 0.89208961 100 102 89
-49.347153 -1.5202606 0.84009385 91 95 106
-48.815556 -1.4928297 0.80314112 103 111 115
-48.338108 -1.4129564 0.86002558 117 125 121
-48.089394 -1.5103524 0.85012001 114 124 118
-47.887657 -1.4881477 0.85582143 143 146 122
-47.685223 -1.4767762 0.88452846 144 148 133
-47.517746 -1.4710342 0.88597131 156 158 153
-47.295345 -1.4409338 0.93132442 116 122 111
-47.116394 -1.4373976 0.85845912 137 137 147
-51.293026 -1.3291408 0.99021214 98 107 88
-51.097103 -1.3073894 0.97337794 95 102 82
-50.911697 -1.2903166 0.92831707 90 101 77
-50.714787 -1.3078036 0.91210616 89 99 77
-50.533649 -1.278828 0.89629984 94 103 80
-50.320621 -1.2892916 0.88407671 86 94 71
-50.109257 -1.3161348 0.93991691 104 109 79
-49.893829 -1.3154379 0.9186011 96 101 76
-49.734993 -1.3190764 0.88741189 73 78 60
-49.480446 -1.2839756 0.88038647 73 82 57
-49.347416 -1.2563951 0.91273075 96 102 75
-48.622257 -1.269762 0.91552687 130 139 137
-48.500854 -1.2606622 0.81505901 147 151 144
-48.29097 -1.2702967 0.85315269 126 138 123
