ply
format ascii 1.0
comment PCL generated
element vertex 1111
property float x
property float y
property float z
property uchar red
property uchar green
property uchar blue
element face 0
element camera 0
property float view_px
property float view_py
property float view_pz
property float x_axisx
property float x_axisy
property float x_axisz
property float y_axisx
property float y_axisy
property float y_axisz
property float z_axisx
property float z_axisy
property float z_axisz
property float focal
property float scalex
property float scaley
property float centerx
property float centery
property int viewportx
property int viewporty
property float k1
property float k2
end_header
-12.405102 -116.03545 23.508663 46 62 63
-12.354729 -116.06866 23.498495 50 66 64
-9.7397594 -116.10467 23.5881 54 74 65
-13.270748 -115.96267 23.562067 56 67 66
-13.166611 -115.97943 23.531189 41 48 49
-12.919966 -115.86063 23.48764 51 64 55
-12.728645 -115.87423 23.531363 57 71 72
-12.46556 -115.8332 23.503325 60 74 76
-12.386159 -115.92899 23.555702 53 71 68
-9.8087158 -115.8116 23.526609 61 82 78
-9.715538 -115.85979 23.52829 65 86 83
-12.84544 -115.76561 23.542486 28 37 41
-12.618723 -115.71172 23.592882 35 52 52
-12.485056 -115.71883 23.500137 59 73 73
-12.308195 -115.68915 23.483248 57 69 70
-12.081797 -115.70098 23.436306 60 74 75
-11.975243 -115.63056 23.503963 55 68 77
-9.8317175 -115.68123 23.50106 37 57 52
-9.7250233 -115.70169 23.553446 53 73 68
-9.5944004 -115.67221 23.579908 78 100 103
-8.722126 -115.62305 23.486546 63 72 72
-8.5689516 -115.66981 23.545048 85 103 105
-12.43853 -115.56183 23.566643 53 64 68
-12.27056 -115.50404 23.536041 74 88 91
-12.125971 -115.49385 23.488262 64 79 80
-11.909651 -115.50528 23.499664 58 70 76
-9.853076 -115.48244 23.518608 54 72 70
-9.7561626 -115.49837 23.54434 43 63 61
-9.3217545 -115.45975 23.495108 69 86 87
-9.0977764 -115.48199 23.494152 70 88 89
-8.9092598 -115.53423 23.545074 66 80 77
-13.83223 -115.26905 23.47736 96 106 116
-13.777069 -115.22911 23.549698 101 113 120
-12.214375 -115.36217 23.567383 122 130 136
-12.107608 -115.30385 23.515631 85 100 101
-11.86804 -115.31596 23.554712 63 74 82
-11.716832 -115.27879 23.467466 84 97 98
-10.077168 -115.21846 23.487986 63 82 78
-9.8783112 -115.31445 23.508253 51 69 67
-9.739852 -115.2719 23.536903 80 99 98
-9.4788694 -115.29728 23.520706 83 101 101
-9.3272266 -115.33488 23.532921 69 85 85
-9.111866 -115.30362 23.520922 56 73 73
-14.457864 -115.02372 23.436911 73 81 83
-14.338316 -115.08499 23.444805 67 72 75
-14.193595 -115.03822 23.477036 76 81 87
-13.831159 -115.1095 23.487638 97 106 110
-13.744715 -115.0619 23.520847 94 99 107
-12.045265 -115.11414 23.499123 75 90 91
-11.938436 -115.08601 23.507925 74 88 93
-11.721532 -115.16145 23.562229 83 96 99
-11.008914 -115.00064 23.531502 38 50 50
-10.229403 -115.14159 23.461823 35 48 47
-10.118608 -115.13527 23.503731 66 81 78
-9.8715134 -115.11895 23.468473 55 74 72
-9.7451792 -115.06126 23.521166 80 99 98
-9.5045624 -115.16134 23.557222 75 89 90
-9.32652 -115.09108 23.54512 116 131 137
-9.0611935 -115.09955 23.518349 63 80 83
-8.9078026 -115.10818 23.519402 81 96 100
-14.512415 -114.80796 23.537712 88 76 78
-14.32423 -114.93841 23.450974 94 98 99
-14.116164 -114.8334 23.429323 91 99 114
-13.809583 -114.99849 23.40336 143 145 158
-13.701591 -114.91193 23.517067 87 95 102
-13.376456 -114.83309 23.458652 106 108 101
-12.836909 -114.80881 23.507938 70 81 85
-12.753811 -114.82701 23.479105 105 108 113
-12.031382 -114.94954 23.58465 70 84 84
-11.913468 -114.9255 23.5501 86 98 100
-11.75967 -114.85056 23.53282 87 95 92
-11.114583 -114.88372 23.47249 50 64 63
-10.968169 -114.86791 23.485947 47 59 62
-10.093328 -114.85519 23.557995 56 69 70
-9.8895254 -114.91103 23.47702 65 84 80
-9.7136354 -114.90237 23.515823 77 98 96
-9.5060835 -114.88616 23.542953 96 114 113
-9.2819805 -114.9018 23.533714 99 116 119
-9.0786486 -114.88727 23.469875 73 89 90
-8.962923 -114.98383 23.589331 71 84 90
-14.250845 -114.69846 23.460892 95 102 112
-14.081548 -114.70048 23.459911 107 114 126
-13.897105 -114.67908 23.467794 104 111 123
-13.67831 -114.70802 23.474779 100 105 112
-13.509791 -114.66989 23.512722 109 112 118
-13.316136 -114.63715 23.51462 87 98 98
-13.112474 -114.63739 23.513689 84 99 99
-12.876103 -114.67387 23.521952 75 87 87
-12.754123 -114.64593 23.499317 79 88 92
-12.208683 -114.61491 23.527058 78 90 87
-12.090384 -114.66793 23.509615 70 83 80
-11.889506 -114.67278 23.51347 77 89 88
-11.687534 -114.66174 23.536995 76 90 87
-11.553679 -114.64455 23.499722 97 111 104
-11.22575 -114.62096 23.502325 70 87 86
-11.149979 -114.68198 23.489632 58 73 74
-10.945113 -114.70347 23.523077 117 124 132
-10.232969 -114.65349 23.463554 58 72 71
-9.8548594 -114.77867 23.57448 79 96 94
-9.669836 -114.70222 23.540777 89 108 105
-9.5076742 -114.69935 23.532225 97 114 114
-9.2925196 -114.678 23.495918 95 111 112
-9.1266575 -114.69209 23.491783 76 92 93
-8.9901762 -114.61573 23.498196 55 70 73
-14.652987 -114.58347 23.521034 101 112 114
-14.487409 -114.43264 23.423952 112 122 121
-14.270391 -114.53563 23.551401 99 105 117
-14.097754 -114.50436 23.497957 102 110 122
-13.872759 -114.52465 23.497269 97 103 112
-13.690612 -114.48206 23.521734 118 122 132
-13.488588 -114.49818 23.545294 111 119 125
-13.306459 -114.48738 23.487947 91 103 106
-13.098268 -114.52421 23.482777 83 96 98
-12.872359 -114.54081 23.483004 79 91 92
-12.693377 -114.49943 23.516361 88 96 100
-12.485305 -114.50555 23.525276 97 106 103
-12.285761 -114.49646 23.522486 78 93 93
-12.085886 -114.52254 23.530981 79 96 97
-11.883904 -114.50368 23.492075 91 104 106
-11.691585 -114.51327 23.505959 85 100 99
-11.502642 -114.49461 23.463114 85 98 96
-11.279259 -114.47836 23.485819 70 84 85
-11.11062 -114.50887 23.502262 70 83 84
-10.917659 -114.50002 23.556955 77 89 86
-10.678567 -114.43359 23.463282 65 80 77
-10.489961 -114.45348 23.48691 68 83 77
-10.297811 -114.48145 23.492577 63 78 75
-10.150785 -114.46323 23.53438 83 97 95
-9.6383734 -114.49453 23.576303 81 95 91
-9.4848557 -114.50294 23.487806 76 95 93
-9.2821836 -114.4529 23.510395 72 91 92
-9.1112175 -114.51039 23.528873 83 100 102
-8.2345562 -114.50736 23.410151 78 99 100
-7.7632923 -114.53293 23.460188 89 107 107
-14.896332 -114.22778 23.56949 91 103 101
-14.509691 -114.21884 23.503635 75 88 85
-14.340459 -114.26501 23.529562 94 107 112
-14.07577 -114.27894 23.526798 101 108 113
-13.899205 -114.27937 23.511196 83 97 101
-13.692522 -114.32906 23.52634 91 100 107
-13.507148 -114.34498 23.515802 102 112 115
-13.2884 -114.3127 23.467207 93 104 109
-13.18531 -114.25394 23.473711 100 112 118
-12.87085 -114.38467 23.442286 57 69 70
-12.654804 -114.35052 23.535629 74 82 89
-12.486186 -114.36414 23.487015 78 90 95
-12.363367 -114.32204 23.489178 60 77 78
-11.851744 -114.32042 23.502171 84 94 103
-11.676257 -114.3269 23.50902 78 92 93
-11.439809 -114.36208 23.56012 88 98 101
-11.258404 -114.32345 23.447094 73 88 89
-11.097413 -114.29881 23.509954 92 106 108
-10.890379 -114.30455 23.560432 85 100 101
-10.706795 -114.2922 23.509869 70 85 84
-10.476683 -114.30597 23.508322 58 72 72
-10.272458 -114.28996 23.473999 64 79 79
-10.139314 -114.2832 23.509079 81 95 93
-9.506237 -114.30727 23.483953 72 86 84
-9.3453808 -114.30551 23.450117 70 84 84
-9.1324005 -114.37562 23.520914 86 98 100
-7.8378468 -114.3225 23.48748 86 105 111
-7.683691 -114.28572 23.482462 82 101 106
-7.4853439 -114.29254 23.504364 102 119 126
-7.3472347 -114.21883 23.590931 83 99 99
-14.675709 -114.08298 23.489134 94 106 110
-14.488095 -114.08925 23.489616 93 105 106
-14.297832 -114.09792 23.502489 86 98 100
-14.125364 -114.11327 23.514761 90 100 103
-13.988693 -114.11864 23.59737 86 94 96
-13.77494 -114.17677 23.506397 79 94 101
-13.263553 -114.15965 23.492987 93 104 114
-12.406676 -114.01589 23.441647 138 141 150
-12.297766 -114.00329 23.460407 83 99 104
-11.801634 -114.04174 23.525269 152 159 175
-11.626953 -114.12389 23.572052 60 72 82
-11.459165 -114.09804 23.504261 55 65 75
-11.271194 -114.07302 23.501534 80 90 101
-11.096576 -114.09398 23.4956 100 113 119
-10.91057 -114.09828 23.567221 98 110 110
-10.722204 -114.09751 23.537237 93 107 104
-10.50879 -114.11321 23.504061 93 106 106
-10.306899 -114.08863 23.47451 77 91 90
-10.12435 -114.11108 23.503519 80 94 95
-9.9044428 -114.05357 23.487888 97 107 106
-9.5369625 -114.11428 23.498375 65 78 78
-9.3462486 -114.12641 23.527 72 86 86
-8.8267641 -114.09577 23.598396 46 61 66
-8.0302172 -114.05535 23.455162 110 118 122
-7.8846021 -114.07179 23.510925 116 129 138
-7.7093205 -114.0708 23.534056 87 99 103
-7.5197268 -114.08616 23.551018 109 122 124
-7.3104062 -114.06786 23.573807 115 127 132
-14.446883 -113.97447 23.511921 82 95 91
-14.311763 -113.9287 23.486216 105 114 120
-14.175353 -113.92934 23.477802 97 111 115
-13.976605 -113.98809 23.574173 71 82 84
-12.628726 -113.90919 23.401783 70 83 89
-12.493681 -113.83978 23.456577 90 98 109
-12.313526 -113.86841 23.476021 104 114 127
-12.159156 -113.83271 23.48468 102 112 119
-11.922388 -113.87272 23.496267 99 106 117
-11.700956 -113.91398 23.486694 103 110 114
-11.541184 -113.96431 23.527664 87 98 105
-11.081304 -113.85514 23.478521 93 106 112
-10.884184 -113.89005 23.546995 104 115 114
-10.690162 -113.92493 23.50415 93 106 104
-10.495281 -113.91103 23.505852 97 111 110
-10.309442 -113.90063 23.486759 92 107 107
-10.089092 -113.9173 23.519083 73 89 89
-9.9075356 -113.91326 23.511705 75 89 90
-9.6909895 -113.92573 23.490789 83 92 94
-9.5431442 -113.90122 23.510105 59 72 71
-8.2198029 -113.86804 23.438416 63 73 78
-8.0751905 -113.90051 23.502123 92 104 107
-7.90487 -113.90855 23.53266 106 119 122
-7.7492194 -113.91747 23.556561 104 116 117
-7.4650702 -113.90417 23.548878 78 93 92
-7.3064137 -113.90096 23.585978 120 132 135
-7.1397595 -113.86031 23.530169 109 123 132
-6.9673376 -113.94828 23.502865 118 132 141
-12.650872 -113.66937 23.514444 119 121 137
-12.475427 -113.70779 23.487247 113 116 128
-12.305628 -113.70636 23.498055 108 115 129
-12.107934 -113.69633 23.47312 101 110 118
-11.877733 -113.71152 23.505642 112 119 123
-11.72446 -113.71891 23.502052 113 121 120
-11.54834 -113.63021 23.49641 90 105 102
-11.040006 -113.73358 23.501518 92 107 114
-10.897471 -113.69871 23.530777 97 107 110
-10.708456 -113.70418 23.508772 92 105 105
-10.480811 -113.71004 23.516726 72 90 89
-10.305707 -113.72311 23.501474 71 85 84
-10.092913 -113.70834 23.508741 42 59 56
-9.8340855 -113.75352 23.552704 60 75 70
-8.4514618 -113.63004 23.471008 138 135 142
-8.3025236 -113.67287 23.554663 59 69 77
-8.0836802 -113.68787 23.533573 124 136 142
-7.9068823 -113.72552 23.507303 107 119 118
-7.6907449 -113.70338 23.542456 97 112 105
-7.4830513 -113.70724 23.524763 81 96 96
-7.30231 -113.65618 23.541338 94 111 114
-7.1180453 -113.68284 23.542807 107 122 129
-6.9488435 -113.70178 23.525105 113 123 127
-12.705132 -113.50355 23.493053 112 116 130
-12.488598 -113.4965 23.508217 115 120 136
-12.286256 -113.48698 23.495268 124 131 143
-12.127887 -113.50837 23.506855 115 125 130
-11.903687 -113.4921 23.482697 99 108 110
-11.720282 -113.51634 23.508846 90 104 98
-11.003127 -113.4751 23.477509 94 109 108
-10.895323 -113.50069 23.49453 86 99 97
-10.707872 -113.50053 23.499403 82 97 97
-10.488557 -113.54146 23.501011 70 85 84
-10.284026 -113.43913 23.460609 59 73 79
-10.115635 -113.47434 23.547915 47 60 64
-9.9222097 -113.46983 23.486359 50 64 62
-9.0326996 -113.46329 23.437571 36 48 53
-8.9075603 -113.45449 23.447531 125 127 135
-8.6499319 -113.42515 23.487793 67 77 85
-8.4952269 -113.46675 23.466467 119 123 130
-8.3398046 -113.44662 23.486362 107 115 119
-8.0932369 -113.47396 23.532404 132 142 141
-7.9055514 -113.48815 23.499521 109 119 117
-7.7366948 -113.47689 23.534451 116 127 128
-7.4709172 -113.491 23.558353 104 117 117
-7.3428135 -113.49628 23.519344 100 114 117
-7.093049 -113.54034 23.551044 110 125 130
-6.9279885 -113.48037 23.543699 100 114 119
-13.39938 -113.21332 23.51305 31 40 47
-13.071857 -113.23 23.42981 111 116 130
-12.893501 -113.26141 23.49505 121 125 144
-12.721568 -113.33869 23.537376 130 133 150
-12.545621 -113.35012 23.559769 146 152 167
-12.289149 -113.30138 23.542297 106 117 120
-12.111725 -113.28925 23.495068 96 109 111
-11.907384 -113.28843 23.506046 81 91 99
-11.702929 -113.32263 23.500994 118 130 133
-11.111666 -113.38496 23.51491 68 84 84
-10.914676 -113.30347 23.498718 67 80 76
-10.73549 -113.31666 23.524897 64 78 78
-10.501214 -113.33544 23.517918 67 81 85
-10.298041 -113.30604 23.533405 85 97 104
-10.117501 -113.27671 23.50605 95 105 109
-9.9125557 -113.24873 23.539759 81 88 90
-9.2518883 -113.27431 23.457241 43 47 56
-9.0746117 -113.29301 23.486897 81 88 95
-8.9099102 -113.29315 23.52158 100 105 115
-8.6959715 -113.28647 23.488028 93 100 105
-8.5044813 -113.30098 23.524704 128 130 136
-8.3157806 -113.30106 23.502989 100 106 110
-8.1348581 -113.24366 23.525843 132 139 141
-7.8626962 -113.30135 23.531912 119 126 121
-7.704978 -113.30757 23.519855 118 130 127
-7.4724007 -113.30897 23.547306 86 98 97
-7.3270874 -113.29309 23.522541 100 114 111
-7.1500692 -113.33212 23.528515 69 86 85
-6.8970971 -113.28201 23.550581 108 121 124
-6.7484088 -113.23386 23.580822 128 135 135
-6.4823132 -113.2131 23.516012 107 125 125
-6.2827449 -113.22077 23.595114 145 167 178
-13.427973 -113.09854 23.41795 97 99 110
-13.30714 -113.08205 23.439087 100 100 116
-13.071053 -113.07241 23.483522 120 124 139
-12.903475 -113.11739 23.493847 131 135 155
-12.685984 -113.06166 23.545288 115 126 131
-12.276659 -113.12231 23.506432 82 95 95
-12.138509 -113.08064 23.481443 81 95 93
-11.901686 -113.05707 23.515575 66 82 83
-11.660571 -113.11448 23.465685 118 124 124
-11.534276 -113.08252 23.459198 99 110 106
-11.116676 -113.06557 23.518169 81 94 88
-10.89233 -113.07668 23.506317 80 92 90
-10.702474 -113.08631 23.477917 82 92 90
-10.482465 -113.08756 23.46303 63 77 82
-10.293941 -113.0997 23.482468 105 115 121
-10.074278 -113.11511 23.495035 103 114 119
-9.9424667 -113.10171 23.514462 71 83 84
-9.0493298 -113.05565 23.572229 97 100 111
-8.8931694 -113.11548 23.506201 117 122 128
-8.6995296 -113.09435 23.493223 116 122 125
-8.5187464 -113.11806 23.520193 122 125 129
-8.3179598 -113.12835 23.50909 112 117 119
-8.1126919 -113.09892 23.493288 99 108 110
-7.9268136 -113.07935 23.482946 112 119 115
-7.6749878 -113.08485 23.498114 104 116 110
-7.4601769 -113.13445 23.546234 88 103 96
-7.2988715 -113.11097 23.524883 90 105 103
-7.1054716 -113.15771 23.561985 97 111 115
-6.8792791 -113.11637 23.567636 107 123 127
-6.6895261 -113.07832 23.575788 117 127 129
-6.5959001 -113.14031 23.593029 124 140 139
-6.2377901 -113.10526 23.572014 102 116 119
-13.402377 -112.95317 23.502644 141 140 150
-13.276052 -112.94162 23.489321 112 115 133
-13.081899 -112.93016 23.496195 125 127 145
-12.932692 -112.8947 23.515665 126 131 140
-12.69866 -112.86797 23.53499 105 116 115
-12.506655 -112.90229 23.560547 101 113 110
-12.319913 -112.89768 23.544964 106 118 115
-12.107723 -112.87554 23.480436 82 96 95
-11.86791 -112.89227 23.477848 82 95 98
-11.697038 -112.90143 23.488796 96 106 108
-11.48245 -112.87878 23.494236 100 111 103
-11.316596 -112.89484 23.484692 96 107 98
-11.117683 -112.94682 23.454601 113 121 112
-10.883911 -112.88727 23.51045 76 90 88
-10.726801 -112.89907 23.526598 78 91 91
-10.496497 -112.88118 23.483412 113 121 125
-10.311484 -112.90266 23.500586 112 124 131
-10.078019 -112.89479 23.494215 96 108 110
-9.9184265 -112.90543 23.476576 89 104 105
-9.3022232 -112.83417 23.412678 96 104 118
-9.0497303 -112.85158 23.512321 104 107 111
-8.9032574 -112.88417 23.508476 115 124 129
-8.6915503 -112.89668 23.53319 131 132 134
-8.466507 -112.92532 23.447601 125 124 122
-8.322979 -112.89021 23.501564 94 101 99
-8.0886555 -112.90056 23.50247 104 111 110
-7.8976183 -112.90832 23.499256 91 105 103
-7.6965027 -112.86705 23.526808 92 108 104
-7.4689016 -112.93484 23.52454 122 132 131
-7.3014426 -112.9224 23.540621 94 109 108
-7.113296 -112.88368 23.570972 135 143 145
-6.8934221 -112.91135 23.584629 77 91 86
-6.767745 -112.90121 23.562029 101 115 119
-6.4731369 -112.84196 23.58576 105 116 120
-6.1417532 -112.92643 23.579721 100 107 113
-13.310089 -112.71912 23.40069 73 86 94
-13.030844 -112.74942 23.52536 123 123 131
-12.891954 -112.66758 23.52235 114 120 129
-12.705251 -112.70519 23.509476 112 122 128
-12.503607 -112.6993 23.541147 113 122 124
-12.28901 -112.69385 23.494684 100 112 110
-12.10231 -112.68335 23.471371 86 103 103
-11.884533 -112.69217 23.516838 97 110 109
-11.685584 -112.71337 23.478552 103 117 116
-11.511999 -112.69453 23.492472 99 113 111
-11.297976 -112.65503 23.532244 98 113 114
-11.057184 -112.65688 23.505924 86 102 97
-10.906789 -112.71103 23.498743 80 96 92
-10.691868 -112.72536 23.45664 89 100 103
-10.493453 -112.72946 23.529961 121 127 131
-10.281234 -112.73706 23.56892 112 124 129
-10.072395 -112.70276 23.501797 91 104 104
-9.9517307 -112.69488 23.494934 85 96 96
-9.4542542 -112.64363 23.417957 59 68 75
-9.2417746 -112.68674 23.497461 133 137 149
-9.0610094 -112.70673 23.501947 116 119 127
-8.9119568 -112.68562 23.493122 108 118 123
-8.7028322 -112.68633 23.501869 107 117 118
-8.4968119 -112.69429 23.506487 114 122 119
-8.292572 -112.69464 23.500828 98 108 107
-8.1206369 -112.66903 23.501232 88 96 93
-7.8556194 -112.6819 23.479843 79 91 89
-7.6938896 -112.71346 23.515079 97 113 112
-7.5230699 -112.70664 23.522385 91 105 102
-7.3189373 -112.6748 23.553488 124 134 135
-7.0795822 -112.7123 23.548096 119 128 129
-6.8873081 -112.68739 23.559103 112 124 121
-6.7288895 -112.69872 23.565601 99 113 117
-6.4980421 -112.70016 23.548721 123 136 143
-6.3308287 -112.71323 23.56279 147 160 173
-6.1705413 -112.61089 23.598999 83 102 119
-5.8551559 -112.71884 23.571602 129 135 149
-12.904944 -112.58779 23.547125 111 110 124
-12.662542 -112.54008 23.457699 132 137 154
-12.535825 -112.49387 23.530409 125 131 139
-12.336458 -112.50826 23.480154 119 128 131
-12.096811 -112.50882 23.465332 102 117 118
-11.892254 -112.50264 23.476501 100 113 115
-11.709075 -112.48993 23.503426 93 105 108
-11.505353 -112.5133 23.520304 107 122 126
-11.302463 -112.4819 23.491989 90 108 108
-11.112879 -112.51189 23.519024 86 103 99
-10.911487 -112.53124 23.478228 73 90 87
-10.695082 -112.4934 23.484524 91 102 106
-10.513626 -112.4869 23.522772 107 118 118
-10.298711 -112.49043 23.568579 96 102 102
-10.063626 -112.50698 23.504332 86 101 99
-9.9491501 -112.47175 23.477108 91 106 104
-9.7556314 -112.51506 23.525145 65 76 72
-9.465724 -112.46516 23.463974 81 92 101
-9.2891798 -112.4917 23.50317 113 121 131
-9.114852 -112.47831 23.521749 126 132 138
-8.8790684 -112.5351 23.529751 110 117 121
-8.6979256 -112.50917 23.542421 109 119 120
-8.5195999 -112.50526 23.570452 114 118 114
-8.2741432 -112.51772 23.510582 101 113 111
-8.1233425 -112.4717 23.494667 104 113 113
-7.9288368 -112.4707 23.449318 100 110 113
-7.677094 -112.51374 23.518929 101 116 116
-7.505477 -112.48924 23.532082 86 102 103
-7.3066001 -112.43106 23.551588 97 110 112
-7.083827 -112.47896 23.547997 87 102 100
-6.9267206 -112.50482 23.582525 101 115 114
-6.715538 -112.51715 23.571821 97 114 115
-6.4786115 -112.51189 23.565552 114 128 134
-6.2871742 -112.47332 23.580811 119 133 145
-5.9085073 -112.42883 23.575909 132 149 159
-12.494269 -112.30771 23.477671 104 116 129
-12.281209 -112.2935 23.479853 114 126 136
-12.103354 -112.28568 23.476864 117 128 134
-11.899657 -112.29458 23.490984 127 134 143
-11.698874 -112.29061 23.480135 112 122 128
-11.511218 -112.31089 23.504667 101 115 119
-11.30643 -112.30795 23.491274 76 93 91
-11.099424 -112.31972 23.510294 59 76 71
-10.663793 -112.33671 23.492403 69 79 86
-10.497348 -112.27383 23.478283 96 109 111
-10.305285 -112.29092 23.485239 86 102 101
-10.095016 -112.31322 23.494102 77 94 90
-9.9016533 -112.30006 23.482943 90 105 103
-9.6864214 -112.25779 23.450945 92 105 108
-9.4723072 -112.28616 23.449474 116 126 135
-9.2933512 -112.29329 23.487537 101 112 117
-9.0939989 -112.29592 23.520075 103 114 118
-8.9114466 -112.28175 23.514051 113 122 122
-8.7027645 -112.27847 23.480791 108 114 110
-8.5104313 -112.3007 23.463085 112 114 110
-8.2573385 -112.30277 23.521822 91 103 102
-8.1122303 -112.29267 23.515612 102 113 115
-7.95367 -112.31011 23.515038 101 113 117
-7.6898313 -112.33387 23.550116 97 99 100
-7.4816613 -112.28542 23.531176 104 104 101
-7.3055429 -112.32745 23.530077 98 109 111
-7.1230989 -112.30664 23.522945 90 102 102
-6.9220071 -112.34846 23.535425 110 123 127
-6.6954703 -112.37522 23.548943 91 111 112
-6.4784546 -112.25674 23.582794 118 122 137
-6.3513656 -112.26343 23.594986 120 133 139
-6.1964979 -112.39411 23.576435 123 131 142
-12.42168 -112.16016 23.495144 123 136 147
-12.272706 -112.13415 23.506989 106 119 129
-12.10687 -112.08138 23.494837 114 124 135
-11.900564 -112.11061 23.497412 132 136 148
-11.694061 -112.1143 23.497721 126 133 141
-11.488235 -112.10623 23.485722 111 123 130
-11.303742 -112.08179 23.495441 112 123 130
-11.144986 -112.06593 23.490812 98 111 118
-10.479568 -112.11199 23.467934 83 96 99
-10.326156 -112.13548 23.477779 85 98 95
-10.106792 -112.13683 23.486652 83 99 97
-9.9065008 -112.17039 23.510586 75 89 88
-9.7102671 -112.13661 23.460905 69 83 82
-9.471139 -112.14902 23.490934 106 118 124
-9.281086 -112.11772 23.493862 99 110 116
-9.0885248 -112.0993 23.512972 105 114 119
-8.8960409 -112.10546 23.50741 104 113 114
-8.7004976 -112.09234 23.486183 99 107 106
-8.5149231 -112.08857 23.502769 101 104 102
-8.3084879 -112.09235 23.488628 89 100 95
-8.1212797 -112.10945 23.526793 94 108 106
-7.9392052 -112.13535 23.539227 95 106 106
-7.6977916 -112.03004 23.543659 124 105 97
-7.460743 -112.16337 23.558062 125 120 113
-7.207973 -112.09825 23.544399 75 79 75
-7.1524491 -112.1965 23.57069 84 92 94
-6.9762588 -112.02353 23.57967 112 114 106
-6.6100898 -112.14651 23.552134 152 162 172
-6.4579787 -112.11377 23.581106 127 138 149
-6.3176975 -112.06857 23.552807 100 114 114
-12.222735 -111.95391 23.421818 88 101 120
-12.075781 -111.94502 23.505859 108 118 130
-11.912801 -111.9045 23.480545 100 112 121
-11.683084 -111.89095 23.502636 114 125 135
-11.481865 -111.90694 23.503971 102 117 122
-11.295071 -111.89295 23.493948 111 122 131
-11.107264 -111.9045 23.512188 122 131 140
-10.994085 -111.80242 23.584475 136 143 149
-10.703849 -111.886 23.402617 79 88 98
-10.484012 -111.87944 23.45557 100 115 119
-10.335104 -111.88345 23.493994 93 106 108
-10.151201 -111.90802 23.433418 84 105 100
-9.6276798 -111.86565 23.435053 71 80 80
-9.5350971 -111.95822 23.506847 84 94 96
-9.2459898 -111.91479 23.502184 88 95 103
-9.0960054 -111.89603 23.500666 115 123 129
-8.8943157 -111.89476 23.512632 106 116 118
-8.7067251 -111.91799 23.521059 107 114 114
-8.5065622 -111.90286 23.500671 103 104 101
-8.2841597 -111.8959 23.509146 128 124 117
-8.1123991 -111.90503 23.534449 125 121 116
-7.8994479 -111.90865 23.488699 124 114 110
-7.6519647 -111.85693 23.515144 177 163 143
-7.2807436 -111.90647 23.536953 77 79 81
-7.0729928 -111.86684 23.55426 131 126 119
-6.9513245 -111.87825 23.543905 127 122 113
-6.4769554 -111.87218 23.557989 157 151 149
-6.3250957 -111.83376 23.558578 124 130 132
-11.815893 -111.77315 23.538971 41 52 60
-11.706096 -111.75847 23.527454 89 101 110
-11.49491 -111.73974 23.491776 78 95 97
-11.263583 -111.75243 23.47703 103 116 126
-11.125341 -111.74565 23.513201 105 117 124
-10.624626 -111.78468 23.454123 109 121 126
-10.487894 -111.73729 23.470167 91 105 110
-10.335826 -111.72498 23.473904 107 120 125
-10.117672 -111.66631 23.447601 105 113 115
-9.8093052 -111.76938 23.453896 71 80 79
-9.7213917 -111.7119 23.534679 47 51 52
-9.4820557 -111.7133 23.538347 102 109 112
-9.2545977 -111.70884 23.50548 108 111 121
-9.0751677 -111.7093 23.491802 120 128 134
-8.9037333 -111.70197 23.502186 104 115 118
-8.7305117 -111.73746 23.502245 97 109 108
-8.5045891 -111.73376 23.492676 108 111 107
-8.273634 -111.75385 23.54838 165 152 142
-8.1311522 -111.67582 23.467245 170 152 133
-7.2152023 -111.70592 23.481493 127 131 113
-7.0827098 -111.66454 23.560863 136 134 120
-6.9004345 -111.69495 23.561882 150 147 136
-6.7066336 -111.719 23.556969 154 149 140
-6.4610891 -111.64184 23.547451 121 117 112
-6.3800278 -111.64249 23.56531 122 126 116
-10.940465 -111.50784 23.42762 92 109 116
-10.062628 -111.5187 23.464848 98 102 105
-9.8668528 -111.49377 23.453396 99 100 104
-9.6973114 -111.47384 23.465086 129 130 134
-9.4953327 -111.45212 23.465599 107 112 122
-9.3071356 -111.48848 23.494303 115 117 128
-9.0807295 -111.5266 23.494059 131 136 145
-8.8993015 -111.50546 23.520781 106 115 118
-8.714572 -111.49275 23.475323 110 114 114
-8.5617056 -111.52314 23.448286 145 144 142
-8.2977982 -111.54298 23.548492 193 173 172
-8.0940981 -111.52135 23.486023 167 156 135
-7.2148056 -111.53265 23.533337 156 165 155
-7.0966353 -111.54803 23.537931 125 125 112
-6.9000869 -111.49825 23.56542 158 155 140
-6.7391934 -111.56255 23.577427 161 158 142
-6.4996033 -111.50828 23.58062 181 178 165
-6.3166103 -111.50913 23.558407 149 147 138
-10.320695 -111.27896 23.415356 117 123 131
-10.077745 -111.29012 23.475544 124 123 131
-9.9101515 -111.28559 23.491907 127 129 139
-9.6991749 -111.29562 23.475121 113 117 126
-9.5033312 -111.2996 23.500319 120 124 130
-9.2992744 -111.29451 23.511562 101 100 110
-9.0638266 -111.28105 23.46237 125 127 129
-8.8961105 -111.32197 23.507515 107 110 112
-8.6828918 -111.26552 23.49391 152 143 135
-8.5203075 -111.31316 23.476761 160 146 134
-8.2815876 -111.28615 23.491779 130 127 112
-8.1269493 -111.28487 23.477455 172 164 146
-7.8955879 -111.24376 23.485762 173 164 140
-7.007926 -111.22315 23.507713 138 141 128
-6.9939785 -111.28912 23.575863 137 133 121
-6.6343508 -111.34992 23.562765 127 130 109
-6.3329482 -111.29608 23.573147 161 158 145
-6.0812759 -111.29132 23.584967 175 162 146
-5.7932353 -111.29967 23.59901 190 170 159
-10.44368 -111.07328 23.454216 125 129 141
-10.288454 -111.08264 23.474577 123 125 136
-10.093145 -111.11143 23.477198 116 118 128
-9.9088478 -111.12637 23.494623 111 111 117
-9.7042837 -111.10607 23.506397 125 126 132
-9.4870567 -111.08482 23.513496 118 121 124
-9.3509808 -111.11744 23.488733 95 97 100
-9.1155491 -111.07771 23.498142 117 110 107
-8.9044809 -111.07061 23.498335 99 101 100
-8.7035494 -111.11302 23.506958 156 148 131
-8.2680035 -111.15295 23.544941 116 117 101
-8.0778837 -111.12269 23.528341 110 111 97
-7.9292731 -111.05758 23.52187 107 113 100
-7.7687035 -111.04354 23.562902 102 112 101
-7.4967995 -111.01675 23.518383 70 79 73
-7.3240786 -111.09397 23.538664 84 91 82
-7.0909166 -111.11837 23.54221 112 116 103
-6.9898586 -111.15595 23.536209 157 160 143
-6.7151022 -111.07523 23.552486 105 110 99
-6.5039482 -111.07027 23.575031 76 82 75
-6.2187243 -111.16426 23.573322 121 120 112
-6.1535931 -111.08623 23.575079 151 147 133
-11.295036 -110.82305 23.523043 76 81 85
-10.429656 -110.92659 23.442648 118 120 133
-10.277514 -110.91499 23.483919 127 128 139
-10.122117 -110.89442 23.484352 117 118 125
-9.8836718 -110.92052 23.477819 113 117 122
-9.7139177 -110.91493 23.506247 125 125 129
-9.5084085 -110.95165 23.500526 130 127 129
-9.3035202 -110.91177 23.516764 153 134 131
-9.1070366 -110.90287 23.508526 116 110 105
-8.9207401 -110.89293 23.448114 99 96 88
-8.6911678 -110.92538 23.548569 184 177 169
-8.5071936 -110.88405 23.484663 128 129 110
-8.0360661 -110.85995 23.472879 123 131 120
-7.8979077 -110.9166 23.521112 95 105 95
-7.7404218 -110.87617 23.513565 88 98 84
-7.4967699 -110.90542 23.53422 80 87 77
-7.2783256 -110.87558 23.538429 106 112 101
-7.1206675 -110.91206 23.561016 108 112 98
-6.8177609 -110.83083 23.591076 155 155 140
-6.715085 -110.88558 23.570644 121 127 113
-11.197742 -110.70463 23.487553 108 117 126
-10.436172 -110.71539 23.442677 62 66 70
-10.265521 -110.73551 23.480427 98 101 109
-10.105133 -110.73909 23.515261 106 110 115
-9.9296818 -110.71388 23.496695 93 97 102
-9.7078285 -110.70695 23.481541 123 118 123
-9.4897499 -110.65588 23.472649 131 121 111
-9.2816248 -110.68433 23.501373 165 146 135
-9.0803804 -110.72021 23.535686 140 132 124
-8.9069653 -110.68816 23.503256 108 104 95
-8.6932306 -110.62693 23.525034 145 130 119
-8.4993315 -110.71726 23.503635 168 154 134
-7.8439827 -110.72952 23.499128 96 102 94
-7.6827936 -110.70732 23.518131 96 101 91
-7.54076 -110.7062 23.527842 106 111 96
-7.3181481 -110.7703 23.52845 113 115 105
-7.0129466 -110.61067 23.48954 89 86 77
-6.6590557 -110.72991 23.577463 139 140 123
-6.5147362 -110.70589 23.574253 161 156 136
-6.2690315 -110.67883 23.592966 195 183 164
-18.593365 -110.41232 23.46199 96 97 106
-11.613937 -110.52533 23.422176 72 61 75
-11.470942 -110.52865 23.475397 91 89 86
-11.26715 -110.49117 23.44051 158 148 148
-11.181164 -110.44553 23.570442 90 98 90
-10.318736 -110.51428 23.456461 101 97 103
-10.078017 -110.51977 23.523716 93 94 100
-9.921731 -110.46389 23.541479 141 134 139
-9.6855555 -110.51386 23.513563 177 158 150
-9.4998474 -110.5042 23.489765 132 121 107
-9.282074 -110.4889 23.501989 141 127 113
-9.0986748 -110.50164 23.502827 126 115 103
-8.9104128 -110.51585 23.482771 108 105 92
-8.7097874 -110.49568 23.476332 134 127 113
-8.5583763 -110.486 23.513502 152 150 133
-7.7046814 -110.54816 23.544836 117 119 107
-7.0050383 -110.58521 23.545639 84 86 74
-6.8966722 -110.54659 23.552114 161 159 135
-6.7836475 -110.48026 23.586155 180 181 154
-18.654457 -110.26207 23.485426 96 100 107
-18.528671 -110.31612 23.479067 92 95 103
-18.259237 -110.25179 23.458826 123 126 135
-11.880897 -110.30966 23.452032 97 93 100
-11.648026 -110.28187 23.49523 175 153 144
-11.560724 -110.31636 23.489149 172 153 145
-11.250662 -110.25552 23.517218 191 165 157
-11.118233 -110.25727 23.497118 155 138 128
-10.870852 -110.25152 23.484451 161 143 140
-10.692535 -110.25016 23.453894 154 137 139
-10.552156 -110.25332 23.459511 194 175 178
-10.288131 -110.29382 23.502851 105 100 107
-10.090152 -110.30813 23.534821 147 136 140
-9.9236631 -110.28809 23.525227 204 182 175
-9.7253532 -110.32278 23.47027 170 143 134
-9.4914017 -110.31091 23.495218 141 132 117
-9.2664785 -110.33173 23.526827 160 149 134
-9.1371298 -110.32858 23.525917 157 146 130
-8.879755 -110.3401 23.53475 146 135 117
-8.7369318 -110.35363 23.484249 168 152 135
-8.5599022 -110.33981 23.516693 133 133 118
-8.2291718 -110.23678 23.550072 131 128 114
-8.1583099 -110.21281 23.598927 84 87 76
-7.9036665 -110.23791 23.459988 141 139 124
-7.0525618 -110.31766 23.568991 106 111 93
-6.9341722 -110.28219 23.551458 150 150 129
-18.867727 -110.0904 23.496469 113 122 127
-18.441759 -110.09871 23.400959 88 91 98
-18.259487 -110.14882 23.488167 115 118 126
-18.197214 -110.11662 23.440079 104 108 120
-12.014893 -110.1199 23.458681 86 84 87
-11.87914 -110.05235 23.48103 112 107 111
-11.706629 -110.08118 23.491026 138 132 127
-11.490799 -110.11259 23.473921 210 190 175
-11.253526 -110.14195 23.506802 175 165 155
-11.104189 -110.12057 23.535395 169 159 147
-10.859468 -110.10589 23.510216 160 147 143
-10.695247 -110.10384 23.505604 156 142 140
-10.525208 -110.10254 23.500257 169 155 150
-10.329043 -110.07666 23.486826 153 146 143
-10.080879 -110.10219 23.485888 186 168 163
-9.8807983 -110.06609 23.505634 170 155 138
-9.7230988 -110.13483 23.441488 178 162 139
-9.2861958 -110.08938 23.504299 99 100 86
-9.0918226 -110.06378 23.488493 121 118 102
-8.9787741 -110.15354 23.512163 175 158 143
-8.2018585 -110.15667 23.589094 118 117 97
-8.1901493 -110.14779 23.536884 125 127 106
-7.4930916 -110.09808 23.488712 97 101 87
-7.0528049 -110.11844 23.531773 71 77 69
-6.9475317 -110.14921 23.518991 156 157 137
-19.057022 -109.8869 23.444544 77 86 90
-18.909874 -109.86176 23.512922 96 104 108
-18.794584 -109.80872 23.564451 72 79 87
-18.537117 -109.85564 23.402985 105 107 118
-12.016256 -109.87074 23.589619 177 154 158
-11.933201 -109.88359 23.519295 129 111 106
-11.715171 -109.91558 23.529337 144 134 124
-11.574735 -109.92216 23.479692 163 153 135
-11.246985 -109.811 23.483852 102 104 90
-11.186477 -109.99272 23.533411 185 171 160
-10.859451 -109.89147 23.508736 120 120 108
-10.693151 -109.92544 23.510483 128 125 119
-10.509438 -109.90952 23.519194 142 136 130
-10.319399 -109.90556 23.529362 108 103 99
-10.109019 -109.93549 23.51857 167 158 150
-9.9001102 -109.8744 23.510138 196 183 166
-9.7985897 -109.82326 23.414816 138 130 111
-9.2727966 -109.91039 23.542877 72 75 61
-9.0935402 -109.91413 23.469542 129 124 107
-8.9789333 -109.80862 23.467159 141 140 119
-7.5194993 -109.86532 23.51351 72 73 63
-7.3011603 -109.98148 23.595247 55 56 51
-7.0572915 -109.82208 23.525116 103 102 97
-6.9638143 -109.9873 23.549095 92 98 86
-19.270548 -109.66807 23.416862 57 65 77
-19.099178 -109.7045 23.478155 70 74 82
-18.429821 -109.74799 23.466293 85 93 103
-18.269968 -109.7468 23.455454 85 87 102
-18.138538 -109.6813 23.465897 117 119 132
-12.026567 -109.67655 23.552177 127 122 117
-11.993895 -109.79622 23.502657 255 231 223
-11.461709 -109.72508 23.489706 103 103 92
-11.331742 -109.67363 23.461441 117 114 99
-11.039218 -109.65 23.511385 105 111 101
-10.913205 -109.70345 23.5091 95 98 90
-10.687277 -109.70518 23.485193 114 115 108
-10.533894 -109.66982 23.494478 130 129 121
-10.292098 -109.70167 23.490246 107 108 96
-10.117991 -109.64265 23.516123 134 130 119
-9.9584274 -109.7079 23.504629 145 138 130
-9.6804476 -109.69159 23.506317 145 140 118
-9.5432892 -109.6388 23.525131 104 109 88
-9.2828522 -109.69414 23.552792 95 97 83
-9.1113968 -109.71763 23.462759 114 111 94
-8.8955154 -109.61056 23.483303 180 172 157
-8.7000141 -109.65974 23.415361 79 87 79
-8.4508085 -109.73521 23.584591 79 85 73
-7.6160259 -109.68783 23.501976 88 93 85
-7.4817462 -109.721 23.500296 92 93 86
-7.3045044 -109.64462 23.499357 87 89 78
-7.0915012 -109.74852 23.570969 85 92 80
-6.9507623 -109.72124 23.589161 94 94 82
-19.18042 -109.58165 23.499249 87 93 102
-18.907312 -109.50977 23.524221 85 90 96
-18.305313 -109.41212 23.436596 149 151 164
-18.060198 -109.59892 23.578907 108 111 124
-12.020435 -109.4134 23.543083 152 137 118
-11.886962 -109.4507 23.532862 159 147 133
-11.742349 -109.4794 23.507566 163 150 133
-11.483731 -109.47311 23.494465 97 100 87
-11.319002 -109.46183 23.498539 133 127 110
-11.070828 -109.51107 23.504137 133 134 122
-10.90847 -109.4902 23.508398 116 121 109
-10.685317 -109.47578 23.496862 130 130 120
-10.506474 -109.51334 23.522453 145 141 133
-10.264697 -109.49113 23.505238 162 149 136
-10.097212 -109.50781 23.493059 116 115 109
-9.90028 -109.50297 23.501497 108 111 99
-9.6610708 -109.50147 23.503141 124 122 103
-9.5458097 -109.47456 23.545015 141 135 115
-9.2445383 -109.50076 23.530903 123 110 99
-8.8663626 -109.50879 23.495106 188 170 154
-8.6097393 -109.54617 23.484457 91 97 83
-8.5172291 -109.42858 23.426411 113 124 110
-7.7809854 -109.47919 23.40077 82 77 71
-7.5132146 -109.49381 23.494825 111 108 99
-7.3001938 -109.51525 23.539242 108 106 95
-7.1479712 -109.51019 23.569523 87 89 80
-6.8490462 -109.45697 23.593533 81 82 76
-19.286425 -109.22038 23.538349 89 94 105
-19.077631 -109.29951 23.406622 102 105 115
-18.966776 -109.37946 23.429735 78 86 92
-18.303186 -109.35359 23.482254 60 68 79
-18.119432 -109.29816 23.464941 108 112 120
-17.912695 -109.32224 23.464907 104 107 114
-12.005335 -109.35639 23.53875 170 159 139
-11.896633 -109.32004 23.531219 154 147 133
-11.706671 -109.31546 23.527662 139 132 118
-11.484384 -109.31461 23.529148 103 104 93
-11.338373 -109.27489 23.487305 129 126 111
-11.128175 -109.27616 23.533068 126 127 110
-10.874776 -109.322 23.525333 120 125 115
-10.698097 -109.29366 23.508797 113 114 103
-10.491158 -109.27242 23.49098 171 159 149
-10.305206 -109.30974 23.486708 155 145 136
-10.1156 -109.28396 23.481401 125 128 116
-9.9171 -109.30573 23.495729 132 131 117
-9.6735859 -109.31404 23.47987 157 145 135
-9.528347 -109.34025 23.493708 136 127 112
-9.2931528 -109.29105 23.551933 181 167 155
-9.1457586 -109.30235 23.523781 131 122 114
-8.8924522 -109.26501 23.461399 90 84 77
-8.7184658 -109.35121 23.406412 86 91 85
-8.4552898 -109.23105 23.56135 99 111 98
-8.2522717 -109.23466 23.555176 69 80 72
-8.1579437 -109.27165 23.499989 117 123 105
-7.8336964 -109.26108 23.559774 107 108 90
-7.3861442 -109.34097 23.423269 193 179 166
-7.0341721 -109.26626 23.535162 77 73 74
-6.7022862 -109.20987 23.589706 116 102 93
-19.281509 -109.17213 23.533478 86 93 105
-18.399757 -109.02518 23.424911 122 119 133
-18.147905 -109.14178 23.487185 127 126 145
-11.845499 -109.17599 23.409285 169 162 152
-11.696342 -109.12245 23.508677 71 74 74
-11.498356 -109.15081 23.537706 93 94 92
-11.280715 -109.1221 23.512068 125 124 111
-11.110226 -109.08333 23.502409 136 135 117
-10.883668 -109.10442 23.465467 107 108 92
-10.708323 -109.09383 23.515543 117 120 109
-10.490264 -109.08198 23.506586 169 156 143
-10.332309 -109.08181 23.482161 155 148 135
-10.082434 -109.08064 23.496395 114 116 108
-9.9480925 -109.07926 23.521757 124 126 111
-9.5724325 -109.15924 23.543827 162 152 134
-9.2665634 -109.1581 23.517542 173 153 143
-8.5031881 -109.19533 23.437477 85 94 78
-8.2739906 -109.06159 23.551266 91 93 82
-8.1257534 -109.10557 23.542614 67 75 68
-7.8823266 -109.12612 23.535658 125 125 109
-7.7721343 -109.09879 23.523716 128 123 104
-6.7209587 -109.10907 23.579468 112 108 101
-6.5063105 -109.09244 23.573004 113 115 106
-5.6882224 -109.00612 23.590288 132 134 115
-18.435627 -108.97999 23.422699 112 109 126
-18.328064 -108.92362 23.436018 96 98 110
-18.117546 -108.89203 23.541729 125 126 145
-11.229531 -108.93813 23.485033 102 101 90
-11.062418 -108.90403 23.489941 143 140 128
-10.892204 -108.91854 23.489716 117 119 107
-10.744658 -108.94367 23.463671 87 92 85
-10.47542 -108.90977 23.499584 187 172 154
-10.341626 -108.97782 23.463018 174 163 147
-10.058562 -108.93277 23.50276 110 113 104
-9.9170904 -108.87637 23.513536 100 106 95
-9.7274446 -108.89359 23.48225 99 99 101
-8.6043749 -108.92598 23.591761 76 79 70
-8.4854927 -108.86652 23.486229 118 121 107
-8.3145838 -108.94046 23.48111 76 75 72
-8.1140919 -108.9188 23.454731 79 82 75
-7.8010187 -108.93118 23.582857 58 61 50
-7.7632689 -108.89325 23.512571 71 75 65
-6.624516 -108.96169 23.553717 67 68 60
-6.541441 -108.87195 23.547949 93 100 85
-6.3815336 -108.90785 23.552776 137 135 124
-5.6060815 -108.85158 23.587891 140 143 132
-11.704437 -108.672 23.463591 147 136 127
-11.418999 -108.72367 23.494255 163 152 143
-11.280285 -108.67001 23.526018 197 176 166
-11.051105 -108.67792 23.518484 157 149 134
-10.886476 -108.65181 23.483215 149 143 127
-10.689541 -108.65794 23.478014 154 147 129
-10.559094 -108.74564 23.462917 168 158 140
-10.068167 -108.74782 23.513296 83 94 83
-9.8605766 -108.71215 23.481495 115 113 104
-9.7398558 -108.68121 23.487608 89 90 82
-9.5280018 -108.71202 23.557037 66 70 62
-9.0717592 -108.7484 23.535564 132 117 98
-8.9003038 -108.65753 23.513824 107 102 99
-8.5350971 -108.72562 23.543798 82 89 83
-8.2269955 -108.65139 23.445206 98 91 98
-8.1059055 -108.66975 23.491962 84 84 84
-7.6860814 -108.71675 23.516764 116 114 102
-7.5979996 -108.67628 23.526997 76 82 72
-6.4649911 -108.7445 23.516569 94 96 82
-6.3128533 -108.69617 23.586355 90 93 82
-6.1554184 -108.68159 23.599348 101 107 103
-5.5753155 -108.75513 23.584078 93 100 92
-13.705371 -108.48291 23.458076 122 127 145
-13.549997 -108.44608 23.486942 109 120 135
-12.498046 -108.44159 23.43429 90 91 107
-12.021795 -108.4363 23.475861 201 181 173
-11.854037 -108.50016 23.53063 201 176 164
-11.725421 -108.44512 23.493525 144 134 125
-11.531165 -108.52277 23.428698 150 142 132
-11.018287 -108.52917 23.452156 159 150 128
-10.902662 -108.49318 23.484457 141 135 118
-10.70455 -108.51225 23.507711 143 136 120
-10.552957 -108.46531 23.485067 157 154 132
-10.082555 -108.54232 23.528694 98 100 91
-9.8453722 -108.48534 23.491978 79 85 78
-9.6937513 -108.48716 23.492111 72 72 66
-9.431735 -108.5352 23.484226 161 139 131
-9.3572884 -108.51145 23.532429 160 149 133
-8.6431141 -108.52785 23.468529 93 96 85
-8.4539728 -108.56884 23.570789 71 78 71
-8.3621969 -108.52472 23.476248 127 113 104
-8.0779171 -108.52505 23.475929 104 97 96
-7.5743041 -108.49184 23.458187 77 83 69
-6.294529 -108.52529 23.570734 101 106 91
-6.1333032 -108.58289 23.588402 116 120 108
-5.8810706 -108.59588 23.595442 183 151 136
-13.813547 -108.30907 23.444563 132 133 144
-13.699121 -108.26725 23.506443 141 140 149
-13.493472 -108.26303 23.503075 127 127 135
-13.323294 -108.28946 23.514154 146 145 153
-13.129908 -108.23782 23.507715 118 122 125
-12.281692 -108.28182 23.488228 129 123 129
-12.087176 -108.30506 23.528845 193 169 161
-11.936983 -108.29832 23.52972 146 136 131
-11.672033 -108.28953 23.508667 125 123 113
-11.503803 -108.26423 23.517666 135 131 118
-11.313517 -108.25552 23.484278 149 146 132
-11.123637 -108.26443 23.490261 139 131 125
-10.891505 -108.34122 23.466087 157 146 132
-10.710069 -108.3146 23.454039 159 147 131
-10.582396 -108.28458 23.443645 179 166 143
-10.098896 -108.23332 23.488594 83 86 86
-9.9059801 -108.27366 23.525003 82 86 83
-9.7192554 -108.34248 23.487019 116 113 111
-9.4296722 -108.37034 23.564819 64 60 49
-9.264452 -108.38222 23.43203 92 86 90
-8.8284302 -108.38676 23.599331 180 165 146
-8.6972628 -108.29514 23.42564 139 132 104
-8.4195175 -108.33549 23.499256 87 87 75
-8.1348591 -108.29432 23.516577 68 69 78
-7.9307108 -108.35287 23.44976 66 66 70
-7.612608 -108.2066 23.450535 87 87 89
-7.4870954 -108.23553 23.458755 88 90 90
-6.3573895 -108.3509 23.530434 133 135 121
-14.040108 -108.08298 23.475439 147 148 160
-13.891428 -108.07682 23.447121 121 122 128
-13.698667 -108.11961 23.515987 125 125 130
-13.517397 -108.13358 23.564718 135 135 138
-13.307575 -108.10442 23.56818 121 120 121
-13.12591 -108.08514 23.53223 99 104 107
-12.891839 -108.0513 23.520138 58 69 73
-12.53243 -108.00706 23.468359 80 84 96
-12.293814 -108.13029 23.494944 154 140 146
-12.100598 -108.10554 23.515871 201 175 166
-11.933909 -108.09171 23.533817 148 141 129
-11.705918 -108.12229 23.496256 123 127 120
-11.475815 -108.09734 23.540815 149 142 126
-11.311188 -108.11268 23.516956 131 131 116
-11.124996 -108.11723 23.514717 123 121 107
-10.872135 -108.07029 23.469839 148 140 123
-10.743258 -108.09309 23.463305 166 155 137
-10.504785 -108.19125 23.428358 166 159 133
-10.124756 -108.10817 23.472635 78 83 80
-9.9287548 -108.14355 23.505764 78 80 82
-9.684412 -108.05571 23.502438 80 80 82
-9.4470415 -108.09169 23.518534 107 108 92
-8.7069569 -108.11253 23.586046 94 92 77
-8.3356113 -108.16515 23.482965 81 85 74
-7.9158239 -108.1294 23.537935 178 161 145
-7.6408267 -108.03 23.440315 92 98 88
-7.5508161 -108.07069 23.520365 89 92 83
-14.311506 -107.87735 23.468727 133 130 138
-14.104976 -107.93851 23.50592 145 139 148
-13.902481 -107.90471 23.478556 128 127 133
-13.690009 -107.94664 23.504923 116 119 122
-13.529984 -107.89555 23.562323 108 110 110
-13.252963 -107.89015 23.531372 97 99 101
-13.121821 -107.89954 23.508739 77 86 88
-12.884394 -107.81537 23.49964 86 91 95
-12.66444 -107.8626 23.459259 117 117 125
-12.493505 -107.86373 23.46876 125 123 134
-12.350154 -107.85007 23.490131 109 110 117
-12.085905 -107.88901 23.504612 164 151 144
-11.892716 -107.87858 23.538515 156 147 131
-11.702667 -107.89783 23.525116 146 140 125
-11.481814 -107.88885 23.535841 145 136 117
-11.270352 -107.92019 23.527393 131 129 110
-11.116405 -107.85941 23.571745 107 111 97
-10.839846 -107.93362 23.460569 155 145 127
-10.779579 -107.98532 23.441544 154 145 125
-10.494558 -107.80534 23.573965 78 83 79
-10.273751 -107.8901 23.469864 86 92 87
-10.113904 -107.89237 23.495659 72 77 74
-9.6904793 -107.82887 23.473049 79 83 84
-9.5599642 -107.81322 23.578104 79 79 82
-8.8812351 -107.8632 23.522711 84 89 77
-8.2601852 -107.90714 23.53685 81 83 74
-8.0927048 -107.89764 23.475199 99 96 86
-7.891685 -107.88781 23.515997 97 99 90
-7.6623592 -107.84097 23.474916 105 107 96
-7.5827198 -107.94412 23.527622 88 91 83
-14.645342 -107.64484 23.514042 145 138 150
-14.530228 -107.64301 23.482094 130 129 136
-14.277411 -107.71214 23.464079 151 151 159
-14.131384 -107.74693 23.536739 149 146 150
-13.972416 -107.74861 23.492172 101 102 107
-13.268531 -107.68784 23.482582 79 85 88
-13.129733 -107.687 23.49473 62 73 77
-12.869869 -107.69785 23.470072 112 114 121
-12.694648 -107.712 23.50853 132 130 135
-12.521896 -107.70116 23.496784 121 119 125
-12.291944 -107.70914 23.483501 102 106 114
-12.080499 -107.68925 23.518366 152 142 140
-11.904252 -107.70155 23.553297 159 147 132
-11.724679 -107.6974 23.534199 149 139 126
-11.49199 -107.6926 23.540123 140 135 119
-11.301203 -107.68972 23.519468 112 108 95
-11.092751 -107.71819 23.468824 124 122 106
-10.868524 -107.69978 23.489426 115 114 99
-10.792969 -107.64659 23.548626 156 149 129
-10.234234 -107.66515 23.495277 68 75 74
-10.094264 -107.70762 23.467733 74 79 78
-9.9404783 -107.69125 23.51292 74 79 77
-9.5019312 -107.72205 23.475883 107 101 97
-9.3211832 -107.71789 23.438103 62 70 57
-8.8610954 -107.7393 23.549482 98 105 92
-8.722784 -107.73687 23.568382 96 91 94
-8.5858278 -107.77657 23.411413 99 88 66
-8.2767467 -107.72731 23.529032 116 117 107
-8.1336222 -107.69831 23.471586 95 86 79
-7.8712573 -107.66119 23.469917 88 93 83
-7.6683564 -107.64879 23.524632 107 104 95
-7.5465221 -107.68857 23.518677 89 91 82
-16.651976 -107.43774 23.461588 131 127 143
-16.465521 -107.44703 23.501825 130 123 141
-16.299231 -107.45129 23.483236 136 129 147
-15.781532 -107.48419 23.564199 94 87 103
-14.830498 -107.50375 23.54216 122 120 131
-14.747857 -107.51892 23.539728 125 127 135
-14.482903 -107.52332 23.51009 110 114 118
-14.341682 -107.49146 23.506897 101 103 107
-13.534674 -107.40208 23.4587 46 55 60
-13.262134 -107.50523 23.500713 82 90 93
-13.125009 -107.48877 23.510225 83 92 96
-12.876228 -107.51262 23.502666 118 120 125
-12.717009 -107.50311 23.528988 121 120 123
-12.500938 -107.50169 23.489573 95 98 102
-12.295024 -107.50069 23.490723 86 93 98
-12.064723 -107.50575 23.506813 134 125 121
-11.940414 -107.48964 23.522625 138 128 119
-11.695778 -107.49567 23.489555 126 122 110
-11.524878 -107.49416 23.525709 154 144 131
-11.299876 -107.51508 23.480555 139 130 117
-11.153662 -107.48872 23.540943 163 147 132
-10.55501 -107.48515 23.527843 56 66 64
-10.219457 -107.56661 23.451912 61 68 70
-10.125224 -107.51486 23.489491 94 95 89
-9.8786688 -107.53674 23.521822 108 107 100
-9.7038937 -107.51281 23.504745 112 105 102
-9.4875479 -107.48948 23.563583 62 58 60
-9.2351046 -107.44947 23.467628 68 65 56
-9.1352921 -107.56163 23.494846 65 71 65
-8.8239956 -107.50774 23.489668 133 131 118
-8.7019482 -107.47591 23.585297 69 70 63
-8.5399189 -107.45137 23.504 73 72 63
-8.296032 -107.53825 23.541889 119 119 101
-7.6657577 -107.54716 23.470495 96 99 88
-7.5016718 -107.55415 23.513401 82 85 76
-7.339994 -107.46247 23.54718 94 97 85
-6.237381 -107.48003 23.579815 83 85 76
-6.1806655 -107.57616 23.561817 119 101 89
-16.86351 -107.33759 23.433578 143 138 157
-16.734327 -107.31627 23.576956 125 113 135
-16.500168 -107.37658 23.526892 134 134 144
-16.270819 -107.31583 23.512079 118 121 126
-16.127502 -107.2664 23.558908 123 123 131
-15.897527 -107.33504 23.501535 134 130 145
-14.472772 -107.30273 23.51556 81 87 87
-14.311374 -107.30425 23.519764 90 91 95
-13.601677 -107.27302 23.486032 52 63 63
-13.488892 -107.27542 23.480314 56 66 68
-13.280273 -107.28779 23.518719 92 99 101
-13.123675 -107.29282 23.489035 87 94 97
-12.908973 -107.2979 23.504557 118 119 125
-12.675962 -107.29032 23.517286 109 110 112
-12.498994 -107.31336 23.475012 87 93 95
-12.280241 -107.31087 23.477949 101 102 106
-12.087895 -107.30746 23.507235 123 115 117
-11.898991 -107.29726 23.497736 128 122 114
-11.711425 -107.28755 23.488844 160 149 135
-11.51219 -107.30951 23.505671 149 142 127
-11.323588 -107.27852 23.511517 136 132 119
-11.162004 -107.28734 23.494959 153 140 130
-10.262038 -107.34514 23.55299 179 145 133
-10.096516 -107.30899 23.452009 90 93 83
-9.8640175 -107.28662 23.506071 143 140 131
-9.6573896 -107.3382 23.455715 76 75 70
-9.2923002 -107.36752 23.494247 79 76 77
-9.1217289 -107.27582 23.429695 111 111 109
-8.9260263 -107.30662 23.511484 115 111 101
-8.6997833 -107.34821 23.522326 108 104 93
-8.5523558 -107.31752 23.539345 83 82 71
