ply
format ascii 1.0
comment PCL generated
element vertex 1091
property float x
property float y
property float z
property uchar red
property uchar green
property uchar blue
element face 0
element camera 0
property float view_px
property float view_py
property float view_pz
property float x_axisx
property float x_axisy
property float x_axisz
property float y_axisx
property float y_axisy
property float y_axisz
property float z_axisx
property float z_axisy
property float z_axisz
property float focal
property float scalex
property float scaley
property float centerx
property float centery
property int viewportx
property int viewporty
property float k1
property float k2
end_header
-95.060623 -48.451202 26.063305 153 158 161
-94.89019 -48.441963 26.080694 157 155 156
-94.678513 -48.480145 26.103338 177 171 177
-94.518333 -48.514465 26.077543 151 149 153
-94.309166 -48.494846 26.04649 129 134 132
-94.117004 -48.539097 26.084589 145 152 151
-93.928787 -48.543373 26.071964 128 135 134
-93.661888 -48.515572 26.116922 149 156 150
-93.499458 -48.531822 26.100994 150 151 151
-93.32592 -48.542973 26.068409 167 166 169
-93.135956 -48.590546 26.070377 188 176 182
-103.91437 -48.289646 26.133654 171 157 162
-103.64967 -48.248539 26.130676 143 135 137
-103.50472 -48.291988 26.121449 141 137 135
-103.27093 -48.289234 26.144203 151 146 144
-103.1593 -48.325516 26.096695 140 134 133
-102.92408 -48.378403 26.073902 97 102 101
-102.72761 -48.373119 26.058771 76 78 72
-102.49953 -48.301357 26.100275 57 67 59
-102.29489 -48.301464 26.104689 148 146 146
-102.13053 -48.285919 26.137468 173 166 165
-101.95887 -48.287846 26.084593 155 154 147
-101.60309 -48.363796 26.066372 111 119 111
-101.50174 -48.305046 26.090996 122 127 119
-101.31172 -48.292618 26.11079 144 147 141
-101.09082 -48.279037 26.180735 147 145 134
-100.90487 -48.279682 26.094736 139 141 129
-100.68086 -48.317509 26.099417 151 149 141
-100.50155 -48.295998 26.147184 155 144 141
-100.30498 -48.329407 26.111088 147 145 144
-100.10528 -48.257225 26.096682 159 153 154
-99.942596 -48.335129 26.052689 166 159 168
-99.634079 -48.286716 26.116987 145 151 151
-99.448708 -48.336193 26.037525 146 145 145
-99.311264 -48.312962 26.06953 143 144 145
-99.115929 -48.317875 26.059793 135 134 138
-98.908394 -48.332054 26.064308 158 154 158
-98.706184 -48.298985 26.101875 159 155 160
-98.503204 -48.268002 26.097908 170 168 179
-98.283035 -48.263458 26.030933 165 161 169
-98.131943 -48.268394 26.057571 150 152 164
-97.850159 -48.25703 26.056709 138 139 144
-97.745674 -48.303059 26.122629 179 175 183
-97.524887 -48.325096 26.126917 157 155 161
-97.269333 -48.330994 26.115208 162 161 170
-97.101479 -48.321411 26.083805 174 173 185
-96.936218 -48.275455 26.075369 186 180 191
-96.734688 -48.291569 26.12961 169 162 176
-96.19281 -48.202885 26.037706 77 82 86
-95.878166 -48.244102 26.086411 125 123 130
-95.527267 -48.237907 26.063681 127 127 131
-95.088234 -48.304935 26.057549 144 147 149
-94.895477 -48.312557 26.09823 164 162 164
-94.690376 -48.3064 26.095329 174 171 174
-94.532768 -48.300888 26.075804 161 160 168
-94.330315 -48.326328 26.054346 92 99 100
-94.024818 -48.38784 26.086872 161 161 161
-93.802681 -48.233894 26.001101 159 160 158
-93.687462 -48.373024 26.119339 168 175 167
-103.9174 -48.172401 26.12722 91 86 92
-103.7055 -48.139599 26.108679 122 118 118
-103.50263 -48.106682 26.12034 137 128 127
-103.30218 -48.105438 26.124897 154 148 146
-102.4721 -48.087986 26.080498 96 100 96
-102.31075 -48.117985 26.098913 180 168 169
-102.10072 -48.109852 26.094854 163 161 160
-101.88339 -48.129562 26.111477 169 165 158
-101.66146 -48.044701 26.093273 172 163 164
-101.46205 -48.10001 26.068897 117 123 116
-101.32679 -48.083122 26.108566 124 128 120
-101.06847 -48.129086 26.140202 150 142 141
-100.8865 -48.144608 26.114441 147 145 138
-100.68884 -48.127407 26.122375 141 142 131
-100.48887 -48.084347 26.111292 146 143 137
-100.31321 -48.097656 26.091194 143 139 135
-100.11984 -48.05172 26.087875 153 146 146
-99.903755 -48.10997 26.092369 161 154 155
-99.737488 -48.10622 26.097162 168 158 161
-99.504044 -48.137398 26.056396 149 148 150
-99.258583 -48.081482 26.040525 162 155 154
-99.098961 -48.11235 26.115963 175 161 164
-98.907936 -48.079956 26.101776 163 145 150
-98.700645 -48.057785 26.104496 119 121 127
-98.490746 -48.087097 26.119217 150 151 161
-98.306633 -48.085072 26.070028 141 138 146
-98.125244 -48.089447 26.062288 172 164 165
-97.873032 -48.145592 26.117733 152 157 162
-97.759079 -48.106922 26.095388 156 153 159
-97.456024 -48.143131 26.116852 161 156 159
-97.278831 -48.121071 26.06102 129 128 133
-97.121552 -48.108337 26.1061 145 142 147
-96.874374 -48.13641 26.085066 172 164 171
-96.710876 -48.097065 26.118551 164 162 175
-96.526337 -48.035065 26.038521 125 122 134
-96.280136 -48.076168 26.013134 84 85 87
-96.094078 -48.088463 26.106108 129 131 144
-95.828957 -48.126652 26.170359 99 97 113
-95.682068 -48.108738 26.136072 92 97 94
-95.500336 -48.119976 26.090885 128 131 141
-95.206558 -48.182442 26.119528 174 178 179
-95.10479 -48.141041 26.031012 141 145 145
-94.935654 -48.07925 26.10091 152 155 161
-94.682449 -48.145103 26.086437 135 136 142
-94.49826 -48.142628 26.063477 109 110 115
-94.174133 -48.042908 26.003748 135 132 140
-93.723495 -48.185852 26.076782 150 152 156
-103.43804 -47.856922 26.099722 100 106 100
-103.36084 -47.947399 26.138294 140 138 137
-102.83723 -47.809128 26.091843 42 59 46
-102.67757 -47.846752 26.065228 106 105 102
-102.47713 -47.882504 26.076174 135 128 126
-102.29235 -47.906116 26.097504 153 148 145
-102.08746 -47.909199 26.109613 162 159 154
-101.91666 -47.889221 26.105658 161 160 154
-101.70164 -47.875477 26.085396 140 139 135
-101.50969 -47.902782 26.125769 136 136 132
-101.32581 -47.880417 26.123152 143 140 138
-101.16559 -47.864685 26.167288 162 157 160
-100.84791 -47.855282 26.078999 142 141 133
-100.69304 -47.896992 26.122204 131 130 124
-100.52095 -47.882195 26.109337 121 118 113
-100.2963 -47.907814 26.097515 144 141 137
-100.1011 -47.895523 26.083918 141 139 135
-99.90432 -47.914589 26.154133 158 147 149
-99.723251 -47.855492 26.100571 153 142 141
-99.543793 -47.899075 26.090347 166 153 156
-99.270088 -47.900246 26.049442 159 151 152
-99.107338 -47.912678 26.07342 162 154 151
-98.90815 -47.882671 26.138605 150 137 139
-98.714058 -47.905029 26.050707 134 118 122
-98.509209 -47.904549 26.106052 132 135 141
-98.283005 -47.939522 26.057009 156 154 160
-98.089218 -47.904102 26.079975 163 160 163
-97.935364 -47.919922 26.043434 133 134 134
-97.74691 -47.857357 26.121178 115 123 121
-97.419884 -47.88908 26.083113 144 145 141
-97.273911 -47.886436 26.08058 119 122 123
-97.085106 -47.847137 26.144228 100 108 109
-96.885506 -47.842957 26.124525 125 129 132
-96.705734 -47.867878 26.097015 136 142 150
-96.507217 -47.864853 26.082336 160 158 167
-96.312309 -47.895195 26.092461 164 164 169
-96.137718 -47.922173 26.065498 156 158 165
-95.949776 -47.856239 26.146748 179 175 175
-95.729691 -47.859993 26.118402 83 87 97
-95.547348 -47.88715 26.046324 101 106 119
-94.826332 -47.812954 26.079941 159 154 151
-94.684303 -47.879845 26.05039 171 167 168
-103.46316 -47.757858 26.089523 72 83 75
-102.80966 -47.761021 26.07616 44 58 46
-102.67054 -47.700031 26.118547 60 69 63
-102.48613 -47.715755 26.107641 127 126 127
-102.29401 -47.708057 26.102869 134 134 130
-102.09639 -47.711082 26.11792 163 163 155
-101.89087 -47.715488 26.116793 157 156 152
-101.73309 -47.729549 26.124413 155 152 149
-101.46442 -47.753609 26.101906 132 133 130
-101.29012 -47.680912 26.097643 141 140 140
-101.15187 -47.649448 26.134897 158 159 157
-100.88085 -47.683567 26.112419 130 133 124
-100.66663 -47.671253 26.109255 137 132 128
-100.49538 -47.729858 26.122604 135 130 126
-100.29437 -47.733204 26.104706 154 151 146
-100.10466 -47.707993 26.108862 151 148 140
-99.892807 -47.742989 26.132462 183 170 167
-99.697266 -47.704029 26.122545 156 146 142
-99.460068 -47.741325 26.12398 188 172 173
-99.267288 -47.667984 26.102783 158 151 152
-99.107117 -47.687836 26.059845 155 147 148
-98.92704 -47.700085 26.085493 169 158 158
-98.720238 -47.735519 26.092115 110 115 118
-98.488449 -47.745377 26.125092 117 127 127
-98.294121 -47.718384 26.103514 125 127 131
-98.110725 -47.708118 26.105455 131 132 138
-97.909859 -47.728313 26.067383 125 125 125
-97.722183 -47.677105 26.09824 113 121 121
-97.461372 -47.645226 26.109024 107 108 104
-97.269348 -47.719444 26.091854 125 124 124
-97.088455 -47.721558 26.123997 120 128 127
-96.924767 -47.753139 26.069565 147 148 152
-96.702011 -47.72224 26.090042 134 133 138
-96.50386 -47.710804 26.134863 139 137 139
-96.324203 -47.706062 26.134605 126 129 128
-95.935921 -47.784645 26.160078 179 175 176
-95.651711 -47.705658 26.091339 150 150 157
-95.519463 -47.748032 26.133528 143 145 150
-95.362274 -47.686188 26.058659 69 80 84
-94.805313 -47.705475 26.15876 157 158 148
-94.698326 -47.699398 26.027224 164 163 159
-94.528084 -47.770184 26.023775 163 159 165
-102.63674 -47.558868 26.075495 42 57 47
-102.48293 -47.557407 26.090101 75 85 75
-102.28662 -47.531525 26.088829 125 125 121
-102.06345 -47.500122 26.065094 161 153 153
-101.92126 -47.533295 26.151819 153 148 150
-101.70052 -47.500298 26.099943 144 145 144
-101.49686 -47.510479 26.103884 131 135 133
-101.31889 -47.498905 26.084173 130 134 130
-101.14682 -47.453972 26.106316 152 145 143
-100.89146 -47.4856 26.093571 145 144 136
-100.71052 -47.480499 26.137239 136 133 128
-100.50847 -47.528313 26.121984 152 147 147
-100.35227 -47.524204 26.091192 169 154 158
-100.05121 -47.572063 26.132925 167 156 148
-99.856728 -47.449894 26.105858 160 151 148
-99.735535 -47.48484 26.143276 128 122 120
-99.482864 -47.506618 26.129972 169 159 157
-99.302788 -47.48357 26.08428 158 153 151
-99.144814 -47.501408 26.125069 163 154 158
-98.90741 -47.480122 26.029285 141 126 128
-98.735161 -47.412334 26.037554 102 99 105
-98.266228 -47.499012 26.076509 123 128 132
-98.102844 -47.50024 26.112106 132 133 139
-97.894485 -47.54533 26.090422 115 121 127
-97.729675 -47.445118 26.098175 99 108 107
-97.488991 -47.485756 26.081051 112 115 112
-97.31514 -47.522987 26.150427 135 131 130
-97.143364 -47.581997 26.07185 133 133 129
-96.897797 -47.452713 26.101944 123 121 127
-96.693535 -47.526077 26.098694 104 106 108
-96.52327 -47.509689 26.113111 111 115 113
-96.321884 -47.509148 26.108946 129 130 129
-95.890694 -47.49501 26.112637 124 128 133
-95.733765 -47.477402 26.119543 150 149 154
-95.503105 -47.50172 26.055008 132 137 143
-102.53274 -47.34547 26.015127 60 62 51
-102.23515 -47.344978 26.124329 163 163 158
-102.0775 -47.286671 26.087963 93 97 90
-101.89745 -47.291256 26.106869 126 128 126
-101.7097 -47.319599 26.091154 147 149 149
-101.50481 -47.320305 26.093512 148 147 145
-101.28445 -47.301582 26.080111 140 141 138
-101.08508 -47.278259 26.104141 149 147 144
-100.87627 -47.330837 26.156843 170 155 154
-100.71159 -47.298489 26.11894 155 150 150
-100.50843 -47.320915 26.122437 171 159 159
-100.36028 -47.311733 26.080873 171 156 157
-100.06422 -47.283195 26.167017 163 152 149
-99.886528 -47.28933 26.112959 149 141 136
-99.738968 -47.275848 26.137306 149 138 138
-99.513611 -47.298161 26.079603 141 140 140
-99.302284 -47.308044 26.085159 149 147 146
-99.119095 -47.307301 26.063379 141 138 140
-98.914009 -47.313698 26.062164 157 146 146
-98.733017 -47.351887 26.077728 115 119 122
-98.489998 -47.303135 26.020689 116 127 129
-98.274452 -47.322254 26.111 156 155 161
-98.12825 -47.320984 26.131716 155 152 157
-97.905899 -47.286015 26.103947 132 132 136
-97.692719 -47.307377 26.131691 127 133 136
-97.52803 -47.274471 26.139135 98 107 105
-96.84388 -47.326214 26.158905 121 124 122
-96.666573 -47.30101 26.105261 99 103 106
-96.506821 -47.313354 26.093494 104 112 110
-96.308189 -47.271126 26.093212 109 116 116
-96.106705 -47.287273 26.114309 125 129 132
-95.899872 -47.271317 26.09754 134 138 143
-95.698402 -47.272953 26.085609 122 124 130
-95.573242 -47.263573 26.128387 120 128 125
-95.320801 -47.24353 26.089941 114 114 118
-102.05513 -47.153748 26.065388 91 100 92
-101.90347 -47.116772 26.090143 134 136 136
-101.69958 -47.123039 26.066784 140 141 139
-101.47947 -47.090824 26.104736 152 150 149
-101.29913 -47.098476 26.074171 147 145 144
-101.1138 -47.13998 26.135506 148 139 139
-100.93608 -47.103348 26.139404 177 167 164
-100.71238 -47.150856 26.150682 157 153 151
-100.43593 -47.026978 26.127476 167 160 162
-100.29422 -47.074455 26.099827 137 131 130
-100.12534 -47.101097 26.118923 175 163 166
-99.876389 -47.114452 26.134209 174 161 156
-99.699753 -47.11132 26.114254 155 146 143
-99.525902 -47.125629 26.103142 125 128 124
-99.323395 -47.121349 26.075222 139 141 140
-99.13105 -47.069714 26.052406 151 148 151
-98.953003 -47.189926 26.010145 106 104 105
-98.408798 -47.0951 26.098097 132 145 148
-98.288742 -47.104424 26.101091 138 139 144
-98.088753 -47.09705 26.122196 146 145 147
-97.942436 -47.167023 26.108643 121 127 123
-97.660446 -47.122322 26.096203 127 128 127
-97.520721 -47.100815 26.105667 88 99 97
-97.265144 -47.051815 26.178112 89 100 92
-97.183456 -47.011658 26.109524 78 85 79
-96.681587 -47.083725 26.126457 137 136 140
-96.447708 -47.103996 26.07494 91 100 101
-96.280579 -47.094566 26.09709 134 135 137
-96.113411 -47.091415 26.091408 140 143 144
-95.896912 -47.100094 26.081427 161 162 168
-95.711403 -47.079266 26.059805 152 152 159
-95.594727 -47.065216 26.012199 186 190 200
-95.304886 -47.164494 26.104328 110 114 125
-102.47009 -46.867706 26.027107 47 53 51
-102.0457 -46.869556 26.037174 77 75 73
-101.92889 -46.916187 26.088951 101 103 103
-101.6694 -46.856121 26.0457 160 153 150
-101.46658 -46.931313 26.051237 155 151 150
-101.29177 -46.910877 26.08778 154 151 149
-101.08233 -46.930553 26.15136 151 146 145
-100.95611 -46.89381 26.16984 188 175 173
-100.66212 -46.873466 26.103123 152 146 141
-100.48895 -46.885674 26.124983 147 138 141
-100.3009 -46.901855 26.097336 141 137 134
-100.11374 -46.927959 26.106155 146 143 140
-99.912979 -46.86747 26.116318 144 135 131
-99.727776 -46.897686 26.09815 189 171 172
-99.535553 -46.887989 26.063929 137 137 139
-99.344154 -46.933941 26.033792 134 138 134
-99.112137 -46.984024 26.096937 158 149 152
-98.422935 -46.896214 26.138071 111 125 126
-98.268768 -46.920292 26.06295 132 138 140
-98.125893 -46.842213 26.123766 144 148 150
-97.925148 -46.897095 26.110487 114 120 118
-97.660767 -46.884804 26.125069 130 128 129
-97.522865 -46.890137 26.115034 117 120 122
-97.2976 -46.895012 26.089617 116 116 116
-97.152473 -46.882259 26.091082 111 114 112
-96.672737 -46.91951 26.078161 114 116 115
-96.471481 -46.91354 26.094889 111 115 114
-96.337364 -46.930683 26.103073 124 126 124
-96.114258 -46.961052 26.112808 171 170 170
-95.88588 -46.961941 26.063856 175 173 177
-95.691086 -46.918144 26.105154 179 176 182
-95.543411 -46.897797 26.103628 181 180 190
-95.370186 -46.872608 26.078293 92 94 100
-94.983124 -46.904156 26.074362 83 84 79
-102.05361 -46.677517 26.067978 55 66 57
-101.95186 -46.740059 26.060953 89 89 85
-101.67628 -46.7024 26.019527 189 173 175
-101.46076 -46.742409 26.018272 149 144 142
-101.27895 -46.697746 26.07094 158 154 152
-101.09956 -46.73587 26.088926 134 123 122
-100.88096 -46.688797 26.117189 176 163 161
-100.67172 -46.679337 26.087158 156 145 139
-100.50095 -46.708813 26.084146 139 137 134
-100.27135 -46.719986 26.104046 157 144 146
-100.14847 -46.717186 26.090624 178 167 168
-99.879654 -46.730015 26.070366 174 167 166
-99.729256 -46.696796 26.08618 156 152 150
-99.53418 -46.717358 26.069393 146 147 146
-99.226364 -46.67424 26.026651 140 133 138
-98.426682 -46.690247 26.109554 105 114 115
-98.257675 -46.707798 26.057478 135 143 145
-98.103691 -46.662506 26.134714 150 151 157
-97.913757 -46.706329 26.090368 127 134 134
-97.704308 -46.675808 26.110216 116 119 120
-97.500977 -46.708447 26.098995 112 119 121
-97.353973 -46.66301 26.106199 117 121 123
-97.11676 -46.662155 26.055023 116 117 116
-96.899513 -46.699047 26.128149 98 106 105
-96.685623 -46.690952 26.117603 108 110 110
-96.474335 -46.687237 26.086449 125 127 126
-96.335564 -46.667137 26.099962 106 110 108
-95.553909 -46.753635 26.024757 159 158 157
-102.08305 -46.48872 26.038361 77 87 78
-101.91272 -46.491962 26.044947 154 147 147
-101.70206 -46.489738 26.020733 167 158 158
-101.57166 -46.553387 26.060324 169 168 175
-101.2688 -46.493893 26.06081 154 147 147
-101.07742 -46.489655 26.100801 165 157 156
-100.92922 -46.529602 26.149731 180 168 167
-100.67647 -46.482533 26.063108 184 172 172
-100.50092 -46.502205 26.056969 153 147 146
-100.29771 -46.514885 26.068884 153 149 147
-100.1165 -46.528637 26.072912 146 144 142
-99.907104 -46.535648 26.0854 142 143 139
-99.729492 -46.502953 26.057224 155 155 153
-99.541832 -46.469639 26.01947 183 178 180
-99.282837 -46.537704 26.052387 172 163 163
-99.158684 -46.52837 26.033642 169 159 159
-98.680733 -46.433231 26.082317 143 148 151
-98.508644 -46.491272 26.081463 147 149 150
-98.303802 -46.50024 26.105774 127 134 135
-98.10144 -46.527264 26.101065 140 146 148
-97.881439 -46.48534 26.060877 125 132 130
-97.699265 -46.509396 26.058584 109 117 116
-97.440773 -46.542797 26.048717 96 106 103
-97.31562 -46.49654 26.108984 98 106 103
-97.102142 -46.464497 26.100698 108 114 112
-96.928841 -46.515228 26.101332 103 107 106
-96.735992 -46.56424 26.171919 138 135 134
-96.429153 -46.494617 26.083033 107 111 108
-96.301567 -46.513775 26.082209 99 106 101
-96.159508 -46.486343 26.115305 102 111 105
-101.90826 -46.360111 26.035217 124 123 116
-101.71617 -46.302986 26.057314 134 135 133
-101.4603 -46.316971 26.043993 90 95 89
-101.28121 -46.323711 26.105677 92 95 92
-101.08778 -46.324512 26.113567 159 153 152
-100.91349 -46.335461 26.098228 158 153 150
-100.69264 -46.295132 26.069576 169 161 158
-100.48495 -46.290237 26.05518 166 159 156
-100.29164 -46.312508 26.036879 180 164 168
-100.15784 -46.277706 26.027861 161 154 150
-99.807663 -46.304028 26.024122 151 157 147
-99.652565 -46.364075 26.060106 135 136 138
-99.566208 -46.386307 26.036263 184 181 181
-98.831406 -46.253403 26.084362 149 159 159
-98.666008 -46.28727 26.055046 181 177 178
-98.538292 -46.347271 26.047478 170 165 168
-98.299614 -46.292854 26.097073 132 138 141
-98.039192 -46.317642 26.070358 142 146 148
-97.890854 -46.348007 26.13266 149 150 154
-97.729424 -46.32431 26.115492 132 139 140
-97.516373 -46.282001 26.054899 94 100 102
-97.282379 -46.303005 26.075283 99 108 104
-97.114906 -46.314865 26.100676 107 114 113
-96.901642 -46.38308 26.064137 109 109 112
-96.427696 -46.343937 26.104969 182 176 178
-96.287163 -46.329098 26.092928 116 121 117
-96.160042 -46.345566 26.116339 106 111 109
-95.620499 -46.249897 26.125185 119 119 120
-95.307037 -46.32058 26.076874 68 73 77
-94.726654 -46.254181 26.051262 131 135 142
-94.54451 -46.242832 26.075962 90 94 106
-101.88091 -46.181213 26.000746 186 186 189
-101.69476 -46.137356 26.07284 89 95 91
-101.48408 -46.118515 26.02972 117 117 114
-101.26719 -46.105751 26.057753 129 127 124
-101.10298 -46.118809 26.105507 143 141 139
-100.86552 -46.117462 26.048527 182 171 172
-100.67231 -46.131084 26.060266 156 148 147
-100.49075 -46.104107 26.048655 162 156 152
-100.29742 -46.099697 26.078651 168 159 159
-100.16335 -46.118889 26.042316 145 148 145
-98.812698 -46.090088 26.063694 134 142 136
-98.681236 -46.11446 26.091915 158 161 162
-98.480827 -46.077297 26.09444 173 173 177
-98.329987 -46.094765 26.075937 160 162 166
-98.102013 -46.07872 26.100256 148 153 154
-97.937195 -46.119347 26.125191 117 118 124
-97.668175 -46.148159 26.097607 119 122 122
-97.503517 -46.063148 26.095259 135 136 133
-97.298599 -46.080379 26.103579 140 142 142
-97.144409 -46.124821 26.085846 126 132 130
-96.504578 -46.021049 26.155605 90 98 97
-96.368935 -46.002388 26.002588 84 95 91
-95.841003 -46.129425 26.175022 88 95 101
-95.684334 -46.06567 26.106697 92 99 105
-95.490631 -46.080784 26.073874 161 162 168
-95.273216 -46.094582 26.110622 146 153 157
-95.096458 -46.113453 26.066416 138 146 146
-94.929787 -46.097431 26.081076 152 155 155
-94.68689 -46.109447 26.12162 184 188 197
-94.580894 -46.090973 26.044188 164 171 179
-101.64828 -45.919289 26.051426 111 103 101
-101.52242 -45.912273 26.045055 179 171 167
-101.25537 -45.821293 26.012062 173 163 154
-101.1156 -45.922207 26.03495 172 168 169
-100.8887 -45.902031 26.043058 163 161 159
-100.70885 -45.919128 26.044834 184 177 174
-100.46938 -45.954967 26.046221 152 148 144
-100.28885 -45.946678 26.046148 131 134 129
-100.06677 -45.823902 26.066542 186 181 178
-99.874512 -45.864704 26.025679 186 177 175
-99.714607 -45.844795 26.036329 176 165 168
-99.552879 -45.859474 26.002724 144 129 137
-98.821716 -45.867771 26.075035 199 195 194
-98.68042 -45.89185 26.072529 148 156 153
-98.479782 -45.955109 26.072929 172 174 176
-98.333984 -45.879768 26.098244 174 173 179
-98.075867 -45.865997 26.106461 187 182 188
-97.902229 -45.914234 26.08659 132 135 137
-97.7034 -45.931965 26.10881 108 114 112
-97.503792 -45.911251 26.094164 134 133 132
-97.349442 -45.93391 26.11219 162 157 158
-97.148773 -45.956764 26.057995 139 143 132
-96.851173 -45.897686 26.111456 117 120 122
-96.693802 -45.909336 26.111765 118 122 125
-96.492477 -45.921005 26.107368 100 107 109
-96.277718 -45.860218 26.121763 110 120 119
-96.111221 -45.869633 26.115427 127 134 134
-95.90506 -45.856388 26.133192 128 134 136
-95.739632 -45.813824 26.120586 154 154 159
-95.437103 -45.898167 26.10898 156 154 160
-95.30928 -45.884453 26.103319 126 135 137
-95.07267 -45.924198 26.092831 127 137 134
-94.934952 -45.914299 26.075661 144 149 148
-94.626755 -45.932632 26.117115 160 165 173
-94.509285 -45.884842 26.079189 132 139 147
-94.295593 -45.848728 26.030819 153 158 169
-101.80704 -45.656898 26.027819 40 56 45
-101.6405 -45.715698 26.075924 104 103 99
-101.51801 -45.699673 26.054747 138 134 131
-101.27886 -45.616905 26.002182 177 172 168
-100.89534 -45.69482 26.071676 178 176 181
-100.06486 -45.747143 26.043463 170 171 161
-99.920677 -45.723682 26.042868 176 169 165
-99.706688 -45.706741 26.03767 177 167 168
-98.669334 -45.631783 26.059505 159 167 168
-98.479614 -45.702805 26.094698 151 155 156
-98.336731 -45.687965 26.116484 150 149 149
-98.075348 -45.694866 26.090963 158 154 157
-97.924164 -45.708797 26.035223 122 125 125
-97.626602 -45.670143 26.105743 156 154 153
-97.498993 -45.701221 26.127283 140 141 141
-97.287079 -45.685158 26.141848 145 144 146
-97.108711 -45.673836 26.149242 148 148 151
-96.951416 -45.727543 26.143127 182 176 182
-96.679993 -45.729935 26.136047 112 119 119
-96.483025 -45.691952 26.112711 129 132 132
-96.314125 -45.685856 26.105415 113 122 120
-96.119225 -45.676308 26.073402 119 125 122
-95.903893 -45.690605 26.102396 130 137 136
-95.701324 -45.666214 26.114693 131 133 132
-95.491524 -45.690163 26.099707 137 141 143
-95.304497 -45.700172 26.079285 114 125 125
-95.089043 -45.696049 26.105326 122 133 132
-94.930321 -45.703617 26.085688 142 145 145
-94.625885 -45.713409 26.151285 78 84 90
-94.498627 -45.728539 26.114357 143 149 161
-94.333252 -45.772259 26.076424 162 167 180
-94.19487 -45.788239 26.005796 128 134 150
-101.65597 -45.509232 26.047926 123 125 119
-101.49751 -45.487804 26.073137 142 139 136
-101.39091 -45.474422 26.061754 198 196 201
-100.55231 -45.450611 26.055271 165 167 162
-99.800995 -45.581264 26.029799 167 160 160
-98.501282 -45.533157 26.053621 166 167 172
-98.280075 -45.53931 26.077621 144 145 148
-98.100105 -45.501705 26.08235 148 146 148
-97.927422 -45.483299 26.035959 170 167 171
-97.63195 -45.482666 26.092003 130 141 141
-97.482216 -45.511326 26.11062 123 130 131
-97.310326 -45.484612 26.142872 145 145 146
-97.100288 -45.494068 26.129818 151 153 155
-96.906464 -45.465904 26.113281 145 149 151
-96.701111 -45.463043 26.133934 147 146 148
-96.500786 -45.501274 26.099976 150 149 149
-96.300774 -45.490479 26.095766 135 140 140
-96.109665 -45.506355 26.132942 163 161 161
-95.905838 -45.521641 26.086576 157 156 155
-95.682373 -45.524899 26.09667 137 140 137
-95.488304 -45.489979 26.102343 140 144 147
-95.300896 -45.49765 26.096249 122 129 131
-95.118286 -45.499397 26.093204 140 144 144
-94.916275 -45.51178 26.121035 145 147 148
-94.713394 -45.482174 26.166283 107 114 120
-94.565727 -45.500916 26.108589 94 98 109
-101.46548 -45.385735 26.050631 108 111 105
-101.37761 -45.304314 26.007706 187 179 176
-100.92744 -45.383648 26.014362 163 161 152
-98.403435 -45.387283 26.043755 58 58 58
-98.075584 -45.353668 26.089956 135 138 140
-97.937103 -45.340912 26.081995 153 152 155
-97.668945 -45.260834 26.011717 187 189 197
-97.437141 -45.337063 26.096296 120 128 130
-97.293472 -45.315449 26.104 138 143 145
-97.126701 -45.320278 26.088167 133 138 142
-96.900719 -45.335678 26.092436 127 134 136
-96.70105 -45.301823 26.101366 152 154 156
-96.472267 -45.273468 26.125034 150 151 153
-96.303993 -45.297771 26.09742 123 129 128
-96.10083 -45.284504 26.102186 138 144 147
-95.918991 -45.254967 26.142725 137 141 145
-95.693291 -45.303204 26.090879 162 161 164
-95.482361 -45.30257 26.103262 155 156 158
-95.292671 -45.319969 26.100327 141 140 142
-95.142075 -45.295345 26.097988 155 147 153
-94.914948 -45.357189 26.154707 148 152 153
-94.689384 -45.327126 26.117292 98 106 107
-101.20591 -45.189262 26.003681 42 58 45
-97.861717 -45.054226 26.093826 157 163 163
-97.715027 -45.09782 26.088167 171 172 176
-97.506134 -45.079849 26.043325 152 155 156
-97.295601 -45.078186 26.081223 139 146 150
-97.137054 -45.092491 26.039394 106 118 118
-96.872437 -45.13084 26.082842 123 133 133
-96.689743 -45.123917 26.102833 126 133 134
-96.505524 -45.117096 26.093679 131 136 135
-96.303528 -45.108562 26.088587 170 170 174
-96.087547 -45.10627 26.095541 143 149 156
-95.882797 -45.11705 26.113371 128 135 136
-95.741142 -45.079247 26.082968 130 137 139
-95.455994 -45.137657 26.118958 155 156 156
-95.276115 -45.087997 26.15159 139 143 144
-95.101082 -45.19323 26.187439 140 136 135
-94.984238 -45.128502 26.046421 49 60 54
-100.43111 -44.876209 26.063602 251 241 249
-100.26035 -44.914146 26.030018 171 161 161
-100.16189 -44.891689 26.01475 209 190 186
-98.043716 -44.886841 26.057529 158 159 158
-97.873024 -44.880371 26.086859 148 153 151
-97.683563 -44.905182 26.102676 176 174 177
-97.496216 -44.905743 26.087889 172 170 173
-97.304619 -44.89711 26.103605 176 174 177
-97.143219 -44.909264 26.06855 155 152 159
-96.94519 -44.905579 26.058044 141 152 156
-96.667084 -44.893913 26.092285 126 138 140
-96.471367 -44.909149 26.098249 148 154 158
-96.294983 -44.891129 26.102343 157 161 167
-96.12677 -44.91362 26.088558 141 149 156
-95.873375 -44.94828 26.076632 109 121 123
-95.71035 -44.927036 26.073109 100 110 108
-95.511269 -44.92485 26.157944 182 180 182
-95.373413 -44.932301 26.097702 135 138 136
-100.49819 -44.770512 26.036819 92 99 95
-100.20653 -44.70512 26.076 94 98 98
-100.1684 -44.720581 26.061672 96 101 100
-98.04657 -44.716656 26.078131 158 163 166
-97.914772 -44.726635 26.071785 157 160 163
-97.677841 -44.710766 26.100065 152 153 155
-97.519661 -44.697308 26.107538 154 152 156
-97.315559 -44.70414 26.110538 154 153 156
-97.112854 -44.702774 26.089811 169 165 169
-96.896454 -44.687592 26.070183 155 156 162
-96.745155 -44.680405 26.036137 136 139 143
-96.534073 -44.775356 26.081409 117 130 141
-96.237244 -44.751637 26.086977 108 117 121
-96.081612 -44.698975 26.099733 140 141 144
-95.914146 -44.712494 26.06892 150 153 162
-95.795105 -44.734726 26.050957 132 136 148
-97.952789 -44.58176 26.005232 137 147 148
-97.604332 -44.588791 26.110704 107 113 104
-97.508881 -44.585064 26.075974 117 122 121
-97.267715 -44.56311 26.13493 149 154 158
-97.069405 -44.556038 26.086374 143 150 156
-96.888412 -44.501938 26.087858 156 160 166
-96.693901 -44.535549 26.070137 181 181 187
-96.586334 -44.476818 26.048832 205 216 220
-96.219315 -44.520744 26.009197 142 151 157
-96.05526 -44.578022 26.0888 139 138 141
-95.916359 -44.564499 26.130524 146 148 157
-96.870583 -44.391411 26.123955 126 137 141
-96.146637 -44.10141 26.102604 41 47 43
-101.90613 -53.265862 26.320013 172 169 169
-101.76089 -53.270958 26.370869 202 192 197
-101.94593 -53.129871 26.325846 165 165 161
-101.74133 -53.02129 26.25145 155 151 152
-101.32578 -53.059589 26.252853 174 161 171
-101.11175 -53.013958 26.203632 220 200 209
-102.20756 -52.881214 26.325335 135 138 137
-101.82199 -52.955917 26.265131 148 144 149
-101.64766 -52.903969 26.271481 174 167 174
-101.48014 -52.904007 26.294292 171 163 170
-101.32749 -52.912773 26.339527 180 167 177
-101.14228 -52.855255 26.321655 176 165 172
-101.62601 -52.729382 26.360701 149 142 148
-101.46225 -52.695469 26.342386 136 135 137
-101.26979 -52.692657 26.298441 131 129 128
-101.15508 -52.702602 26.287443 158 152 159
-95.64019 -52.744637 26.3218 165 168 183
-95.554169 -52.740269 26.28289 163 168 183
-94.853455 -52.619396 26.282124 171 156 169
-102.27689 -52.583771 26.314577 154 152 155
-102.09496 -52.468235 26.303886 114 116 114
-101.92823 -52.492817 26.347254 108 112 108
-101.24414 -52.507809 26.254961 149 144 145
-101.18012 -52.518169 26.295588 144 142 145
-95.49472 -52.442093 26.25005 141 133 149
-95.307564 -52.458637 26.290806 171 156 175
-95.049561 -52.453396 26.240053 132 125 133
-94.861549 -52.507824 26.263937 141 132 141
-94.703308 -52.506657 26.299299 124 119 127
-94.537086 -52.408794 26.371037 153 142 154
-102.234 -52.352367 26.269892 112 110 111
-102.06756 -52.27961 26.326904 108 111 110
-101.89639 -52.330917 26.355827 116 114 113
-101.77912 -52.362953 26.340935 127 118 115
-101.26649 -52.287182 26.307526 156 151 153
-95.666855 -52.232986 26.270798 133 132 139
-95.462151 -52.298603 26.24238 149 149 158
-95.322792 -52.24168 26.244461 161 158 169
-95.099579 -52.260349 26.257215 149 148 160
-94.893082 -52.289631 26.284262 147 142 153
-94.749443 -52.274704 26.301273 144 141 149
-102.1004 -52.113178 26.272108 82 84 82
-101.97762 -52.13797 26.356483 103 108 107
-101.47036 -52.119869 26.364849 113 109 110
-101.27279 -52.132854 26.305077 180 170 173
-101.18665 -52.04723 26.341492 177 169 173
-100.90192 -52.009071 26.227104 151 149 151
-100.72997 -52.033108 26.270004 146 136 137
-95.70208 -52.107162 26.283247 165 163 170
-95.503525 -52.087463 26.25532 157 151 161
-95.283142 -52.097 26.25322 152 149 159
-95.104935 -52.101658 26.29228 156 153 164
-94.893631 -52.092262 26.335629 155 149 160
-94.712303 -52.107754 26.321815 126 125 129
-94.586914 -52.022537 26.218752 155 150 149
-102.23419 -51.814663 26.34409 81 83 82
-102.08794 -51.890167 26.292997 77 79 78
-101.96388 -51.932606 26.335745 79 82 80
-101.66992 -51.845901 26.264008 117 116 116
-101.54778 -51.842854 26.335123 99 99 100
-101.3167 -51.950161 26.305157 123 121 118
-101.10825 -51.903038 26.26951 151 146 152
-100.92105 -51.951374 26.218466 142 143 147
-100.74628 -51.923134 26.317659 138 137 146
-95.63324 -51.938759 26.299145 161 156 166
-95.485344 -51.906067 26.26206 169 163 175
-95.294228 -51.893845 26.259388 154 149 160
-95.076851 -51.937035 26.286053 143 144 149
-94.904747 -51.906353 26.299511 138 135 140
-94.673805 -51.897938 26.32708 135 132 136
-94.587967 -51.884083 26.320694 151 151 152
-94.213646 -51.865059 26.367966 131 126 136
-94.172081 -51.837051 26.348661 124 118 122
-102.26039 -51.690216 26.284933 93 94 93
-102.09988 -51.688282 26.300592 82 86 81
-101.88135 -51.686012 26.301464 84 88 85
-101.72828 -51.635021 26.311119 72 71 71
-101.06613 -51.700855 26.29767 136 132 135
-100.92136 -51.680187 26.295042 158 151 158
-95.928734 -51.658627 26.225632 129 129 137
-95.715668 -51.645149 26.235312 156 154 166
-95.508438 -51.746376 26.297522 165 156 170
-95.34259 -51.734802 26.282074 155 150 160
-95.072838 -51.708149 26.249533 123 124 129
-94.900597 -51.702942 26.292257 136 136 141
-94.668678 -51.718876 26.351635 136 134 139
-94.46769 -51.739868 26.353035 140 139 145
-94.288696 -51.714401 26.323139 123 119 123
-94.117485 -51.662025 26.292862 141 132 139
-93.932243 -51.710625 26.308136 128 127 133
-93.608879 -51.629665 26.217052 150 141 148
-102.4188 -51.472 26.340601 112 115 108
-102.26603 -51.571507 26.301422 108 108 107
-102.14314 -51.526234 26.325146 99 98 96
-101.91539 -51.540161 26.298849 83 84 81
-101.72398 -51.504143 26.340431 90 90 88
-101.23373 -51.548756 26.327738 113 112 110
-101.12704 -51.512638 26.314768 131 128 130
-100.8769 -51.545753 26.297878 176 164 170
-100.74976 -51.437366 26.313076 187 172 177
-100.48218 -51.492577 26.326769 156 151 155
-95.850632 -51.515617 26.238728 140 141 151
-95.614571 -51.503349 26.285965 102 106 109
-95.455193 -51.563999 26.29726 152 151 160
-95.225662 -51.490437 26.240726 151 156 161
-95.037811 -51.492268 26.251516 137 137 141
-94.900291 -51.504978 26.284851 141 140 145
-94.697731 -51.493977 26.291012 133 134 138
-94.516617 -51.474438 26.28056 137 135 139
-94.293518 -51.530712 26.310364 138 133 139
-94.166847 -51.535816 26.319498 141 146 152
-93.897232 -51.450062 26.302288 120 125 127
-93.740013 -51.484238 26.266607 147 145 149
-93.543686 -51.463234 26.233101 164 161 170
-102.04271 -51.368469 26.286165 89 84 84
-101.87264 -51.364399 26.330681 135 128 127
-100.72906 -51.293415 26.285315 182 174 174
-100.5482 -51.303329 26.297844 135 135 137
-100.32213 -51.288246 26.229748 163 154 157
-95.665039 -51.342163 26.277662 123 126 128
-95.490097 -51.308182 26.240019 130 134 138
-95.249184 -51.278362 26.236843 131 130 138
-95.105591 -51.26881 26.2344 151 148 157
-94.880981 -51.291706 26.271029 153 149 156
-94.726349 -51.293701 26.261248 157 149 158
-94.508469 -51.315269 26.243938 141 135 141
-94.3349 -51.390274 26.225296 105 101 111
-93.905411 -51.376053 26.214687 121 125 126
-93.67337 -51.340397 26.374182 152 147 154
-93.540146 -51.364754 26.294544 181 177 191
-103.86086 -51.04361 26.307598 117 119 118
-102.83803 -51.093163 26.310051 98 92 95
-102.7555 -51.049683 26.326851 59 54 61
-102.38539 -51.147892 26.383097 102 102 102
-100.854 -51.050343 26.207205 149 145 144
-100.67261 -51.032593 26.276917 129 130 133
-100.5434 -51.112511 26.290752 160 154 160
-95.593506 -51.151688 26.273998 110 110 110
-95.258759 -51.075184 26.294586 158 156 166
-95.097702 -51.113056 26.250053 141 138 145
-94.8694 -51.148041 26.295588 170 161 168
-94.729858 -51.14846 26.275394 176 163 173
-94.465683 -51.130222 26.2367 161 147 156
-94.343857 -51.084866 26.221912 131 117 130
-104.03419 -50.849785 26.221556 123 123 120
-103.9155 -50.867252 26.304691 129 129 129
-103.67081 -50.839653 26.272396 95 101 95
-103.51779 -50.890419 26.309237 75 82 74
-103.04811 -50.928947 26.241447 92 97 89
-102.87361 -50.873985 26.295551 108 108 111
-102.67137 -50.864998 26.31958 108 108 108
-102.58139 -50.853531 26.333183 108 106 112
-102.38271 -50.854435 26.339552 129 129 135
-101.64874 -50.904907 26.355042 81 87 85
-101.55283 -50.911228 26.325392 76 83 80
-100.84991 -50.919506 26.27107 136 137 133
-100.69418 -50.884312 26.282974 147 142 146
-100.55713 -50.865757 26.296408 117 113 114
-95.219666 -50.954735 26.268698 133 129 133
-95.122993 -50.858093 26.36132 126 129 136
-94.918335 -50.986362 26.292299 118 105 112
-94.740379 -50.959244 26.324356 160 149 158
-104.28062 -50.65012 26.275574 154 148 148
-104.05439 -50.689213 26.311985 157 147 142
-103.88584 -50.712822 26.337317 146 143 140
-103.67985 -50.733318 26.352779 109 112 110
-103.50685 -50.703651 26.312214 96 96 91
-103.33921 -50.69347 26.357456 126 123 118
-102.80918 -50.778851 26.31179 105 96 99
-102.66827 -50.742069 26.331947 99 97 100
-102.48525 -50.680817 26.353846 98 95 102
-102.35504 -50.68203 26.362514 123 118 122
-102.02261 -50.63662 26.33519 68 65 69
-101.8949 -50.641899 26.338457 82 89 83
-101.63058 -50.609154 26.398146 89 93 95
-101.02354 -50.679321 26.321098 107 113 104
-100.89704 -50.705627 26.301804 124 125 125
-100.71027 -50.72683 26.272562 134 129 133
-100.58865 -50.737061 26.361525 160 158 163
-104.44863 -50.494053 26.26218 130 123 122
-104.30088 -50.521317 26.272053 151 145 144
-104.11491 -50.517334 26.308004 143 136 129
-103.90279 -50.541458 26.295511 141 139 135
-103.69012 -50.521778 26.297556 117 113 106
-103.48557 -50.545063 26.326494 119 115 107
-103.3102 -50.537243 26.299719 177 168 161
-102.83556 -50.490372 26.295517 117 115 116
-102.70268 -50.503372 26.349613 79 84 79
-102.47415 -50.502438 26.33329 76 79 77
-102.31436 -50.479877 26.332285 87 88 87
-102.07244 -50.492538 26.301485 96 97 94
-101.86042 -50.51947 26.305405 97 102 96
-101.69315 -50.483109 26.324286 100 103 100
-101.52927 -50.470356 26.312712 100 104 104
-101.26991 -50.458847 26.30315 110 111 111
-101.08646 -50.466576 26.31789 122 122 123
-100.93965 -50.534405 26.323669 130 128 129
-100.76836 -50.565941 26.346985 128 123 130
-104.67288 -50.2953 26.279539 174 161 165
-104.52732 -50.295746 26.274513 180 169 168
-104.30592 -50.392227 26.335623 197 182 184
-104.05648 -50.37854 26.322054 164 159 156
-103.86636 -50.378704 26.349777 175 164 162
-103.73529 -50.387722 26.343828 165 158 149
-103.51352 -50.378803 26.304375 161 152 143
-102.648 -50.249401 26.316624 142 140 131
-102.49515 -50.279015 26.314077 111 110 105
-102.31345 -50.270699 26.293058 126 124 118
-102.06339 -50.276924 26.282061 127 122 118
-101.91145 -50.299408 26.324926 124 115 118
-101.7012 -50.31501 26.304707 118 116 114
-101.49304 -50.30822 26.317743 104 109 111
-101.33436 -50.290016 26.278315 116 121 124
-101.14108 -50.353237 26.328318 122 122 126
-105.02229 -50.177792 26.244099 68 72 73
-104.95501 -50.158459 26.217552 82 86 87
-104.78214 -50.100403 26.39576 72 83 85
-103.69781 -50.067318 26.345711 103 104 99
-103.24634 -50.091061 26.346674 130 113 107
-103.17778 -50.104431 26.36068 130 117 113
-102.90036 -50.065655 26.34811 103 99 101
-102.72133 -50.110008 26.33095 112 106 104
-102.48722 -50.133106 26.291519 123 120 117
-102.29881 -50.118507 26.342342 133 128 122
-102.09626 -50.136108 26.303343 131 125 119
-101.91882 -50.080357 26.310751 150 139 134
-101.71101 -50.120857 26.329006 152 144 149
-101.47668 -50.141659 26.312674 106 110 114
-101.35221 -50.1605 26.265896 125 128 134
-104.84299 -49.884846 26.226854 161 160 169
-103.84701 -49.886761 26.269907 139 133 130
-103.74834 -49.913536 26.326199 109 108 103
-102.6227 -49.896759 26.334332 95 100 89
-102.4747 -49.904861 26.322289 112 112 107
-102.33925 -49.855064 26.330576 104 107 104
-102.12807 -49.923885 26.320053 167 159 158
-101.87957 -49.909756 26.307766 154 140 138
-101.71761 -49.931393 26.331017 138 127 129
-94.27655 -49.866581 26.249592 179 174 182
-94.123482 -49.850544 26.220198 189 183 195
-103.88841 -49.708645 26.276062 105 103 103
-103.73827 -49.691444 26.344755 98 105 99
-103.59344 -49.673843 26.373549 102 98 95
-103.13995 -49.604885 26.357876 95 95 87
-102.84092 -49.701042 26.279102 138 140 133
-102.66434 -49.731644 26.321486 132 133 125
-102.49685 -49.673695 26.30567 115 120 111
-102.32833 -49.716251 26.317425 101 105 97
-102.10668 -49.618069 26.337639 141 138 133
-101.90882 -49.701542 26.330317 147 140 136
-101.73543 -49.715752 26.344233 140 125 127
-94.4645 -49.710247 26.379992 182 168 167
-94.297287 -49.708084 26.254114 176 173 173
-92.910629 -49.705059 26.279322 69 77 79
-103.81515 -49.513981 26.290714 130 130 132
-103.67879 -49.55529 26.325922 146 143 145
-103.47501 -49.426014 26.333487 108 100 106
-103.26196 -49.526775 26.345451 114 109 110
-103.16413 -49.569435 26.39492 90 89 88
-102.49764 -49.561829 26.298178 121 125 114
-102.26265 -49.491558 26.323948 120 123 116
-102.09355 -49.492458 26.330437 112 113 108
-101.8984 -49.495232 26.333736 127 125 124
-101.72904 -49.50069 26.330214 140 136 136
-101.43832 -49.472782 26.224813 139 129 127
-101.38177 -49.420902 26.353855 104 100 97
-94.4505 -49.5424 26.266754 128 137 135
-104.06536 -49.372288 26.383209 107 97 106
-103.8615 -49.265327 26.250061 109 103 105
-103.73557 -49.326019 26.262762 102 98 99
-103.50718 -49.352604 26.353506 138 132 132
-102.94564 -49.376495 26.391809 92 98 88
-102.69489 -49.292072 26.314686 80 87 77
-102.46309 -49.295441 26.30962 95 98 91
-102.2991 -49.31181 26.322449 136 138 131
-102.14219 -49.295704 26.337219 165 162 159
-101.92343 -49.37299 26.323294 173 148 144
-101.68561 -49.288525 26.289932 130 127 134
-101.49507 -49.293091 26.283737 173 164 162
-101.30376 -49.285507 26.28779 157 148 150
-101.10552 -49.276505 26.337543 175 163 164
-100.90901 -49.234379 26.284876 167 153 156
-100.50967 -49.245937 26.307234 120 108 110
-99.467255 -49.25177 26.281281 76 77 80
-95.475616 -49.27314 26.276657 160 155 156
-95.273209 -49.238449 26.240669 153 144 157
-94.447403 -49.234875 26.326303 139 128 132
-94.284943 -49.305531 26.284786 160 155 166
-94.138084 -49.330399 26.250828 159 155 165
-93.689911 -49.293613 26.283087 132 127 131
-104.22553 -49.036587 26.357323 254 233 240
-103.90604 -49.050461 26.320503 139 133 135
-103.05387 -49.097103 26.320593 119 120 113
-102.92617 -49.103222 26.31671 94 98 93
-102.70506 -49.10284 26.324772 87 90 88
-102.44382 -49.125797 26.237173 120 120 113
-102.33014 -49.17308 26.35664 134 133 121
-102.11089 -49.147141 26.322315 142 141 133
-101.6456 -49.128807 26.299061 139 134 138
-101.51746 -49.138138 26.26033 135 131 130
-101.33677 -49.058956 26.319513 162 158 156
-101.11801 -49.062111 26.318674 163 159 158
-100.93208 -49.125145 26.293568 214 203 198
-100.37 -49.066566 26.246141 84 74 83
-99.399292 -49.101475 26.207878 64 63 68
-94.642776 -49.025517 26.250105 209 207 208
-94.412674 -49.091358 26.295786 180 179 179
-94.315552 -49.146259 26.274906 158 162 163
-94.078735 -49.048325 26.265646 217 212 217
-93.812599 -49.095264 26.289383 196 190 200
-93.727264 -49.045002 26.252846 134 137 146
-93.556236 -49.187508 26.24752 178 172 186
-103.9277 -48.875271 26.323042 138 131 134
-103.07886 -48.879601 26.308737 119 118 115
-102.91119 -48.879025 26.316008 116 117 110
-102.67007 -48.933662 26.275946 129 131 127
-102.58792 -48.904556 26.244385 140 134 129
-102.35212 -48.940342 26.248734 146 141 137
-101.89902 -48.918243 26.251516 121 124 117
-101.68468 -48.94017 26.279182 140 140 140
-101.48948 -48.90889 26.282658 141 140 139
-101.30733 -48.908554 26.307262 171 167 166
-101.11899 -48.923115 26.323446 168 163 159
-100.96328 -48.874802 26.30179 156 154 147
-100.71603 -48.984577 26.323475 185 159 170
-100.46469 -48.898903 26.253027 156 145 153
-100.24281 -48.98138 26.227812 202 186 196
-94.252739 -48.872398 26.314831 164 160 163
-94.106621 -48.912865 26.270405 180 176 180
-93.918121 -48.926273 26.257744 142 142 146
-93.786972 -48.87809 26.265806 155 153 157
-104.39472 -48.780251 26.232779 54 71 63
-103.87734 -48.686737 26.323835 164 155 160
-103.72829 -48.600414 26.392527 178 169 172
-103.55589 -48.735432 26.310276 88 96 81
-103.31711 -48.657726 26.322037 112 113 111
-103.08096 -48.675343 26.317553 135 131 129
-102.90713 -48.718876 26.283226 130 130 127
-102.69141 -48.680759 26.269152 120 119 117
-102.47464 -48.722607 26.245535 95 99 92
-102.25002 -48.682621 26.236656 159 152 152
-102.09914 -48.621098 26.211121 157 149 147
-101.62315 -48.759705 26.221706 106 110 105
-101.48108 -48.737415 26.269238 172 170 168
-101.33661 -48.737709 26.334795 155 151 150
-101.11208 -48.708424 26.331635 174 170 164
-100.90312 -48.691879 26.29645 173 169 161
-100.69317 -48.645802 26.266167 151 144 138
-99.883553 -48.791882 26.233 174 181 187
-99.460594 -48.622154 26.284611 161 163 169
-99.311119 -48.650982 26.243216 158 157 169
-98.9758 -48.615688 26.240015 98 100 98
-94.288254 -48.721481 26.259857 187 185 189
-94.098282 -48.730453 26.264223 158 159 162
-93.919006 -48.756042 26.283617 173 169 176
-93.736481 -48.650452 26.263107 137 135 138
-93.485306 -48.679317 26.285812 161 153 156
-93.38765 -48.781452 26.241993 205 200 204
-103.80775 -48.444 26.206131 162 148 154
-103.73866 -48.476479 26.310318 155 148 149
-103.45702 -48.509048 26.305979 122 122 116
-103.27982 -48.488525 26.321774 147 143 138
-103.09554 -48.512394 26.311171 136 132 129
-102.94347 -48.495331 26.266758 135 132 135
-102.73816 -48.568848 26.23757 84 92 86
-102.23551 -48.454815 26.240633 150 148 148
-102.11002 -48.478256 26.25251 159 153 155
-101.94787 -48.494209 26.315586 144 138 138
-101.67423 -48.475555 26.239605 164 161 160
-101.46946 -48.512463 26.27396 132 136 130
-101.3016 -48.501015 26.31045 154 156 149
-101.13685 -48.498466 26.363127 157 158 148
-100.85979 -48.515415 26.280542 159 159 147
-100.71381 -48.481548 26.282597 152 150 140
-100.55085 -48.482613 26.348358 198 193 188
-100.30161 -48.455677 26.248802 152 148 147
-100.16304 -48.444134 26.23101 148 137 137
-99.481918 -48.485569 26.286272 166 164 171
-99.337044 -48.510063 26.263777 163 158 170
-99.071175 -48.494473 26.267681 145 142 146
-98.918427 -48.458092 26.287657 153 147 156
-98.746666 -48.472191 26.257013 151 137 146
-97.548134 -48.446793 26.263113 147 137 148
-94.934364 -48.41853 26.333597 178 173 179
-94.704674 -48.436901 26.221436 166 161 171
-94.506195 -48.519154 26.252394 165 165 173
-94.254112 -48.564301 26.279819 133 141 140
-94.183411 -48.590797 26.356335 171 169 174
-93.887772 -48.552017 26.304123 156 160 155
-93.675156 -48.546112 26.204594 139 142 140
-103.83994 -48.274944 26.292242 196 179 183
-103.70203 -48.29705 26.3202 165 152 152
-103.46307 -48.264915 26.24828 101 105 99
-103.29847 -48.290825 26.297554 162 152 151
-103.13735 -48.350842 26.312447 136 130 130
-102.45441 -48.280178 26.214895 51 65 52
-102.26734 -48.285969 26.264296 128 129 128
-102.12701 -48.297844 26.258703 151 147 150
-101.89177 -48.219723 26.235676 161 155 155
-101.74217 -48.271111 26.313005 157 157 150
-101.45853 -48.312183 26.236353 130 133 124
-101.28256 -48.2995 26.323898 138 137 134
-101.126 -48.30648 26.337057 168 166 159
-100.86897 -48.30817 26.311377 157 156 145
-100.69736 -48.301556 26.319983 149 139 138
-100.49181 -48.286293 26.293484 159 157 157
-100.28325 -48.282879 26.278807 150 149 150
-100.12454 -48.30267 26.245293 148 140 142
-99.649361 -48.281178 26.215084 136 140 140
-99.457382 -48.360813 26.271461 165 163 171
-99.354767 -48.340534 26.249704 169 162 169
-99.057014 -48.325844 26.246035 150 148 154
-98.889984 -48.309521 26.282782 152 144 155
-98.703682 -48.2551 26.267033 153 148 159
-98.527763 -48.250103 26.233347 152 155 169
-98.285461 -48.257118 26.223646 167 173 180
-97.845116 -48.235973 26.255449 180 184 190
-97.696457 -48.241467 26.24946 180 174 180
-97.482979 -48.274475 26.334213 187 185 196
-97.321007 -48.288147 26.272242 197 198 211
-97.124054 -48.236225 26.263216 164 162 176
-96.917183 -48.230713 26.247002 177 170 181
-95.073196 -48.262199 26.295021 139 132 135
-94.884636 -48.290882 26.314917 181 178 187
-94.724564 -48.302258 26.292046 165 160 169
-94.552513 -48.342285 26.260298 154 150 153
-103.825 -48.125053 26.335928 168 156 161
-103.73863 -48.104408 26.314661 155 144 146
-103.45161 -48.116856 26.281797 164 149 147
-103.32044 -48.123314 26.277719 181 165 165
-103.18375 -48.161644 26.285187 83 85 86
-102.27936 -48.107609 26.252026 159 156 155
-102.09888 -48.102276 26.28561 164 158 155
-101.90572 -48.078239 26.29056 174 167 159
-101.67967 -48.040749 26.341511 193 180 180
-101.48377 -48.100491 26.270508 148 148 143
-101.28253 -48.112686 26.295538 127 125 120
-101.10509 -48.121628 26.345457 178 166 165
-100.88515 -48.108128 26.328648 161 158 152
-100.66719 -48.053024 26.331774 155 149 145
-100.50208 -48.133263 26.322742 168 157 158
-100.34408 -48.073975 26.280416 168 161 161
-100.11252 -48.132679 26.243162 157 156 157
-99.94767 -48.091888 26.23945 144 144 141
-99.707779 -48.180397 26.210808 138 141 142
-99.237274 -48.07159 26.232742 102 101 105
-99.118088 -48.074081 26.244503 171 164 173
-98.731255 -48.137318 26.270094 99 107 111
-98.513252 -48.092747 26.235548 169 169 183
-98.331314 -48.059132 26.228516 148 148 158
-98.037743 -48.06295 26.263834 114 124 128
-97.854469 -48.085369 26.256842 138 142 148
-97.738579 -48.114361 26.328066 172 171 178
-97.480019 -48.158772 26.299892 184 174 181
-97.281578 -48.112598 26.328209 168 162 170
-97.069366 -48.13752 26.294785 163 161 170
-96.959259 -48.136753 26.303314 188 184 193
-96.755798 -48.064163 26.28825 158 162 173
-96.24234 -48.070389 26.273373 141 142 147
-96.027489 -48.119789 26.321962 107 98 103
-95.888672 -48.084721 26.240891 77 79 87
-94.704231 -48.177761 26.226265 173 174 182
-103.67062 -47.974079 26.294317 60 78 66
-103.43115 -47.98233 26.241228 203 182 183
-103.35492 -47.957897 26.271296 130 120 121
