ply
format ascii 1.0
comment PCL generated
element vertex 1102
property float x
property float y
property float z
property uchar red
property uchar green
property uchar blue
element face 0
element camera 0
property float view_px
property float view_py
property float view_pz
property float x_axisx
property float x_axisy
property float x_axisz
property float y_axisx
property float y_axisy
property float y_axisz
property float z_axisx
property float z_axisy
property float z_axisz
property float focal
property float scalex
property float scaley
property float centerx
property float centery
property int viewportx
property int viewporty
property float k1
property float k2
end_header
-1.1166269 -99.490364 23.088076 93 108 102
-0.87230444 -99.599106 23.17452 77 94 84
-0.65745568 -99.509254 23.121326 108 114 104
-0.45864415 -99.476669 23.069723 92 104 94
-0.29798529 -99.50267 23.091702 105 113 106
-0.11174345 -99.536995 23.131367 98 114 101
0.093773879 -99.522171 23.090944 118 127 114
0.27935672 -99.528465 23.116789 140 135 126
0.49001357 -99.450073 23.063204 144 141 131
-3.0536029 -99.308495 23.08021 111 122 116
-2.9029214 -99.2985 23.098473 95 109 102
-2.7428098 -99.334244 23.04937 105 115 111
-2.0557375 -99.27243 23.076195 118 130 122
-1.6247052 -99.341988 23.087414 116 115 120
-1.4303335 -99.323723 23.113735 89 105 98
-1.3194243 -99.336533 23.094694 93 106 101
-1.084025 -99.274879 23.127832 97 111 102
-0.98337179 -99.348557 23.06102 95 110 100
-0.53383291 -99.329559 23.159191 87 102 92
-0.25994712 -99.343613 23.124411 95 107 95
-0.12655489 -99.291557 23.071768 87 101 87
0.10992733 -99.314133 23.098475 113 122 110
0.27466691 -99.295464 23.102768 123 130 116
0.44691563 -99.366623 23.152248 150 133 126
0.66772968 -99.399094 23.058174 119 112 104
-3.4305718 -99.040375 23.031206 119 133 122
-3.2981195 -99.082664 23.066359 98 115 106
-3.1117706 -99.125542 23.078814 97 113 105
-2.9558251 -99.137718 23.081244 99 110 106
-2.0990038 -99.076721 23.046497 129 135 125
-1.827672 -99.068962 23.17906 108 124 114
-1.4470545 -99.114326 23.162407 94 109 98
-1.3340077 -99.167282 23.054157 86 100 94
-1.1675687 -99.071098 23.123411 87 104 96
-0.92504358 -99.142059 23.146612 95 111 103
-0.46030951 -99.070679 23.190514 107 115 102
-0.25640461 -99.117157 23.122076 127 129 118
-0.094804436 -99.052444 23.110365 132 132 122
0.12233432 -99.138344 23.046783 120 128 116
0.25957823 -99.083344 23.070604 118 128 113
-3.2636375 -98.900383 23.06604 104 118 108
-3.1489608 -98.90004 23.081003 104 119 109
-1.926019 -98.813919 23.073732 122 132 121
-1.6919799 -98.988495 23.064892 95 110 103
-1.2909822 -98.919182 23.145006 93 111 101
-1.0997254 -98.862053 23.099867 96 112 102
-0.97362232 -98.885498 23.175436 99 114 101
-0.26699507 -98.967651 23.10379 127 122 111
-0.11352121 -98.938286 23.084909 117 116 106
0.11578268 -98.999481 23.067379 122 129 116
-3.2507298 -98.741859 23.049627 107 118 108
-1.821768 -98.664787 23.137882 106 114 103
-1.2188879 -98.647095 23.064911 97 112 101
-1.1124802 -98.70578 23.111652 90 105 94
-0.90962237 -98.672569 23.110565 90 107 94
-0.14985377 -98.7677 23.112961 132 130 119
-3.2763581 -98.514557 23.020828 109 115 106
-1.4893864 -98.566864 23.094189 115 126 117
-1.279094 -98.517418 23.073099 93 107 96
-1.0946138 -98.496735 23.132263 94 109 97
-0.88982487 -98.49012 23.085001 94 109 96
-0.79732138 -98.585602 23.126957 109 128 118
-0.24417692 -98.422958 23.09462 121 119 109
-0.15897834 -98.415382 23.038664 121 121 113
-1.2613604 -98.262962 23.188858 111 124 112
-1.078427 -98.321472 23.130671 105 116 104
-0.88198066 -98.298782 23.096651 109 119 107
-0.78731847 -98.318588 23.102001 103 116 104
-0.45259207 -98.280319 23.11692 123 128 119
-0.37788194 -98.285507 23.09292 132 134 124
-1.236209 -98.120331 23.13464 127 133 120
-1.0644039 -98.115845 23.085587 126 127 120
-0.91584456 -98.121323 23.060434 116 122 110
-0.71133006 -98.103394 23.065584 121 124 113
-0.31386527 -98.120026 23.071472 142 133 125
-0.93891799 -97.987907 23.075832 128 116 111
2.632853 -107.04685 23.221659 172 181 187
2.5471604 -106.92694 23.276831 126 139 109
2.6805656 -106.97754 23.223974 217 210 254
-1.6182066 -106.26511 23.214277 58 80 57
-2.4921052 -106.06875 23.338806 66 96 73
-2.3168342 -106.07276 23.360113 53 76 57
-2.064944 -106.08009 23.306206 91 110 84
-1.9012749 -106.06322 23.324192 81 101 72
-1.6787274 -106.06862 23.300793 85 104 77
-1.5502783 -106.05442 23.258541 78 101 71
-3.4459774 -105.84409 23.266262 105 129 103
-3.3020756 -105.83663 23.273443 84 110 84
-3.1412296 -105.85481 23.280453 76 105 76
-2.8906522 -105.842 23.322021 92 114 94
-2.6823308 -105.86373 23.319599 76 96 71
-2.4978545 -105.8797 23.298578 79 98 75
-2.2898586 -105.89427 23.312586 68 89 63
-2.0971062 -105.92736 23.313156 94 114 87
-1.8997208 -105.88406 23.307276 96 113 88
-1.689919 -105.89846 23.325737 95 115 87
-1.5525657 -105.90242 23.281322 85 109 79
-1.3485255 -105.92507 23.292833 93 108 88
-1.1696461 -105.92081 23.216028 110 124 104
-3.6247776 -105.7368 23.249786 109 124 104
-3.4716623 -105.72176 23.286417 86 110 84
-3.3268561 -105.71382 23.270142 78 105 73
-3.094528 -105.69524 23.297312 90 112 85
-2.8774126 -105.69629 23.315424 92 112 89
-2.7155917 -105.70405 23.309881 80 101 75
-2.5252182 -105.68542 23.366266 80 100 74
-2.2991903 -105.70976 23.30876 92 108 88
-2.0882649 -105.69707 23.304684 112 122 107
-1.9064442 -105.6899 23.30085 96 111 94
-1.7122083 -105.6974 23.295435 88 106 84
-1.574427 -105.66691 23.279001 85 104 83
-1.3054378 -105.63843 23.256807 125 132 131
-1.0946989 -105.67831 23.278288 98 118 96
-0.90496284 -105.68279 23.321014 81 106 80
-0.74698162 -105.64078 23.3015 109 131 106
-3.4714153 -105.53821 23.286386 105 124 103
-3.2443583 -105.52304 23.278778 100 120 98
-3.0815821 -105.48128 23.289412 88 110 85
-2.9021554 -105.48545 23.302277 90 109 86
-2.720907 -105.48748 23.324066 106 116 99
-2.4999952 -105.48322 23.321196 95 106 91
-2.3314178 -105.50507 23.304968 104 111 99
-2.0946457 -105.50924 23.30228 120 124 116
-1.8997753 -105.48871 23.303461 109 116 106
-1.6831957 -105.50147 23.295935 100 111 95
-1.5281386 -105.50778 23.292646 101 111 101
-1.2734046 -105.4874 23.299278 102 114 106
-1.0998093 -105.4735 23.293161 101 115 99
-0.89093566 -105.4921 23.322325 97 114 95
-0.72369868 -105.4619 23.31864 92 107 89
-3.2942622 -105.2981 23.287943 101 119 97
-3.0869598 -105.30293 23.309687 100 114 93
-2.8893356 -105.2972 23.319809 94 109 88
-2.6790884 -105.29424 23.300177 92 106 85
-2.4924672 -105.27731 23.313055 86 100 82
-2.3233345 -105.29319 23.325205 94 106 89
-2.0898507 -105.33864 23.28915 108 113 106
-1.9074353 -105.33228 23.335394 111 117 107
-1.6930743 -105.28999 23.30312 96 106 99
-1.4815093 -105.2938 23.307558 90 105 92
-1.300844 -105.31767 23.283863 103 115 104
-1.1041117 -105.30813 23.292198 99 111 97
-0.90327084 -105.29431 23.309372 101 115 98
-0.74543101 -105.32275 23.292477 83 101 77
-3.2794609 -105.02946 23.274044 104 104 101
-3.0735707 -105.10814 23.303925 99 113 89
-2.8976154 -105.08132 23.314196 94 108 88
-2.6913044 -105.11045 23.301029 90 104 87
-2.5153635 -105.12108 23.32901 91 105 90
-2.3091917 -105.11041 23.323782 101 108 95
-2.0994134 -105.12463 23.302998 115 116 109
-1.898929 -105.07686 23.297148 107 113 104
-1.6882592 -105.09699 23.260458 92 103 92
-1.5162373 -105.10543 23.296013 65 86 69
-1.2692381 -105.10777 23.277828 109 119 107
-1.1168861 -105.08183 23.279062 106 117 106
-0.9081403 -105.11999 23.275951 103 116 103
-0.72888398 -105.10366 23.248062 111 119 116
-3.4166541 -104.8966 23.251528 128 127 116
-3.3016696 -104.91639 23.304214 123 124 114
-3.0876215 -104.90808 23.306393 111 118 107
-2.9040389 -104.89211 23.324268 94 108 89
-2.6942129 -104.9031 23.329853 90 102 85
-2.4781544 -104.87495 23.347778 96 104 94
-2.3221955 -104.86728 23.342083 101 107 101
-2.1050973 -104.88293 23.320129 108 113 112
-1.875435 -104.93128 23.294664 101 112 105
-1.6636374 -104.90907 23.286877 100 105 100
-1.4946887 -104.87112 23.284466 103 110 102
-1.3004459 -104.8919 23.288872 107 118 107
-1.1167779 -104.92382 23.279068 112 119 111
-0.92149937 -104.92448 23.300327 136 136 135
-0.77697182 -104.94913 23.268711 87 101 90
-3.4290028 -104.62245 23.314177 83 107 90
-3.288928 -104.72061 23.282532 124 125 114
-3.0881922 -104.69177 23.307915 102 111 99
-2.9219449 -104.7251 23.302164 103 112 98
-2.6882014 -104.69821 23.325258 92 102 88
-2.5012295 -104.7011 23.312229 100 106 100
-2.2954483 -104.71634 23.341042 112 116 113
-2.0785828 -104.67291 23.342117 120 122 122
-1.937274 -104.68188 23.316071 114 112 112
-1.6939392 -104.72644 23.306488 110 114 113
-1.4576555 -104.72514 23.276485 113 114 113
-1.327202 -104.71242 23.307055 104 111 105
-1.1112397 -104.68424 23.301735 122 122 118
-0.90615457 -104.66788 23.332458 117 121 114
-0.69474602 -104.6879 23.262894 84 104 87
-3.6990879 -104.51148 23.356964 76 93 75
-3.4944434 -104.49393 23.301861 88 106 93
-3.2751567 -104.50546 23.306219 96 109 95
-3.1010752 -104.53267 23.305582 114 119 112
-2.9081423 -104.495 23.310175 105 110 103
-2.7126343 -104.49976 23.308968 108 112 109
-2.5227475 -104.50798 23.33366 96 99 94
-2.2943373 -104.52002 23.30512 123 117 116
-2.1192181 -104.5211 23.304432 102 102 102
-1.973022 -104.5505 23.292887 102 108 106
-1.6552157 -104.49974 23.326061 119 115 120
-1.4967178 -104.50415 23.339586 117 118 116
-1.3189131 -104.50292 23.300579 106 112 108
-1.1007806 -104.50154 23.311207 103 111 101
-0.9087224 -104.48044 23.304274 94 106 93
-0.71778238 -104.49489 23.280859 92 109 92
-0.58961821 -104.47335 23.29821 85 104 90
-3.6716638 -104.21344 23.357206 109 106 99
-3.5205877 -104.29445 23.306364 113 116 110
-3.3212645 -104.28699 23.288122 102 109 99
-3.109462 -104.30579 23.288681 104 107 102
-2.9076474 -104.31453 23.320147 111 110 109
-2.6938674 -104.28555 23.312412 100 107 101
-2.5232401 -104.28384 23.284275 130 122 123
-2.2882037 -104.31622 23.284872 119 112 113
-2.0694375 -104.29008 23.290308 110 109 119
-1.9170188 -104.31351 23.258278 103 106 114
-1.4514587 -104.32774 23.327579 146 133 138
-1.2835741 -104.29901 23.274055 110 117 113
-1.087423 -104.31368 23.306139 102 111 103
-0.91615617 -104.32121 23.276888 89 103 89
-0.72363341 -104.32352 23.269995 85 101 85
-0.53102756 -104.30879 23.26535 101 116 103
-3.672749 -104.09911 23.337833 118 117 110
-3.5092037 -104.16052 23.318863 113 110 108
-3.2819097 -104.09695 23.306616 105 108 103
-3.1212587 -104.09924 23.32048 109 111 107
-2.8861165 -104.09515 23.302845 100 107 102
-2.6867392 -104.12191 23.304623 105 110 104
-2.480098 -104.11145 23.301083 131 126 128
-2.2819166 -104.08525 23.316263 126 117 118
-2.1492574 -104.10226 23.313704 115 118 122
-1.9175367 -104.12068 23.361176 72 71 66
-1.79053 -104.09445 23.333055 63 61 48
-1.490587 -104.05258 23.212246 117 122 117
-1.3048449 -104.14285 23.270836 108 116 112
-1.0985494 -104.12777 23.273689 90 100 88
-0.88650745 -104.09914 23.274799 101 115 100
-0.72332042 -104.11567 23.259851 94 104 91
-0.50749803 -104.11629 23.288654 92 110 92
-0.36747229 -104.03996 23.30224 111 133 110
-3.8078535 -103.86414 23.275736 121 114 108
-3.6926007 -103.93192 23.351286 116 112 108
-3.5177557 -103.87302 23.323677 120 123 119
-3.306555 -103.88555 23.304657 106 110 104
-3.1064429 -103.89271 23.311037 106 111 106
-2.8927674 -103.93024 23.292736 118 120 113
-2.6784933 -103.90144 23.311258 119 119 117
-2.5209594 -103.92909 23.270296 125 114 118
-2.2990129 -103.89385 23.291437 89 90 83
-1.9428835 -103.91128 23.297113 126 130 122
-1.276036 -103.87669 23.279617 100 110 109
-1.0761817 -103.89811 23.310589 97 112 101
-0.88598961 -103.90823 23.274939 122 124 112
-0.67490441 -103.93223 23.267576 99 114 94
-0.46123713 -103.85214 23.328911 85 105 90
-0.36266989 -103.88196 23.294046 115 137 116
-3.8269219 -103.63098 23.339882 65 83 73
-3.6683776 -103.67506 23.312466 107 113 105
-3.5378845 -103.6713 23.317242 109 113 107
-3.2741778 -103.69944 23.309114 104 110 105
-3.1183164 -103.7167 23.34696 100 104 100
-2.9138284 -103.71698 23.311199 95 99 97
-2.7085197 -103.66811 23.336931 139 134 143
-2.5000999 -103.6531 23.331621 86 103 89
-2.2599888 -103.68459 23.303003 128 122 130
-2.1528244 -103.64697 23.284481 109 110 110
-1.9910412 -103.67296 23.246391 109 119 113
-1.4492397 -103.67504 23.323408 88 111 94
-1.3095213 -103.72176 23.315731 81 101 86
-1.1195401 -103.68887 23.285572 83 100 86
-0.94419342 -103.61551 23.230202 91 104 89
-0.68285847 -103.69511 23.267151 113 119 110
-0.48555025 -103.71909 23.3452 98 120 101
-0.33832866 -103.75832 23.245781 88 108 97
-3.6861708 -103.43811 23.296881 117 114 113
-3.5043526 -103.51347 23.298027 121 121 118
-3.3020463 -103.49316 23.311087 108 111 105
-3.1189015 -103.5083 23.304941 110 115 113
-2.9768162 -103.51725 23.306145 126 130 135
-2.6861277 -103.4873 23.332323 101 108 103
-2.4836433 -103.53772 23.30756 74 86 74
-2.2838042 -103.54554 23.299276 84 92 77
-2.1707387 -103.52325 23.336771 76 93 75
-1.940045 -103.4959 23.344643 79 96 85
-1.6709099 -103.45958 23.3248 74 89 71
-1.477011 -103.48013 23.287575 80 98 84
-1.2998202 -103.49398 23.285976 79 99 82
-1.1060798 -103.51283 23.285801 95 110 96
-0.91546738 -103.52897 23.246429 105 118 106
-0.56263095 -103.537 23.371508 166 163 170
-3.9163797 -103.24222 23.310068 143 144 138
-3.7113128 -103.31629 23.316648 127 124 122
-3.4694514 -103.27813 23.31568 106 112 100
-3.2959557 -103.27065 23.315622 105 114 103
-3.1314299 -103.29664 23.291414 92 103 93
-2.9162996 -103.30535 23.32123 78 89 82
-2.7328165 -103.31407 23.299341 86 94 88
-2.5056195 -103.29228 23.346004 79 94 76
-2.2470958 -103.25464 23.363688 103 108 102
-2.1261666 -103.28088 23.312489 110 115 113
-1.8838186 -103.29317 23.320602 88 94 84
-1.7169694 -103.27199 23.328501 79 95 84
-1.4892355 -103.33199 23.329063 87 105 89
-1.3111228 -103.32031 23.322205 76 99 81
-1.1019127 -103.28465 23.281324 103 116 105
-0.91205865 -103.25804 23.338554 102 121 105
-0.75463402 -103.31032 23.314095 115 122 110
-3.8348827 -103.0425 23.371283 161 153 150
-3.7195334 -103.11224 23.377956 135 132 129
-3.4613879 -103.0614 23.213043 92 100 87
-3.2949471 -103.11932 23.327724 104 113 105
-3.0958529 -103.08792 23.30908 125 125 125
-2.8813887 -103.09725 23.291189 112 114 110
-2.7298853 -103.07162 23.284397 98 107 94
-2.485738 -103.11561 23.30871 105 110 102
-2.2547956 -103.10272 23.350454 76 85 63
-2.0600612 -103.11784 23.322838 93 97 95
-1.8955084 -103.12066 23.33935 93 106 91
-1.6813213 -103.12077 23.353291 106 115 104
-1.4844209 -103.13821 23.274902 85 100 90
-1.2675732 -103.09861 23.310013 77 96 80
-1.0947406 -103.10754 23.329199 88 105 94
-0.88172233 -103.03861 23.266262 134 142 145
-0.69202459 -103.07297 23.257395 126 135 140
-3.4347718 -102.92351 23.348248 116 119 112
-3.3807178 -102.89366 23.223949 114 113 109
-3.0203683 -102.87685 23.262789 75 101 79
-2.8645067 -102.8806 23.341805 88 104 88
-2.6711707 -102.90276 23.321941 97 107 94
-2.5365632 -102.89373 23.343155 78 93 75
-2.2941861 -102.84133 23.349264 81 105 83
-2.0517311 -102.86775 23.369549 77 103 84
-1.9283953 -102.89273 23.348116 79 97 84
-1.6880925 -102.92534 23.345743 91 103 95
-1.4692913 -102.9194 23.355227 62 82 63
-1.3519324 -102.86288 23.396416 93 99 80
-1.0083026 -102.94705 23.294765 129 131 142
-0.87444609 -102.93535 23.294928 147 148 168
-0.6763956 -102.90803 23.292009 211 199 234
-0.59038424 -102.83718 23.209158 203 188 233
-3.1540682 -102.72483 23.340406 109 108 105
-2.8795378 -102.72514 23.319658 92 112 94
-2.7060931 -102.70191 23.310694 93 107 92
-2.5335922 -102.67645 23.321945 94 108 93
-2.2927058 -102.68145 23.305935 81 102 86
-2.0947633 -102.67867 23.333103 89 110 92
-1.9282494 -102.73428 23.349466 60 79 66
-1.6648684 -102.7011 23.356766 114 130 120
-1.4159272 -102.66698 23.399296 64 87 68
-1.3428617 -102.73343 23.381805 91 95 85
-1.0031828 -102.70117 23.367851 129 129 129
-0.90102518 -102.70746 23.350574 153 148 165
-0.72037929 -102.70824 23.295664 179 166 203
-2.8842964 -102.52722 23.311415 106 109 104
-2.7063978 -102.48038 23.356958 121 118 114
-2.5160875 -102.51276 23.298285 105 115 102
-2.3124292 -102.50992 23.317997 102 115 100
-2.1123524 -102.51381 23.288969 54 74 59
-1.9333647 -102.52277 23.308466 87 92 88
-2.7137542 -102.29482 23.293274 136 126 126
-2.5250871 -102.30114 23.317816 146 132 132
-2.2420325 -102.35234 23.294901 123 120 113
-1.6666149 -100.24825 23.288828 77 96 90
-1.5255456 -100.31018 23.336058 63 84 77
-1.912097 -100.06472 23.201498 58 75 69
-1.6671484 -100.09377 23.240465 105 117 112
-1.2591619 -100.05766 23.325977 111 120 117
-1.0949577 -100.08341 23.29318 91 108 99
-0.92889977 -100.10999 23.298805 93 109 110
-0.69806349 -100.02228 23.278709 97 113 103
-0.55820149 -100.08769 23.251968 91 112 101
-2.0848045 -99.864952 23.287031 99 116 104
-1.9165041 -99.882202 23.306355 90 104 98
-1.7017324 -99.894043 23.254892 112 119 116
-1.4973865 -99.864067 23.243994 102 114 106
-1.31968 -99.893829 23.289467 108 121 114
-1.0864509 -99.904701 23.327597 100 112 107
-0.88796878 -99.908142 23.347059 92 107 98
-0.7155605 -99.935669 23.346537 98 112 103
-0.59312797 -99.868996 23.338331 92 108 96
0.12059948 -99.897507 23.231607 110 124 111
-2.0745342 -99.680832 23.298195 100 115 106
-1.8856028 -99.697899 23.304184 98 110 105
-1.6924717 -99.71302 23.311684 104 113 110
-1.511574 -99.706955 23.294636 101 112 107
-1.3566273 -99.677513 23.29331 107 118 112
-1.1211792 -99.672279 23.28985 100 114 106
-0.91769493 -99.69265 23.323383 96 108 98
-0.66197866 -99.683006 23.335075 101 112 103
-0.5248881 -99.682396 23.2607 97 108 100
-0.31825751 -99.625549 23.21459 91 104 95
0.13815592 -99.714966 23.272005 121 128 117
0.28597325 -99.649178 23.279531 133 132 122
-2.9470308 -99.406364 23.210407 100 114 110
-2.0833681 -99.490608 23.291569 99 112 103
-1.9148241 -99.497681 23.339472 101 113 107
-1.7060606 -99.530853 23.291874 107 114 113
-1.4988264 -99.480751 23.309975 97 110 105
-1.2221751 -99.460007 23.305967 100 110 107
-1.1019108 -99.506042 23.286318 90 105 98
-0.9110679 -99.518631 23.322094 98 113 103
-0.68584394 -99.502861 23.343191 88 102 92
-0.53921646 -99.530602 23.25811 104 114 106
0.08725968 -99.491692 23.254374 125 133 121
0.27231148 -99.471985 23.28948 148 140 132
0.54280603 -99.531616 23.247261 121 119 111
-2.8500602 -99.309929 23.200932 99 108 105
-2.0920694 -99.286522 23.288486 104 116 107
-1.905643 -99.296684 23.325836 91 107 97
-1.6917706 -99.327873 23.337835 120 132 125
-1.501443 -99.323349 23.318489 91 106 98
-1.2909143 -99.293724 23.283127 94 108 101
-1.1081878 -99.290894 23.321573 94 108 99
-0.90216094 -99.288979 23.32715 97 111 100
-0.67911017 -99.313049 23.340099 90 104 94
-0.52797902 -99.312065 23.265371 95 106 98
-0.35357311 -99.258698 23.316988 107 115 103
0.13071764 -99.295586 23.310257 129 134 121
0.2158044 -99.344467 23.259186 129 134 121
-2.1106725 -99.158974 23.313061 115 126 118
-1.8686701 -99.120506 23.332298 120 136 125
-1.6813354 -99.083099 23.385742 116 132 122
-1.4665778 -99.086884 23.298138 91 107 96
-1.3262362 -99.092842 23.309717 91 106 95
-1.1113831 -99.09433 23.31447 102 117 107
-0.92515314 -99.1194 23.326641 105 118 106
-0.66812825 -99.148422 23.348814 94 108 97
-0.48629162 -99.059303 23.318907 124 129 119
-0.34597477 -99.083138 23.323404 97 107 93
0.15960699 -99.106903 23.324467 131 134 121
0.24078305 -99.127457 23.273109 136 140 126
-1.8073437 -98.909447 23.397024 117 125 114
-1.7010373 -98.91803 23.263691 119 134 123
-1.4829646 -98.948219 23.287905 105 120 110
-1.295158 -98.920158 23.28277 94 108 98
-1.0772046 -98.884331 23.278334 96 109 98
-0.90536594 -98.873718 23.296085 96 111 99
-0.73859757 -98.802261 23.363405 98 116 103
-0.47354805 -98.932632 23.313442 117 119 105
-0.30393845 -98.972862 23.364252 139 134 128
-1.8167145 -98.770538 23.29483 107 114 106
-1.6694937 -98.722527 23.297451 142 149 141
-1.3055298 -98.726707 23.255783 107 122 113
-1.0969357 -98.673698 23.259403 96 110 99
-0.89047271 -98.720581 23.310827 108 124 114
-0.74974996 -98.708969 23.264008 105 123 111
-0.53483069 -98.680275 23.388386 117 129 117
-0.34904173 -98.60968 23.310085 101 109 96
-1.2368705 -98.494743 23.212963 102 114 105
-1.1304547 -98.449425 23.253925 106 119 107
-0.85040092 -98.514214 23.293818 101 117 104
-0.78097939 -98.541626 23.31065 109 122 110
-0.53940886 -98.489235 23.313755 110 121 107
-0.33475688 -98.504715 23.25602 123 125 114
-1.2667778 -98.239548 23.394709 129 132 121
-1.1110082 -98.268372 23.293213 125 128 117
-0.85351419 -98.310219 23.292028 110 124 109
-0.74007571 -98.34687 23.34827 124 132 118
-0.49854398 -98.298515 23.306417 130 128 118
-1.2487853 -98.052505 23.296385 138 137 128
-1.1017852 -98.114029 23.25078 134 140 128
-0.87727368 -98.07431 23.217596 128 131 114
-0.37433928 -98.072441 23.220985 143 132 126
-2.4452212 -106.00388 23.504047 53 76 56
-2.2686739 -106.06307 23.439844 59 83 64
-2.0735192 -106.05655 23.42168 84 108 84
-1.8909914 -106.05676 23.460709 86 106 83
-1.6762753 -106.0754 23.46332 102 125 98
-2.8133926 -105.81678 23.525909 107 131 105
-2.6702254 -105.84653 23.49633 68 93 66
-2.4781613 -105.86 23.456373 90 110 86
-2.2937198 -105.85651 23.452528 77 98 71
-2.1189666 -105.87433 23.46554 88 111 81
-1.9082724 -105.85599 23.453066 81 104 75
-1.675422 -105.87747 23.455162 95 116 89
-1.5702631 -105.91304 23.416019 102 124 86
-3.0294979 -105.72478 23.444166 108 125 104
-2.8980451 -105.69489 23.505606 102 120 95
-2.6941938 -105.69632 23.48938 85 106 79
-2.5044637 -105.69003 23.484318 98 118 93
-2.3175395 -105.71172 23.479769 86 108 82
-2.0970712 -105.70148 23.478209 90 112 85
-1.9072134 -105.67956 23.462957 81 104 77
-1.6986891 -105.69737 23.476715 83 105 78
-1.598752 -105.60645 23.463388 79 108 77
-1.0045283 -105.65954 23.416298 50 80 54
-0.92302465 -105.61063 23.437771 70 97 71
-0.65205401 -105.63767 23.424549 105 127 106
-3.204958 -105.49147 23.410862 100 115 94
-3.0623407 -105.52234 23.479927 124 134 116
-2.8737178 -105.5135 23.469862 91 111 83
-2.6908324 -105.481 23.478188 88 107 84
-2.507374 -105.48406 23.498419 94 110 89
-2.3147287 -105.50461 23.475811 89 106 86
-2.1101122 -105.51324 23.508656 97 111 91
-1.8698134 -105.49302 23.482317 98 112 95
-1.7075229 -105.48862 23.478937 94 109 89
-1.5288527 -105.45965 23.47928 96 112 97
-1.0652457 -105.48212 23.481007 94 113 89
-0.88771671 -105.4827 23.468321 96 113 90
-0.74636185 -105.47697 23.449244 108 126 104
-3.2719562 -105.24777 23.487041 100 117 99
-3.0792134 -105.28278 23.48028 110 121 101
-2.8941605 -105.29411 23.478136 103 117 97
-2.6996396 -105.29657 23.481808 99 114 93
-2.4966941 -105.3136 23.493628 97 110 93
-2.2977288 -105.31406 23.49419 95 108 90
-2.1258705 -105.27574 23.521242 106 116 100
-1.8885782 -105.27745 23.476231 97 108 95
-1.7087284 -105.32224 23.50362 98 112 95
-1.5043671 -105.30717 23.491152 79 98 78
-1.2664189 -105.27342 23.46583 117 123 113
-1.077786 -105.33749 23.458811 97 114 93
-0.88739383 -105.33693 23.46125 104 118 98
-0.77764779 -105.35747 23.4582 94 108 88
-3.2873104 -105.10314 23.48904 117 130 112
-3.0740259 -105.13058 23.498524 106 122 100
-2.8962834 -105.11178 23.47879 96 111 89
-2.6966271 -105.09299 23.484184 96 109 91
-2.4864163 -105.09428 23.494057 100 110 98
-2.299341 -105.12257 23.495947 106 114 103
-2.0995767 -105.11172 23.499769 101 107 96
-1.904935 -105.09093 23.511356 108 116 108
-1.7033963 -105.11071 23.49861 95 108 96
-1.5017287 -105.11105 23.517254 81 102 82
-1.2686744 -105.10118 23.459471 102 111 105
-1.1264197 -105.06584 23.428308 94 113 92
-0.85861617 -105.1806 23.461605 89 109 90
-3.2969561 -104.89451 23.460981 129 127 118
-3.0953605 -104.89448 23.470621 119 122 112
-2.88064 -104.90772 23.478203 96 111 91
-2.7028148 -104.89325 23.482214 94 106 92
-2.5008721 -104.91798 23.485838 94 105 92
-2.3152614 -104.91059 23.501245 101 110 100
-2.11409 -104.9074 23.479681 100 108 102
-1.8899231 -104.90274 23.527559 124 127 124
-1.7087982 -104.87846 23.512423 113 116 112
-1.5218984 -104.92575 23.492619 85 100 88
-1.3185586 -104.88947 23.494036 103 115 108
-1.1168056 -104.92796 23.486401 134 138 138
-0.92714524 -104.91087 23.504898 169 159 178
-3.2341917 -104.75428 23.455023 125 122 113
-3.1028962 -104.68579 23.473808 129 126 120
-2.8822134 -104.69398 23.465933 103 111 99
-2.6958222 -104.70661 23.486917 97 105 94
-2.4901237 -104.7114 23.469637 95 104 94
-2.3315661 -104.71497 23.505888 105 111 102
-2.0988548 -104.70533 23.501595 107 111 107
-1.9327546 -104.69197 23.5175 117 119 116
-1.6909113 -104.72106 23.510197 132 130 130
-1.4383543 -104.68481 23.487133 94 109 98
-1.3062818 -104.73655 23.503012 107 117 110
-1.0359373 -104.77847 23.526085 154 146 155
-0.91106462 -104.6425 23.452976 124 133 127
-0.74974555 -104.63507 23.438124 129 137 131
-3.6486819 -104.46997 23.507637 92 108 94
-3.4775746 -104.48084 23.514406 97 116 100
-3.2826033 -104.45757 23.518991 87 104 86
-3.0840955 -104.52074 23.490997 101 114 98
-2.8814709 -104.53498 23.509972 106 112 102
-2.7113402 -104.50713 23.496813 105 109 103
-2.4846818 -104.50244 23.505909 109 110 108
-2.2946587 -104.48606 23.517151 102 105 102
-2.1020389 -104.52332 23.525198 112 109 109
-1.9671755 -104.46222 23.504204 125 112 116
-1.6775842 -104.529 23.527903 125 123 122
-1.5108891 -104.50698 23.518425 108 114 110
-1.3319244 -104.55885 23.512747 88 95 88
-1.0917797 -104.48267 23.487068 94 107 97
-0.91432256 -104.48196 23.46217 85 105 87
-0.79607356 -104.53546 23.413101 101 115 99
-3.6693141 -104.30772 23.503559 104 113 104
-3.5123351 -104.31047 23.490789 101 109 101
-3.2911279 -104.28861 23.514248 96 107 95
-3.1127388 -104.27859 23.51259 114 116 109
-2.9159858 -104.29136 23.499035 105 109 106
-2.7098482 -104.324 23.490072 114 115 117
-2.5210116 -104.31226 23.52047 127 114 118
-2.3223886 -104.31796 23.506079 117 111 117
-2.1334381 -104.32178 23.493713 93 100 99
-1.8982797 -104.32016 23.509943 97 103 96
-1.6315676 -104.28183 23.464859 110 105 111
-1.501511 -104.30177 23.471045 109 110 109
-1.2818223 -104.30764 23.502609 83 98 91
-1.10288 -104.31769 23.46273 97 110 100
-0.90908784 -104.32739 23.459869 90 106 92
-0.71387154 -104.30798 23.534101 94 105 96
-3.6854324 -104.10708 23.512062 115 118 113
-3.5023921 -104.1139 23.501183 111 113 106
-3.3056092 -104.13081 23.5084 123 124 121
-3.0906558 -104.10162 23.503969 103 111 101
-2.92067 -104.08871 23.522051 125 122 123
-2.7007937 -104.09249 23.521849 119 123 119
-2.4998584 -104.06218 23.538012 99 105 97
-2.302541 -104.09253 23.523359 121 119 120
-2.0996439 -104.08664 23.517128 100 106 106
-1.8943428 -104.09975 23.534119 103 105 102
-1.7241805 -104.0815 23.554274 105 101 98
-1.5070543 -104.09573 23.504021 100 105 95
-1.2912388 -104.12555 23.478559 93 105 97
-1.0928419 -104.11738 23.521978 67 88 69
-0.87952453 -104.09785 23.465368 84 100 80
-0.74682349 -104.0201 23.430548 84 103 75
-3.8816376 -103.97356 23.577179 165 162 154
-3.6700294 -103.90749 23.540218 109 114 107
-3.4956303 -103.88766 23.517746 120 120 115
-3.3139701 -103.89635 23.486984 115 117 115
-3.1003141 -103.89391 23.497124 109 117 107
-2.8796465 -103.91659 23.485073 94 107 100
-2.6789212 -103.92873 23.479399 102 106 102
-2.5083077 -103.88789 23.515816 106 110 108
-2.3197963 -103.91022 23.483212 119 119 122
-2.0948975 -103.92541 23.512789 88 94 89
-1.9311203 -103.90625 23.528442 73 86 74
-1.7555462 -103.94292 23.510794 90 97 79
-1.4060549 -103.87926 23.554504 85 99 76
-1.318957 -103.89162 23.522755 93 106 98
-1.0769923 -103.89781 23.481215 76 98 79
-0.95479804 -103.91229 23.410595 173 142 142
-0.60302061 -103.83619 23.565329 95 117 97
-3.842608 -103.79291 23.515242 149 144 138
-3.692724 -103.69939 23.527327 100 106 99
-3.5079749 -103.70405 23.5005 106 112 105
-3.297735 -103.68639 23.490923 101 106 99
-3.1194332 -103.70483 23.502241 88 101 89
-2.8585188 -103.68279 23.491335 116 117 113
-2.7151549 -103.70056 23.505732 104 110 102
-2.5050955 -103.67319 23.519089 101 105 101
-2.3103263 -103.67212 23.522385 87 96 86
-2.1321573 -103.6945 23.504538 97 104 94
-1.8853146 -103.62289 23.482548 64 86 70
-1.451197 -103.66833 23.51399 75 99 80
-1.3317474 -103.70868 23.512167 75 97 80
-1.1094542 -103.69789 23.54207 91 110 95
-0.71488833 -103.67683 23.527336 117 132 122
-3.9025662 -103.45424 23.531466 138 124 130
-3.6583416 -103.48613 23.518543 108 110 106
-3.4957392 -103.48621 23.511133 97 104 93
-3.2898703 -103.51128 23.501337 102 109 100
-3.0962262 -103.50043 23.506857 95 105 97
-2.8945451 -103.51195 23.488499 95 102 99
-2.680089 -103.51516 23.512642 91 102 89
-2.4932432 -103.54999 23.505737 93 99 92
-2.2917309 -103.54085 23.501534 97 108 95
-2.0452073 -103.55504 23.519009 81 100 88
-1.9280747 -103.45992 23.525541 91 101 88
-1.7222036 -103.45538 23.499922 88 103 87
-1.4934125 -103.5128 23.519674 83 104 87
-1.380813 -103.51703 23.478783 83 103 88
-1.0957177 -103.4808 23.490997 110 128 115
-0.8750183 -103.54731 23.590816 135 131 146
-0.57969171 -103.57184 23.416599 112 118 143
-4.1006365 -103.23618 23.580372 181 170 166
-3.8873224 -103.30693 23.49708 133 128 125
-3.6901667 -103.30102 23.541412 112 118 109
-3.503679 -103.31266 23.519747 103 112 98
-3.3223107 -103.33026 23.51852 94 106 91
-3.1178131 -103.2857 23.513067 92 102 91
-2.8943772 -103.29053 23.491913 94 104 96
-2.7083235 -103.28809 23.497295 94 106 97
-2.5384338 -103.28214 23.53982 89 99 87
-2.3064919 -103.2877 23.526308 82 93 82
-2.0989439 -103.29311 23.501799 96 104 96
-1.9236529 -103.2962 23.499689 91 101 88
-1.7118809 -103.28456 23.505714 94 106 95
-1.5147954 -103.30992 23.498934 86 104 89
-1.3201077 -103.29919 23.486086 76 95 80
-1.1072307 -103.25739 23.471994 96 113 96
-0.74796802 -103.2149 23.409355 92 107 103
-4.0201774 -103.17523 23.494442 146 138 136
-3.8684242 -103.14076 23.491945 176 165 168
-3.6791134 -103.12177 23.545542 114 119 108
-3.495199 -103.12471 23.495966 116 119 113
-3.2857528 -103.07822 23.474651 98 107 96
-3.094981 -103.10117 23.505278 94 105 93
-2.9212902 -103.09114 23.480124 112 112 109
-2.7020383 -103.09384 23.510527 98 105 96
-2.5135081 -103.1001 23.529448 112 118 106
-2.3014343 -103.10001 23.527481 82 96 79
-2.0928519 -103.08935 23.529272 93 102 91
-1.9213715 -103.08732 23.500792 94 105 94
-1.6981878 -103.11384 23.521811 104 115 102
-1.5006716 -103.11365 23.537777 93 109 91
-1.307775 -103.09938 23.528406 90 105 90
-1.1070696 -103.07054 23.491243 99 115 103
-0.88303018 -103.07272 23.434052 122 134 124
-3.7649815 -102.97124 23.509851 135 137 134
-3.4958065 -102.95432 23.48498 113 116 106
-3.2917187 -102.92941 23.489824 105 112 100
-3.0650742 -102.88802 23.526737 125 118 119
-2.9097209 -102.91907 23.479643 102 110 99
-2.6933715 -102.87521 23.493092 100 111 96
-2.5097682 -102.88955 23.511042 85 105 85
-2.2977571 -102.93583 23.499105 102 111 93
-2.0771003 -102.91703 23.533791 76 88 72
-1.8951294 -102.90477 23.522701 83 98 84
-1.6808617 -102.90957 23.529411 90 105 90
-1.4916655 -102.90694 23.518995 89 104 87
-1.3230697 -102.9007 23.498425 84 98 85
-1.0950912 -102.91819 23.507463 116 125 122
-0.93695426 -102.85445 23.509027 166 161 175
-3.4543233 -102.74735 23.506611 119 110 111
-3.2980485 -102.73447 23.482487 123 119 119
-3.0216179 -102.65907 23.538883 112 111 105
-2.8724401 -102.74801 23.487068 114 119 109
-2.7129052 -102.69519 23.467457 108 119 104
-2.4918439 -102.6927 23.491272 97 114 95
-2.2762716 -102.70206 23.513121 81 103 85
-2.086535 -102.69772 23.549643 102 114 103
-1.9058101 -102.70766 23.529499 91 104 90
-1.6799717 -102.69952 23.511969 89 102 92
-1.4616374 -102.70316 23.521595 102 111 102
-1.3202392 -102.71327 23.540882 97 106 97
-1.1141303 -102.74951 23.471581 132 128 131
-0.9299736 -102.6588 23.475637 173 155 179
-0.79027605 -102.76477 23.403559 194 181 224
-3.2342155 -102.57782 23.553371 117 117 111
-3.0312881 -102.4347 23.482924 125 120 117
-2.9088249 -102.5614 23.455467 128 123 122
-2.6986439 -102.53331 23.486233 121 122 114
-2.5144403 -102.50296 23.507559 106 119 103
-2.3042116 -102.51637 23.506483 101 116 99
-2.0981283 -102.5715 23.561632 136 141 123
-1.9191897 -102.56211 23.525137 103 114 100
-1.7230313 -102.48685 23.540848 82 93 81
-1.5124459 -102.50464 23.490391 84 95 89
-2.9269831 -102.34578 23.480438 139 129 127
-2.699687 -102.35858 23.507378 134 126 127
-2.497448 -102.26447 23.514988 149 138 135
-2.3335774 -102.28623 23.500721 130 128 119
-2.14867 -102.29191 23.519691 113 123 110
-1.9253525 -102.35702 23.527117 63 65 86
-1.6783335 -102.30023 23.437532 95 96 102
-1.5304385 -102.22506 23.555485 112 124 108
-2.5064776 -102.17165 23.479527 153 140 140
-2.3832052 -102.1519 23.579483 150 139 137
-9.0748873 -101.70066 23.480362 143 136 144
-1.5583551 -100.36308 23.439873 66 87 80
-1.0702579 -100.04881 23.427441 94 111 102
-0.90335655 -100.02841 23.46579 97 115 108
-2.0215559 -99.858559 23.419861 80 101 88
-1.2468243 -99.863754 23.439007 103 117 109
-1.0898328 -99.884438 23.49991 106 119 112
-0.94529438 -99.887611 23.488762 92 107 97
-0.71906304 -99.89238 23.456821 102 115 107
-2.0377612 -99.618073 23.476788 90 103 98
-1.9054637 -99.668785 23.455818 94 106 101
-1.7293407 -99.654526 23.520533 114 127 120
-1.5658771 -99.640938 23.435434 93 106 103
-1.2624805 -99.732796 23.481659 98 111 102
-1.0897419 -99.739998 23.49316 100 113 104
-0.86499465 -99.722168 23.483973 110 120 110
-0.72502577 -99.704811 23.50947 105 117 107
-0.58024281 -99.639313 23.4405 91 104 96
0.18318254 -99.64785 23.422207 148 154 144
-2.0266681 -99.505318 23.454241 96 111 102
-1.8734183 -99.497543 23.487995 101 115 106
-1.7002212 -99.52182 23.525394 99 111 103
-1.5544559 -99.472977 23.490339 89 102 97
-1.1187561 -99.475014 23.424734 100 113 103
-0.86491913 -99.542442 23.508419 106 118 106
-0.7010349 -99.528946 23.535219 107 119 108
-0.59424889 -99.459404 23.514069 107 120 108
0.24659692 -99.441124 23.44593 154 141 134
-2.0618181 -99.313034 23.483986 100 115 105
-1.9016246 -99.306992 23.47793 103 114 106
-1.7081438 -99.311066 23.529634 100 114 106
-1.5233992 -99.288193 23.448156 101 113 106
-1.2597237 -99.260223 23.414928 86 97 93
-1.0800388 -99.278595 23.412823 83 97 89
-0.87716961 -99.32608 23.480213 100 113 101
-0.70507437 -99.32988 23.504303 109 120 110
-0.50092191 -99.294106 23.469709 109 116 106
0.15879901 -99.294411 23.46517 142 144 131
0.2575537 -99.284081 23.483757 149 142 133
-2.0525866 -99.146378 23.537403 98 110 100
-1.8954555 -99.12133 23.481014 108 121 111
-1.6775202 -99.144585 23.488031 106 122 112
-1.4846238 -99.100502 23.489889 87 101 89
-1.36589 -99.070923 23.433958 87 101 90
-1.1189053 -99.083359 23.487701 103 117 107
-0.92353755 -99.096024 23.491617 101 115 104
-0.72199416 -99.122322 23.496834 96 111 98
-0.51966041 -99.102394 23.486513 104 117 106
-0.36858073 -99.079041 23.472944 116 125 113
0.12083365 -99.073639 23.4468 138 141 127
0.28466928 -99.154106 23.497665 143 137 128
0.44382432 -99.079033 23.476673 151 142 134
-1.8779379 -98.959396 23.442894 115 125 114
-1.6837023 -98.93084 23.482182 112 126 116
-1.4509839 -98.891113 23.422253 116 125 116
-1.3385271 -98.93795 23.448227 82 94 83
-1.0687582 -98.919235 23.486485 111 123 112
-0.89298248 -98.927002 23.498692 105 118 106
-0.69626045 -98.912338 23.498312 106 120 108
-0.52001727 -98.932732 23.54825 116 124 114
-0.34465379 -98.930061 23.512604 120 123 114
0.2948527 -98.994484 23.475288 144 138 129
-1.3711137 -98.687111 23.412151 83 95 85
-0.89462072 -98.757309 23.514933 107 117 105
-0.67731106 -98.730019 23.495827 107 121 108
-0.52330649 -98.673538 23.511156 118 126 115
-0.88230109 -98.438934 23.472336 111 127 113
-0.7442376 -98.545891 23.506315 114 126 112
-0.56829906 -98.425415 23.530851 145 143 132
-1.2106749 -98.354431 23.409304 122 136 123
-0.8714326 -98.206032 23.5147 121 123 112
-0.72210157 -98.302284 23.479099 136 140 128
-0.56891429 -98.298035 23.480419 141 137 128
-1.0480431 -98.150688 23.473753 150 141 134
-0.76886553 -98.17247 23.442875 134 137 126
-0.56516331 -98.190826 23.458334 140 133 123
-2.8714731 -105.80378 23.611725 98 127 96
-2.7304068 -105.80412 23.666954 92 122 90
-2.0838444 -105.81095 23.603539 86 116 81
-2.8697975 -105.62632 23.671057 110 126 102
-2.7031815 -105.67407 23.636917 81 104 75
-2.4780505 -105.70632 23.627176 83 110 81
-2.3510191 -105.66415 23.631258 102 124 98
-2.1054637 -105.6575 23.627098 81 107 80
-1.9452095 -105.65736 23.678909 92 119 90
-3.0018613 -105.56858 23.629141 102 114 94
-2.8586106 -105.52814 23.641148 119 141 112
-2.7269022 -105.5361 23.663744 78 103 69
-2.4583149 -105.50258 23.625879 91 116 85
-2.3084996 -105.48915 23.664314 82 105 75
-2.0873899 -105.48514 23.665792 89 109 86
-1.9182355 -105.47325 23.697926 91 110 86
-1.7029928 -105.43301 23.66781 88 110 84
-1.5627443 -105.43505 23.656834 87 116 85
-1.0374913 -105.44358 23.602943 77 112 79
-0.92056334 -105.41672 23.683754 120 127 111
-2.6726482 -105.2728 23.634207 112 123 104
-2.5161045 -105.31394 23.633276 83 105 78
-2.2628634 -105.3326 23.643732 102 119 103
-2.088944 -105.30058 23.68833 100 116 98
-1.9052852 -105.29855 23.709438 88 103 83
-1.6882324 -105.311 23.659586 84 104 80
-1.517274 -105.28724 23.670856 84 106 81
-0.89867574 -105.34917 23.631895 106 120 101
-2.847188 -105.09889 23.665199 76 107 75
-2.673883 -105.10767 23.681622 97 111 93
-2.5044982 -105.06671 23.689192 90 111 87
-2.2689044 -105.10337 23.648996 93 106 91
-2.1139081 -105.10526 23.691547 110 118 108
-1.9147431 -105.06801 23.67362 115 121 117
-1.7219492 -105.07734 23.677691 106 117 111
-1.5239382 -105.11083 23.688213 88 108 89
-3.0516596 -104.87283 23.615028 127 119 123
-2.8534663 -104.9942 23.605957 70 100 72
-2.6859837 -104.88887 23.707945 79 105 85
-2.5006235 -104.88686 23.675817 93 109 92
-2.3114908 -104.90002 23.688244 108 114 104
-2.0851483 -104.90285 23.703659 116 120 117
-1.9234145 -104.89494 23.69087 114 120 114
-1.7332891 -104.88957 23.703974 121 124 123
-1.4934477 -104.88772 23.716679 84 101 89
-1.2997857 -104.88457 23.69253 128 134 135
-1.0916134 -104.86259 23.706808 236 214 238
-0.86810815 -104.87042 23.664478 232 221 239
-0.75583154 -104.87358 23.69791 221 198 240
-3.4120839 -104.65767 23.643435 86 115 91
-3.1391726 -104.66124 23.612728 151 143 142
-2.8460307 -104.65923 23.621195 127 128 125
-2.7102892 -104.67091 23.705252 103 116 100
-2.5100698 -104.73531 23.692137 82 97 76
-2.3091102 -104.72305 23.67358 107 112 106
-2.0765326 -104.69796 23.708923 115 118 114
-1.9237959 -104.69965 23.699766 129 128 126
-1.6763926 -104.69966 23.702585 120 122 120
-1.5040466 -104.7109 23.714691 103 114 109
-1.3448347 -104.71327 23.726797 94 109 98
-1.1384363 -104.64823 23.714111 134 142 137
-0.9820025 -104.71193 23.65337 228 217 231
-3.4524829 -104.48363 23.674452 69 95 71
-3.2805777 -104.46725 23.680664 95 113 97
-3.0792544 -104.47962 23.707159 100 114 97
-2.8831267 -104.50453 23.72007 99 111 97
-2.6754708 -104.50231 23.673494 97 108 98
-2.505192 -104.48492 23.697449 103 114 101
-2.2972355 -104.50739 23.687628 110 112 108
-2.1468506 -104.50011 23.704865 122 117 116
-1.8735828 -104.51546 23.725016 103 106 101
-1.6912706 -104.51935 23.71196 116 118 114
-1.518893 -104.52878 23.687237 89 102 97
-1.3112961 -104.52254 23.648138 95 108 102
-1.1379104 -104.48766 23.714169 82 101 88
-0.86981493 -104.55107 23.707211 111 121 113
-3.6743679 -104.32829 23.686556 104 119 106
-3.4761558 -104.31161 23.693052 93 110 95
-3.3160298 -104.31041 23.701864 93 109 92
-3.0919631 -104.30013 23.71104 115 123 112
-2.9057629 -104.28056 23.697865 120 118 119
-2.7031431 -104.32473 23.713615 111 115 112
-2.5043397 -104.31326 23.690468 106 114 109
-2.3291686 -104.2933 23.719536 101 113 107
-2.105835 -104.31855 23.705578 75 94 79
-1.9281051 -104.27222 23.753258 88 103 94
-1.7177628 -104.26905 23.713791 119 121 121
-1.5292056 -104.30901 23.685211 92 100 93
-1.2945069 -104.29182 23.728121 99 112 105
-1.1243868 -104.33325 23.701321 74 93 80
-0.93967372 -104.28231 23.724945 93 109 92
-3.8507047 -104.02866 23.718666 136 131 126
-3.6675787 -104.07353 23.7145 108 113 107
-3.4849346 -104.12204 23.702551 94 107 91
-3.2932849 -104.10284 23.706766 123 122 120
-3.0902483 -104.11469 23.69911 104 111 100
-2.9034796 -104.10349 23.716249 110 111 107
-2.6865344 -104.08384 23.713768 111 118 112
-2.5147924 -104.09354 23.71452 105 114 108
-2.2961488 -104.10258 23.707933 100 112 100
-2.0970426 -104.07767 23.707466 80 94 83
-1.9007454 -104.12083 23.699511 86 98 91
-1.7024705 -104.07829 23.697258 110 112 108
-1.5271347 -104.08762 23.749733 95 101 92
-1.2796531 -104.14013 23.719454 98 110 106
-1.0987028 -104.12814 23.725784 77 94 77
-0.92195761 -104.11225 23.73115 95 107 97
-0.70175147 -104.04028 23.72934 110 123 111
-3.8376 -103.81158 23.679382 111 116 107
-3.6812832 -103.88145 23.722212 104 108 103
-3.4966776 -103.91816 23.700823 111 116 110
-3.3239284 -103.9007 23.694717 102 110 100
-3.0721915 -103.92056 23.730391 114 119 111
-2.9096801 -103.91624 23.713062 121 121 118
-2.7081065 -103.88593 23.712799 89 101 93
-2.5021272 -103.90219 23.718546 105 114 108
-2.3440216 -103.88937 23.696026 98 102 99
-2.0847392 -103.91477 23.701706 87 95 90
-1.9424406 -103.91571 23.710503 76 88 78
-1.7135639 -103.92185 23.743979 77 92 77
-1.4691339 -103.88861 23.732824 63 80 56
-1.3015745 -103.91396 23.715931 104 114 105
-1.0780594 -103.88477 23.72229 102 112 104
-0.94871771 -103.91917 23.736824 84 103 84
-0.73906267 -103.94154 23.73588 95 107 95
-3.8647552 -103.67609 23.715458 112 121 112
-3.6703651 -103.66772 23.718897 100 112 97
-3.4698017 -103.7015 23.70854 99 112 95
-3.3123114 -103.69363 23.716343 90 104 86
-3.0677891 -103.69763 23.689949 106 115 100
-2.8780575 -103.67178 23.694658 101 109 103
-2.7072265 -103.69814 23.699928 111 114 110
-2.5028527 -103.69363 23.712479 89 101 91
-2.2984471 -103.69373 23.694895 91 97 92
-2.0922258 -103.70804 23.685408 105 113 107
-1.9468828 -103.68218 23.746298 93 102 101
-1.7654634 -103.70067 23.769733 108 108 120
-1.5784258 -103.68647 23.757133 124 118 120
-1.3352833 -103.69119 23.748619 92 105 89
-1.0966119 -103.72556 23.694489 95 107 94
-0.97452211 -103.71677 23.717321 146 149 158
-4.0660515 -103.49183 23.708664 120 122 118
-3.880805 -103.49274 23.724009 102 111 103
-3.6695008 -103.49604 23.699398 107 118 102
-3.4780054 -103.48917 23.70561 94 107 91
-3.2910583 -103.52595 23.717482 97 106 93
-3.0857911 -103.49169 23.68619 102 109 100
-2.8967087 -103.49851 23.714016 110 114 107
-2.6918919 -103.50411 23.692223 101 109 102
-2.5106802 -103.50201 23.688931 90 105 93
-2.2783005 -103.49276 23.708757 100 105 99
-2.1311567 -103.50356 23.690783 101 107 102
-1.8852468 -103.4997 23.689955 96 111 98
-1.7038779 -103.47252 23.728218 104 118 108
-1.4843036 -103.48224 23.72843 90 111 93
-1.3731494 -103.49387 23.648121 89 107 93
-1.1755975 -103.53772 23.688768 97 109 98
-0.86181867 -103.44832 23.719109 113 119 104
-4.0502453 -103.27289 23.73539 147 135 137
-3.8909712 -103.30444 23.684603 138 132 131
-3.6642053 -103.30375 23.709185 99 109 95
-3.520364 -103.30769 23.711588 96 107 92
-3.2963331 -103.28808 23.710524 102 111 98
-3.11496 -103.29551 23.706684 91 105 91
-2.9171112 -103.28627 23.694321 106 114 105
-2.6988616 -103.31842 23.691219 92 104 94
-2.5209997 -103.28477 23.717119 89 103 89
-2.2845018 -103.28847 23.692619 89 99 87
-2.0956991 -103.2975 23.715773 101 106 99
-1.9273113 -103.29834 23.715284 96 106 93
-1.7054101 -103.29889 23.710264 93 108 90
-1.498106 -103.29817 23.718681 92 110 94
-1.3463961 -103.258 23.63249 94 112 97
-3.8788893 -103.07181 23.742985 131 120 126
-3.6984262 -103.12211 23.699892 113 115 110
-3.5042086 -103.12292 23.713085 103 111 98
-3.3071439 -103.08776 23.71591 105 113 102
-3.1187737 -103.11916 23.690145 100 109 97
-2.8860481 -103.09521 23.689075 93 106 93
-2.712055 -103.09738 23.699465 114 118 111
-2.5109224 -103.12384 23.719456 93 104 87
-2.2929265 -103.10117 23.700994 104 113 100
-2.091749 -103.10269 23.708946 101 109 101
-1.8981602 -103.08241 23.700665 90 100 89
-1.6770073 -103.08937 23.697239 99 111 96
-1.5127475 -103.08023 23.682924 99 111 96
-1.2959652 -103.0735 23.691513 107 117 107
-1.1161602 -103.13967 23.656385 108 124 116
-4.1096048 -102.96904 23.753376 112 100 100
-3.8447633 -102.92808 23.650167 173 155 170
-3.7634614 -102.88461 23.773958 132 125 126
-3.4858742 -102.92738 23.723776 118 120 112
-3.3209054 -102.94693 23.709639 113 111 109
-3.0888872 -102.88776 23.680794 122 119 117
-2.9016476 -102.91528 23.669106 116 115 110
-2.6686094 -102.87715 23.699068 104 115 97
-2.5261917 -102.88352 23.706839 112 121 103
-2.3036654 -102.92352 23.731115 86 100 88
-2.1018059 -102.89442 23.713387 94 107 89
-1.8896773 -102.88066 23.697653 90 102 88
-1.6931137 -102.90415 23.711449 93 108 92
-1.5196798 -102.90353 23.685431 105 116 103
-1.3107277 -102.90472 23.684793 103 117 106
-1.058041 -102.98573 23.779963 174 165 201
-3.4598148 -102.7382 23.719908 132 128 127
-3.3235431 -102.72855 23.708204 131 130 125
-3.1014769 -102.75597 23.703531 135 127 125
-2.9006176 -102.7426 23.660789 136 127 125
-2.6978774 -102.72498 23.71986 119 129 111
-2.4900351 -102.71408 23.719896 110 123 102
-2.2833385 -102.69838 23.718174 104 117 99
-2.0891225 -102.70753 23.712372 98 112 95
-1.8810314 -102.69621 23.701221 90 104 90
-1.6906146 -102.70545 23.700581 97 108 96
-1.499203 -102.69525 23.699421 97 107 98
-1.3193557 -102.6885 23.678637 106 113 104
-1.164795 -102.76508 23.683157 151 144 170
-3.216526 -102.52836 23.700375 144 137 135
-3.0739486 -102.54297 23.669022 147 139 133
-2.7060235 -102.48453 23.712898 139 127 128
-2.4950218 -102.52665 23.707844 117 120 110
-2.2904091 -102.49748 23.702322 106 120 104
-2.1113243 -102.52239 23.734419 114 118 108
-1.9155523 -102.49899 23.722784 103 119 101
-1.7036663 -102.52827 23.689341 98 109 96
-1.5164233 -102.51467 23.705524 103 113 106
-1.3770311 -102.54101 23.682747 72 80 66
-2.6732388 -102.27321 23.675192 135 120 123
-2.4634068 -102.32776 23.724024 139 130 127
-2.2524672 -102.29171 23.741613 112 110 106
-2.1362531 -102.31397 23.703775 117 123 110
-1.9056251 -102.29356 23.694294 120 119 112
-1.7270557 -102.29985 23.717865 116 123 111
-1.5330127 -102.34256 23.71212 114 125 115
-1.3469445 -102.27464 23.706417 112 120 115
-2.6721148 -102.12949 23.664383 169 147 154
-2.482574 -102.10632 23.690413 152 136 136
-2.2726727 -102.15062 23.695015 142 129 127
-2.1014814 -102.11938 23.614914 151 135 137
-1.9441019 -102.00947 23.789663 141 132 122
-1.7619995 -102.16428 23.713133 140 136 126
-1.4922204 -102.18861 23.702747 113 118 109
-1.344835 -102.14893 23.732681 98 115 105
-1.2460914 -99.815536 23.689964 100 110 97
-1.0817705 -99.8442 23.640471 98 108 99
-1.0949659 -99.687286 23.623981 111 124 113
-0.89467043 -99.64212 23.622652 109 118 107
-0.76403999 -99.646782 23.655464 99 113 101
-1.8315742 -99.509903 23.638145 110 118 111
-1.7176919 -99.50193 23.659796 113 126 117
-1.0200449 -99.561806 23.614117 106 116 105
-0.81884587 -99.474884 23.685047 110 123 112
-0.78440875 -99.52636 23.659904 114 127 117
-1.8040246 -99.323837 23.617832 102 111 103
-1.708918 -99.304604 23.671978 102 113 105
-0.87922311 -99.365425 23.667248 113 125 113
-0.77564859 -99.366898 23.675295 120 122 114
0.19543055 -99.232269 23.605164 172 161 156
-1.7079434 -99.124176 23.669626 101 113 104
-0.59130442 -99.118622 23.601158 118 133 114
-0.38818121 -99.004349 23.605778 105 118 109
-1.7493882 -98.998459 23.608418 133 138 128
-1.5904744 -98.99073 23.621025 100 113 101
-0.68860829 -98.835304 23.616722 138 145 136
-0.51184207 -98.904495 23.684353 137 136 128
-0.38877463 -98.937737 23.626511 133 129 120
-0.64586926 -98.688148 23.641998 119 128 118
-0.50271559 -98.60154 23.644348 134 132 123
-0.29677892 -98.605705 23.672855 161 153 142
-0.82257813 -98.534683 23.636135 131 137 125
-0.60337025 -98.573753 23.658722 138 141 132
-0.50478011 -98.454155 23.650778 153 144 137
-2.0582786 -105.43211 23.815889 100 121 96
-1.8839793 -105.48114 23.886908 88 112 85
-2.0781527 -105.25362 23.891825 106 121 106
-1.8938705 -105.31944 23.856035 100 118 97
-1.7170547 -105.25247 23.863625 76 97 73
-1.5475616 -105.23911 23.849907 91 116 91
-1.3948364 -105.39536 23.832703 72 102 74
-2.5006883 -105.0898 23.869339 76 107 77
-2.2785473 -105.02432 23.873203 89 110 85
-2.0756414 -105.07595 23.887571 79 95 74
-1.8986714 -105.10255 23.900156 101 113 97
-1.7026138 -105.10268 23.910782 83 104 83
-1.5471916 -105.10372 23.898886 73 96 68
-2.6630661 -104.87166 23.954762 63 91 63
-2.4768827 -104.86694 23.900284 98 118 104
-2.2917895 -104.88297 23.880583 93 108 93
-2.0964656 -104.9173 23.892567 126 128 121
-1.8678808 -104.88978 23.877523 108 117 113
-1.7211242 -104.89426 23.889162 106 117 110
