ply
format ascii 1.0
comment PCL generated
element vertex 1104
property float x
property float y
property float z
property uchar red
property uchar green
property uchar blue
element face 0
element camera 0
property float view_px
property float view_py
property float view_pz
property float x_axisx
property float x_axisy
property float x_axisz
property float y_axisx
property float y_axisy
property float y_axisz
property float z_axisx
property float z_axisy
property float z_axisz
property float focal
property float scalex
property float scaley
property float centerx
property float centery
property int viewportx
property int viewporty
property float k1
property float k2
end_header
-17.899479 -148.6963 24.886486 119 117 117
-17.687647 -148.70674 24.878868 127 125 125
-17.49917 -148.6812 24.889894 143 134 140
-17.331768 -148.70818 24.915707 155 139 147
-17.124657 -148.69655 24.914108 114 112 112
-16.968721 -148.68098 24.877306 103 102 95
-15.631725 -148.62111 24.924885 159 142 131
-15.495967 -148.67488 24.905966 178 157 149
-15.298455 -148.69002 24.894455 176 155 150
-15.119566 -148.71048 24.873173 159 141 138
-14.91235 -148.68025 24.870535 157 139 136
-14.747979 -148.6619 24.872118 134 123 120
-13.818419 -148.7926 24.884535 125 120 120
-13.712909 -148.73233 24.851175 104 100 100
-13.515316 -148.70512 24.850447 108 104 101
-13.306359 -148.71779 24.844711 126 119 116
-13.096402 -148.69785 24.871237 104 103 101
-12.914939 -148.71648 24.907726 108 109 109
-12.689992 -148.69063 24.837126 99 100 96
-12.400076 -148.77364 24.922514 79 84 80
-22.240288 -148.56235 24.866009 147 142 162
-22.176754 -148.51292 24.844919 125 123 141
-19.474216 -148.43889 24.923649 151 141 152
-19.280169 -148.4407 24.90756 158 146 160
-19.12949 -148.45648 24.897121 117 115 119
-18.914982 -148.45023 24.85903 127 122 128
-18.698889 -148.5192 24.906393 150 143 143
-18.029545 -148.57022 24.958391 119 114 121
-17.851782 -148.52025 24.894297 118 114 119
-17.686459 -148.51212 24.911362 125 122 127
-17.534597 -148.49713 24.933424 129 125 129
-17.268995 -148.47751 24.960665 123 120 122
-17.124649 -148.47804 24.906723 118 117 119
-16.94796 -148.5963 24.864307 138 133 139
-15.62875 -148.5704 24.910213 132 111 105
-15.479827 -148.5136 24.913738 166 146 139
-15.279404 -148.49886 24.903999 163 144 137
-15.097244 -148.49911 24.876776 166 149 143
-14.887153 -148.49776 24.867121 152 139 133
-14.712325 -148.48103 24.848402 144 129 124
-13.70962 -148.56447 24.881493 117 96 103
-13.483 -148.53427 24.854202 89 88 89
-13.262937 -148.5192 24.86524 109 107 105
-13.105281 -148.48471 24.900135 116 109 108
-12.908802 -148.48849 24.887602 95 94 93
-12.761059 -148.45557 24.840944 79 81 81
-22.249289 -148.30038 24.853022 118 118 132
-22.092402 -148.26448 24.874075 97 105 116
-21.512177 -148.24062 24.83007 146 139 162
-19.826715 -148.32336 24.888132 136 126 144
-19.705545 -148.29218 24.867512 159 149 160
-19.513014 -148.30336 24.917023 148 138 148
-19.346491 -148.33759 24.928028 146 135 148
-19.072823 -148.29663 24.925428 113 111 112
-18.941397 -148.28311 24.904602 99 99 98
-18.741158 -148.3183 24.919312 140 129 135
-17.626099 -148.31465 24.906464 113 109 111
-17.493788 -148.3073 24.915375 106 107 108
-17.291246 -148.29768 24.923969 112 110 113
-17.134993 -148.30106 24.900681 113 112 112
-16.93428 -148.25586 24.846401 96 95 92
-16.694613 -148.21994 24.825304 131 129 136
-16.505926 -148.20897 24.80872 172 159 166
-15.473632 -148.31654 24.872999 163 149 143
-15.306931 -148.32298 24.887005 152 139 129
-15.109391 -148.30128 24.888367 151 140 132
-14.911321 -148.32126 24.856604 153 144 135
-14.69223 -148.31868 24.837095 141 131 126
-13.553955 -148.27611 24.858841 84 76 74
-13.29134 -148.37958 24.86389 137 127 131
-13.068034 -148.34424 24.890879 118 106 104
-12.901825 -148.29503 24.918329 96 90 90
-12.73429 -148.2764 24.895138 70 74 73
-12.311132 -148.28407 24.949696 122 119 119
-22.487846 -148.05597 24.843601 144 145 160
-22.222441 -148.10135 24.859791 107 106 117
-22.170738 -148.11499 24.965952 127 126 134
-20.008108 -148.17496 24.837206 56 63 69
-19.833988 -148.09496 24.888273 159 147 163
-19.741117 -148.10443 24.907427 141 134 140
-19.40914 -148.16052 24.989933 89 89 97
-18.848427 -148.14561 24.902582 132 127 128
-18.733757 -148.10921 24.917103 110 108 105
-17.616001 -148.10367 24.918823 97 95 98
-17.481409 -148.08115 24.904369 110 105 110
-17.28425 -148.10873 24.901539 110 110 112
-17.117239 -148.09799 24.882868 119 118 120
-16.899368 -148.07994 24.875801 138 130 136
-16.724215 -148.0784 24.900871 132 126 131
-16.500088 -148.06165 24.908468 105 103 105
-16.346827 -148.03769 24.899811 122 122 120
-15.437784 -148.1842 24.953346 159 145 134
-15.308866 -148.16875 24.883823 112 107 98
-15.070851 -148.08585 24.878942 136 129 121
-14.9207 -148.16414 24.834024 108 107 98
-14.651934 -148.12772 24.934052 100 99 97
-14.440511 -148.01154 24.987076 143 126 126
-13.841625 -148.16562 24.953764 134 123 129
-13.687739 -148.04007 24.84936 117 110 113
-13.188081 -148.09637 24.88953 107 96 97
-12.870567 -148.15398 24.882593 99 91 94
-12.744358 -148.15079 24.84271 84 81 83
-12.455662 -148.03784 24.851234 63 67 63
-12.360469 -148.11032 24.875227 146 144 144
-22.496239 -147.9317 24.855629 119 117 135
-22.325249 -147.88216 24.865358 133 125 147
-22.147591 -147.85208 24.901424 130 124 141
-19.859209 -147.89182 24.88798 112 107 120
-19.714432 -147.90787 24.893143 150 144 148
-18.690729 -147.97095 24.912952 89 87 88
-17.606525 -147.96405 24.969458 137 132 136
-17.483694 -147.91859 24.89909 109 106 105
-17.277458 -147.92982 24.915276 84 86 86
-17.087706 -147.91209 24.888231 123 119 125
-16.875469 -147.87956 24.895878 139 132 142
-16.696478 -147.87767 24.89006 134 126 133
-16.492815 -147.90103 24.8929 136 131 136
-16.292837 -147.87601 24.901525 127 121 124
-16.127562 -147.84988 24.871101 119 114 112
-15.914116 -147.8242 24.927378 109 108 107
-15.099217 -147.87805 24.883276 138 131 123
-14.853717 -147.86377 24.929926 133 124 118
-14.689185 -147.8623 24.883219 150 135 133
-14.544649 -147.88763 24.913929 128 113 112
-14.252238 -147.96458 24.960903 93 83 82
-14.077595 -147.80782 24.894636 124 102 105
-13.838818 -147.92476 24.907495 135 126 129
-13.678373 -147.89053 24.882084 120 114 115
-13.471361 -147.87292 24.876104 123 122 124
-13.327896 -147.85739 24.881449 102 99 97
-13.060542 -147.87656 24.91135 131 118 121
-12.908849 -147.86469 24.897869 120 111 110
-12.701732 -147.8526 24.903437 106 100 102
-12.510981 -147.8707 24.938488 100 104 100
-12.354999 -147.84198 24.891447 111 116 113
-22.668827 -147.72446 24.864489 111 110 129
-22.534641 -147.78201 24.883644 118 116 133
-22.31777 -147.73477 24.859241 133 129 145
-22.114536 -147.72124 24.889025 140 134 152
-21.929651 -147.6723 24.897776 122 119 136
-20.256281 -147.69539 24.840408 73 66 84
-20.074806 -147.68492 24.899706 170 156 175
-19.925657 -147.68568 24.900349 165 152 168
-19.67403 -147.70718 24.884287 141 135 138
-19.572926 -147.68265 24.840994 134 131 128
-17.430235 -147.7982 24.899281 157 149 146
-17.277414 -147.71973 24.942406 107 105 107
-17.072693 -147.65886 24.914385 107 106 110
-16.939436 -147.72598 24.931917 128 122 130
-16.695162 -147.76051 24.969166 137 130 137
-16.48196 -147.72346 24.93108 129 125 129
-16.3207 -147.71228 24.926229 135 128 132
-16.090359 -147.74037 24.896278 137 129 131
-15.920365 -147.73407 24.881271 127 124 123
-15.709301 -147.66537 24.896368 112 108 103
-15.540193 -147.62851 24.847641 112 109 103
-15.276072 -147.7101 24.887445 145 138 130
-15.116191 -147.68161 24.91901 127 123 115
-14.888928 -147.68437 24.898632 135 126 119
-14.664575 -147.66234 24.899767 139 130 125
-14.534128 -147.65724 24.904175 129 119 115
-14.307089 -147.69931 24.909405 133 122 119
-14.130713 -147.6772 24.908293 125 115 115
-13.976198 -147.62367 24.829538 81 84 77
-13.672877 -147.72116 24.901821 136 132 134
-13.495049 -147.69873 24.887934 118 116 117
-13.338984 -147.70186 24.870075 116 112 111
-13.110651 -147.69649 24.900478 123 114 116
-12.910801 -147.71579 24.915653 118 107 106
-12.697706 -147.70584 24.906864 106 101 101
-12.507488 -147.69324 24.89098 110 106 104
-12.3159 -147.75346 24.92778 95 97 95
-22.290604 -147.59094 24.906269 134 136 147
-20.29262 -147.50859 24.944412 121 109 129
-20.088266 -147.48474 24.860643 142 138 147
-19.905546 -147.56468 24.872124 130 120 135
-19.671436 -147.49792 24.900633 141 133 136
-19.57007 -147.51714 24.867031 128 124 122
-17.050196 -147.52232 24.952049 104 104 108
-16.96804 -147.52037 24.935747 104 102 103
-16.786564 -147.43127 24.933704 116 103 109
-16.467072 -147.53839 24.954542 124 120 125
-16.301043 -147.50485 24.962343 129 125 129
-16.021976 -147.46423 24.916515 136 133 130
-15.896888 -147.48801 24.928127 124 117 117
-15.694942 -147.48915 24.916044 135 130 129
-15.513443 -147.51056 24.907408 122 123 116
-15.245869 -147.50612 24.913937 136 131 123
-15.098456 -147.48611 24.893795 128 124 116
-14.895172 -147.49364 24.905842 127 122 113
-14.700729 -147.50146 24.909939 150 136 130
-14.503474 -147.50621 24.912785 152 139 133
-14.306407 -147.47043 24.921324 135 121 117
-14.117842 -147.47018 24.874479 121 106 104
-13.913949 -147.48817 24.841719 98 97 94
-13.644501 -147.59009 24.901707 122 120 125
-13.457295 -147.47879 24.921028 108 103 102
-13.309489 -147.49057 24.885397 111 106 106
-13.106139 -147.49062 24.901325 117 110 111
-12.947719 -147.51549 24.916952 122 110 111
-12.678708 -147.53673 24.916059 102 98 97
-12.504348 -147.53709 24.914726 108 105 103
-12.340141 -147.48042 24.897236 98 99 97
-20.497837 -147.31445 24.87904 70 79 86
-20.342724 -147.28435 24.807182 111 111 121
-20.107878 -147.28339 24.887417 142 139 147
-19.890318 -147.26724 24.881519 139 135 139
-19.707672 -147.2697 24.906036 114 114 116
-19.50828 -147.29201 24.8883 104 103 104
-19.3442 -147.32263 24.902187 85 90 87
-19.078033 -147.26384 24.805496 87 89 93
-18.05006 -147.32091 24.810999 62 61 67
-17.271505 -147.23874 24.951954 63 68 69
-17.102299 -147.31085 24.974648 86 91 91
-16.967402 -147.33849 24.987652 91 96 97
-16.448593 -147.27843 24.995842 131 122 130
-16.263783 -147.29689 24.948179 117 113 119
-16.107656 -147.29376 24.932032 124 119 121
-15.926795 -147.29694 24.906738 115 112 110
-15.697508 -147.30162 24.896372 116 114 110
-15.482697 -147.26704 24.900028 130 125 120
-15.292254 -147.27989 24.895233 136 129 122
-15.098676 -147.28946 24.895964 142 137 128
-14.902435 -147.28867 24.865511 135 129 119
-14.709743 -147.30957 24.87558 159 144 134
-14.508317 -147.32501 24.958214 167 150 143
-14.284592 -147.29152 24.951347 160 136 133
-14.106093 -147.30693 24.912434 129 113 110
-13.936671 -147.2856 24.863926 100 101 97
-13.703272 -147.29277 24.918327 105 99 100
-13.470956 -147.33694 24.885887 121 115 114
-13.297086 -147.29659 24.885832 113 108 106
-13.094112 -147.28442 24.920971 122 115 115
-12.946513 -147.32213 24.932947 109 106 110
-12.450671 -147.39729 24.992414 99 100 97
-12.322611 -147.3683 24.911947 85 89 85
-12.0719 -147.34023 24.941586 82 86 85
-11.92359 -147.29346 24.966377 71 80 75
-20.630716 -147.06021 24.85006 129 124 142
-20.522392 -147.10486 24.886793 123 120 135
-20.29915 -147.11906 24.887379 110 112 122
-20.055262 -147.07996 24.880247 160 154 162
-19.932446 -147.11342 24.899382 127 125 127
-19.705202 -147.05237 24.939451 99 97 96
-19.492414 -147.09328 24.994043 82 84 83
-19.183174 -147.05273 24.893379 86 93 102
-18.95924 -147.05313 24.950993 58 68 69
-17.402359 -147.0419 24.940676 77 81 81
-17.289661 -147.11273 24.946697 84 85 88
-17.153584 -147.14114 24.975826 91 93 96
-16.926834 -147.04733 24.999229 75 76 79
-16.239244 -147.1338 24.946119 112 107 113
-16.103704 -147.11278 24.930387 131 122 127
-15.9304 -147.10129 24.913891 108 104 103
-15.705444 -147.10957 24.870029 105 103 101
-15.449564 -147.10657 24.875198 120 117 112
-15.291005 -147.10576 24.902288 151 140 135
-15.091392 -147.1212 24.923077 141 134 126
-14.905828 -147.13748 24.91935 147 138 129
-14.727373 -147.13666 24.906227 151 144 135
-14.474519 -147.14508 24.962433 129 116 108
-14.232922 -147.14386 24.97744 157 135 130
-14.071905 -147.10178 24.924078 127 119 116
-13.908123 -147.08804 24.902191 122 118 113
-13.771224 -147.09721 24.917488 98 100 96
-13.482023 -147.14044 24.959579 116 109 109
-13.304412 -147.11057 24.929165 121 115 115
-13.14338 -147.14754 24.938992 122 117 116
-12.926073 -147.14941 24.911755 119 118 118
-12.581768 -147.01393 24.928947 153 139 141
-11.678523 -147.12662 24.975763 76 79 75
-11.512998 -147.09061 24.909281 94 93 90
-11.17067 -147.01489 24.931028 104 106 102
-20.65576 -146.87912 24.945683 95 88 106
-20.494047 -146.91335 24.895063 142 134 147
-20.288626 -146.90584 24.877739 156 149 158
-20.106714 -146.91203 24.867994 149 143 147
-19.872917 -146.94893 24.870846 117 115 119
-19.697844 -146.91069 24.912817 126 121 123
-19.583385 -146.86034 24.854408 124 118 122
-19.247574 -146.85213 24.919809 78 83 90
-19.13871 -146.89445 24.887297 78 84 90
-18.917995 -146.85013 24.938305 74 82 83
-18.749935 -146.91626 24.825199 92 99 102
-16.905098 -146.92598 24.950588 91 91 93
-16.74551 -146.87978 24.882942 91 92 93
-16.256878 -146.90361 24.91692 106 100 106
-16.086683 -146.93651 24.932812 109 103 105
-15.936244 -146.92642 24.903233 99 96 93
-15.644629 -146.9231 24.865479 72 83 78
-15.478936 -146.9054 24.903069 118 117 109
-15.30655 -146.89258 24.895512 122 120 114
-15.097127 -146.87355 24.910322 117 115 108
-14.905201 -146.85631 24.937012 124 118 111
-14.720379 -146.89154 24.931961 123 121 114
-14.546284 -146.85707 24.900324 110 105 100
-14.254965 -146.85509 24.963318 133 125 119
-14.081499 -146.8896 24.934477 131 125 120
-13.907737 -146.88371 24.888737 135 127 121
-13.742768 -146.89961 24.880365 122 118 112
-13.45629 -146.94791 24.942888 133 124 126
-13.330907 -146.89508 24.887161 133 129 129
-13.123034 -146.86713 24.886215 124 122 124
-12.493205 -146.93483 24.920286 97 92 94
-11.464343 -146.89973 24.937489 84 87 81
-11.292858 -146.90196 24.875505 95 92 89
-11.062439 -146.98387 24.880472 113 114 112
-20.850803 -146.68748 24.887829 93 89 99
-20.720028 -146.68509 24.907391 81 82 90
-20.44714 -146.74858 24.908319 143 134 146
-20.365061 -146.69136 24.865959 133 131 144
-20.134233 -146.71277 24.899557 134 129 134
-19.577377 -146.76154 24.841269 125 116 120
-19.281794 -146.69864 24.902239 68 71 78
-19.190956 -146.70288 24.880482 76 80 89
-18.969673 -146.68274 24.927998 63 71 73
-18.691959 -146.6702 24.877377 78 88 85
-18.109472 -146.6862 24.802027 95 98 91
-17.332659 -146.63434 24.837244 61 67 67
-16.695164 -146.78427 24.883148 109 109 109
-16.315586 -146.71941 24.96583 85 88 91
-15.903943 -146.68011 24.913971 93 97 87
-15.462333 -146.78249 24.863501 85 94 87
-15.264152 -146.70981 24.890701 103 105 99
-15.089209 -146.7037 24.88566 124 121 113
-14.910624 -146.71153 24.925173 131 125 116
-14.686928 -146.68629 24.935772 112 110 103
-14.511637 -146.66882 24.917736 121 115 109
-14.327541 -146.71582 24.906979 131 122 115
-14.123756 -146.76093 24.951008 135 129 125
-13.886271 -146.7292 24.92127 136 127 120
-13.705688 -146.69005 24.888809 123 120 112
-13.540854 -146.68472 24.877443 107 110 104
-13.268228 -146.74719 24.892868 108 110 106
-13.112497 -146.71123 24.890713 104 107 104
-12.973029 -146.6626 24.807072 126 125 123
-12.215442 -146.7023 24.985361 117 125 124
-12.111689 -146.66873 24.931688 100 104 101
-11.94021 -146.63126 24.960464 92 96 96
-11.699549 -146.72711 24.970047 91 91 92
-11.455432 -146.70798 24.924376 78 86 81
-11.355148 -146.7114 24.933422 81 86 84
-11.136068 -146.68687 24.91127 85 88 86
-10.856059 -146.65875 24.91044 112 103 105
-20.691341 -146.4799 24.929602 102 104 110
-20.451296 -146.51981 24.878477 95 82 97
-20.286448 -146.50989 24.913002 129 122 129
-20.10465 -146.51416 24.880701 140 134 141
-19.927164 -146.46089 24.919889 118 123 130
-19.249338 -146.45221 24.884333 74 78 86
-19.118196 -146.52246 24.850424 72 74 83
-18.878952 -146.43214 24.840754 90 91 94
-18.741514 -146.49673 24.91815 65 76 72
-18.163635 -146.59077 24.843307 86 88 85
-17.471695 -146.49271 24.883354 69 74 73
-17.270035 -146.5056 24.875439 107 114 108
-16.469824 -146.45824 24.941511 111 112 117
-16.242355 -146.43527 24.911745 108 121 111
-15.936755 -146.47656 24.998316 109 116 108
-15.231614 -146.54173 24.856962 103 108 97
-15.094386 -146.51884 24.880447 128 128 118
-14.938064 -146.51779 24.935675 150 141 133
-14.681594 -146.50566 24.927532 115 112 104
-14.528271 -146.50826 24.927565 131 126 117
-14.344365 -146.51918 24.875986 137 132 124
-14.186777 -146.43602 24.964199 131 121 112
-13.847827 -146.54028 24.981413 138 126 118
-13.672681 -146.52042 24.937233 113 111 105
-13.52355 -146.48817 24.876083 107 106 102
-13.341255 -146.44225 24.848114 108 109 106
-13.070732 -146.50459 24.914375 114 113 111
-12.935945 -146.48502 24.875204 120 118 116
-12.663707 -146.50409 24.992212 145 140 146
-12.589154 -146.43536 24.950617 61 71 62
-12.272404 -146.46968 24.930023 95 97 93
-12.078794 -146.51721 24.9321 84 87 87
-11.884544 -146.51192 24.90449 86 87 88
-11.74988 -146.50978 24.905676 113 106 111
-11.460983 -146.52696 24.928576 81 82 84
-11.306792 -146.4986 24.895275 77 84 83
-11.078563 -146.52934 24.883566 76 78 77
-10.901419 -146.50583 24.911182 73 78 80
-10.763457 -146.4906 24.900953 133 128 133
-25.128601 -146.32011 24.844662 150 139 166
-24.913195 -146.35544 24.88821 173 155 181
-24.760973 -146.26929 24.845804 139 128 145
-24.378002 -146.2314 24.879642 133 129 146
-20.737619 -146.35744 24.853971 61 69 72
-20.317324 -146.34073 24.907455 142 129 138
-20.035784 -146.30673 24.906475 107 111 115
-19.925322 -146.28217 24.907761 109 112 116
-19.631882 -146.39461 24.909994 54 57 62
-19.252216 -146.35046 24.950264 73 79 87
-19.15856 -146.2869 24.926468 58 58 71
-18.883152 -146.31754 24.893116 90 94 99
-18.706293 -146.27121 24.888819 74 82 80
-16.52264 -146.22276 24.893429 93 93 99
-16.286144 -146.24324 24.865217 81 79 78
-16.173332 -146.39757 24.863634 83 93 84
-15.060842 -146.33092 24.975361 147 137 132
-14.913268 -146.32242 24.93288 149 141 135
-14.689603 -146.28275 24.941957 111 109 101
-14.495306 -146.29932 24.925932 116 116 106
-14.342065 -146.25081 24.887697 128 126 116
-13.683591 -146.36604 24.987127 141 133 128
-13.472927 -146.30724 24.934132 117 114 110
-13.323937 -146.29655 24.864052 99 101 96
-13.169782 -146.22401 24.831459 91 94 84
-12.867302 -146.32477 24.920815 106 107 106
-12.722404 -146.28836 24.883934 116 115 110
-12.509548 -146.33084 24.825048 89 92 85
-12.227268 -146.38808 24.938736 79 84 80
-12.047141 -146.26974 24.983814 111 111 111
-11.923746 -146.33922 24.952667 105 103 105
-11.668016 -146.38602 24.946817 110 105 109
-11.437199 -146.36894 24.887592 94 81 88
-11.316238 -146.28712 24.913967 93 95 95
-11.105293 -146.34581 24.908537 84 87 88
-10.895802 -146.33939 24.926044 94 97 101
-10.769411 -146.31946 24.92577 85 90 93
-25.01392 -146.12369 24.896423 154 142 170
-24.856388 -146.10379 24.882772 143 134 152
-24.730042 -146.0284 24.943832 105 99 114
-20.320007 -146.11392 24.972122 149 145 146
-20.090876 -146.08751 24.92264 128 123 130
-19.921249 -146.11658 24.896097 130 129 137
-19.77013 -146.08054 24.860432 122 122 124
-19.488255 -146.03696 24.88567 82 88 92
-19.327597 -146.08727 24.849661 73 77 80
-19.099375 -146.05991 24.915297 66 69 71
-18.8375 -146.13223 24.939421 76 87 83
-18.684923 -146.11255 24.925976 67 77 75
-18.508194 -146.05865 24.900682 77 85 82
-18.342499 -146.04396 24.888597 83 89 86
-18.055874 -146.13316 24.839411 86 90 94
-16.640579 -146.1601 24.884169 85 87 91
-16.494097 -146.15253 24.921301 100 100 105
-16.355673 -146.06021 24.893269 91 92 92
-14.662398 -146.13739 24.943567 121 116 107
-14.536533 -146.12686 24.910667 123 119 112
-14.30056 -146.12151 24.923298 112 111 104
-14.092422 -146.05843 24.919695 122 114 108
-13.771187 -146.03867 24.990433 195 174 179
-13.409446 -146.15163 24.971069 118 114 109
-13.280521 -146.09738 24.913603 104 104 99
-13.140151 -146.07928 24.86274 102 106 99
-12.713216 -146.07668 24.91221 140 129 126
-12.510742 -146.15875 24.87389 134 131 126
-11.222065 -146.19977 24.856714 87 87 85
-11.167781 -146.14337 24.87816 77 80 83
-10.997145 -146.13107 24.908566 87 83 82
-10.488441 -146.12213 24.907362 85 86 88
-10.363233 -146.00941 24.864882 60 69 68
-25.26757 -145.95805 24.867908 128 120 143
-20.054632 -145.91473 24.893747 142 131 136
-19.884161 -145.89922 24.908669 116 113 120
-19.704548 -145.89616 24.886806 98 101 105
-19.505047 -145.88728 24.907932 88 91 93
-19.346865 -145.84747 24.885792 98 100 102
-19.074646 -145.86156 24.917032 78 83 88
-18.873281 -145.8622 24.919809 63 74 75
-18.693138 -145.90594 24.914515 73 82 81
-18.515022 -145.89519 24.912521 72 81 77
-18.319956 -145.89265 24.886814 82 89 84
-18.154583 -145.95349 24.960733 69 70 72
-17.711521 -145.80795 24.962191 79 86 94
-17.472208 -145.80978 24.862705 62 69 71
-16.652575 -145.87212 24.956314 85 80 80
-16.306417 -145.95717 24.902735 69 78 72
-14.478371 -145.93146 24.914764 121 110 106
-14.365193 -145.89146 24.871788 140 131 127
-14.07461 -145.8934 24.926769 146 138 131
-13.94769 -145.86177 24.919775 138 131 123
-13.75165 -145.96655 24.974693 214 189 196
-13.423479 -145.88028 24.965893 94 97 90
-13.296443 -145.89771 24.930363 93 97 92
-13.142627 -145.92253 24.89949 87 92 87
-12.987249 -145.85306 24.915043 106 107 99
-12.725675 -145.8756 24.903706 144 137 138
-12.558208 -145.85854 24.894997 95 96 94
-23.887697 -145.66463 24.872635 171 158 188
-20.206234 -145.6089 24.84301 146 135 139
-20.061609 -145.6774 24.8666 136 131 134
-19.91836 -145.67337 24.882448 122 119 122
-19.658165 -145.69421 24.886648 96 99 101
-19.491898 -145.69865 24.916634 103 103 107
-19.352654 -145.71202 24.898212 105 107 107
-19.069914 -145.76402 24.970085 85 91 94
-18.921629 -145.74959 24.905066 64 72 72
-18.698578 -145.75681 24.905888 72 81 79
-18.483179 -145.73601 24.91094 79 86 84
-18.329195 -145.70905 24.903967 81 86 86
-18.179466 -145.68033 24.816311 80 85 81
-17.859911 -145.61526 24.901857 71 79 81
-17.700487 -145.72209 24.90801 78 83 85
-17.542675 -145.72606 24.953878 106 111 113
-17.369576 -145.71725 24.858524 99 102 105
-16.631271 -145.76474 24.95718 71 76 69
-16.558327 -145.67143 24.816216 71 75 68
-14.433159 -145.71994 24.932396 162 153 145
-14.271185 -145.67087 24.906811 111 110 105
-14.077069 -145.71451 24.923416 105 103 97
-13.896955 -145.69205 24.904491 118 113 108
-13.707846 -145.66684 24.921947 137 127 121
-13.488588 -145.6629 24.943783 131 124 119
-13.301046 -145.70473 24.902719 108 107 103
-13.142009 -145.6985 24.851322 112 112 106
-12.946345 -145.60413 24.8521 125 120 116
-12.643579 -145.73662 24.929396 108 111 109
-12.533217 -145.71375 24.887224 107 109 108
-12.242888 -145.60393 24.976273 91 96 94
-12.192944 -145.60703 24.971663 136 142 140
-11.937068 -145.63315 24.951445 77 80 78
-11.750312 -145.62692 24.828934 88 87 92
-20.22514 -145.44107 24.912714 186 166 184
-20.090714 -145.52271 24.909868 147 136 144
-19.899828 -145.51024 24.919456 126 122 127
-19.702427 -145.4944 24.908051 117 115 118
-19.5075 -145.49551 24.914295 121 120 121
-19.349983 -145.55212 24.834215 124 125 125
-18.252375 -145.58653 24.83123 87 96 96
-17.868773 -145.47464 24.931593 76 78 82
-17.707279 -145.48264 24.890636 72 79 81
-17.530249 -145.42477 24.89023 75 79 82
-17.114628 -145.43593 24.869719 108 103 111
-16.820877 -145.52989 24.834223 143 141 144
-16.60738 -145.47771 24.82798 100 90 91
-16.564493 -145.51942 24.846027 72 70 71
-14.204092 -145.52448 24.860245 109 109 102
-14.078842 -145.53691 24.900841 114 113 108
-13.896847 -145.54149 24.88113 108 104 100
-13.680535 -145.5128 24.887403 128 122 116
-13.501756 -145.4892 24.879622 125 123 118
-13.313184 -145.51335 24.870745 119 117 111
-13.140974 -145.52231 24.842766 112 112 106
-12.430602 -145.47772 24.867882 100 111 105
-12.308031 -145.48967 24.900112 85 92 89
-12.102777 -145.50471 24.928028 90 96 92
-11.92173 -145.50923 24.911928 85 93 89
-11.687475 -145.51941 24.908915 89 91 88
-11.191648 -145.42081 24.946236 97 98 93
-20.238504 -145.31169 24.88895 161 145 160
-20.11558 -145.30769 24.886551 151 135 142
-19.852402 -145.29492 24.96855 115 112 114
-19.688684 -145.34581 24.934954 126 122 126
-19.584259 -145.37047 24.873283 126 128 131
-19.291237 -145.21004 24.979465 135 138 147
-18.919601 -145.35785 24.834845 79 80 85
-18.031059 -145.21864 24.919685 130 127 130
-17.880558 -145.31033 24.953501 90 90 95
-17.681395 -145.26956 24.917536 82 83 88
-17.49474 -145.30183 24.905439 86 88 90
-17.335161 -145.28416 24.885298 99 99 104
-17.136236 -145.28587 24.912329 89 84 93
-16.911545 -145.34697 24.884315 110 110 111
-16.696306 -145.33989 24.901672 99 92 98
-14.236461 -145.39137 24.994469 90 97 90
-14.081295 -145.27612 24.873575 114 106 103
-13.862058 -145.29208 24.867634 173 158 154
-13.673249 -145.29564 24.854626 137 127 122
-13.517216 -145.33018 24.842541 118 115 112
-13.289446 -145.3085 24.819643 124 119 116
-13.051842 -145.29323 24.851271 85 90 85
-12.265366 -145.33606 24.908051 84 87 81
-12.075607 -145.36696 24.899624 90 96 95
-11.985461 -145.3696 24.846386 87 88 82
-11.632016 -145.21265 24.82959 115 109 106
-11.521057 -145.3293 24.851904 81 77 74
-11.348515 -145.3174 24.898087 111 114 114
-20.203728 -145.15329 24.9764 144 128 138
-20.096853 -145.10019 24.916782 152 137 148
-19.899973 -145.0753 24.92938 136 127 135
-19.748592 -145.07677 24.927807 137 134 137
-19.039898 -145.06979 24.903124 72 77 81
-18.911091 -145.06664 24.952211 106 110 114
-18.731392 -145.02827 24.961292 123 128 126
-17.849798 -145.17937 24.938169 99 99 107
-17.663975 -145.10783 24.890961 87 89 93
-17.505301 -145.07756 24.899403 98 97 102
-17.30974 -145.08575 24.896025 109 105 111
-17.134947 -145.07576 24.911064 89 87 91
-16.649801 -145.12001 24.909702 132 122 131
-14.418673 -145.15732 24.940247 91 88 90
-14.205783 -145.14282 24.850908 88 78 77
-14.05122 -145.06549 24.893396 125 112 107
-13.914485 -145.10281 24.871708 139 128 122
-13.670699 -145.101 24.845165 125 118 117
-13.518126 -145.0977 24.834629 123 117 115
-13.321812 -145.10625 24.851677 109 111 108
-13.131293 -145.1254 24.871765 60 72 64
-12.979448 -145.19144 24.869192 63 70 62
-12.267885 -145.03705 24.900192 98 89 94
-12.181205 -145.03688 24.86647 86 87 89
-11.862933 -145.08247 24.904978 149 138 134
-11.722358 -145.1537 24.898584 126 116 115
-11.521066 -145.15105 24.873398 132 131 129
-20.098839 -144.92662 24.928434 167 144 161
-19.895159 -144.89871 24.925323 139 129 138
-19.702911 -144.88409 24.924311 118 115 121
-19.51405 -144.85956 24.918257 116 115 120
-19.354933 -144.82664 24.889732 122 116 120
-19.021666 -144.90611 24.959972 74 81 85
-18.874046 -144.90585 24.911812 93 96 97
-18.706915 -144.87961 24.896183 108 113 112
-18.506685 -144.82999 24.941172 113 114 114
-17.477772 -144.91049 24.888102 90 91 95
-17.331255 -144.93115 24.8946 104 102 107
-17.087095 -144.93556 24.84646 103 101 105
-16.930473 -144.93576 24.856815 106 98 104
-16.726419 -144.91959 24.880873 92 87 94
-16.55942 -144.99574 24.815832 64 60 57
-14.234061 -144.9234 24.950676 160 153 145
-14.091555 -144.97336 24.822895 130 116 109
-13.893628 -144.90378 24.865398 81 90 81
-13.672892 -144.89771 24.866383 62 75 66
-13.474796 -144.94392 24.860939 92 97 90
-13.360195 -144.90414 24.867294 96 108 100
-11.880816 -144.86696 24.85157 137 128 130
-11.64265 -144.92419 24.868187 132 121 125
-11.53558 -144.97337 24.982817 143 139 138
-10.287217 -144.80069 24.996498 96 107 103
-10.084514 -144.83902 24.958485 77 83 80
-20.026035 -144.78464 24.915405 141 125 140
-19.876749 -144.7213 24.907684 128 119 128
-19.711124 -144.71968 24.918482 121 118 124
-19.497667 -144.7054 24.898304 124 119 126
-19.328028 -144.68443 24.910175 126 120 125
-19.16835 -144.64221 24.915838 157 151 157
-18.853657 -144.74036 24.916847 108 106 107
-18.707102 -144.70976 24.896938 114 115 116
-18.514669 -144.67064 24.902205 113 112 115
-18.353083 -144.65015 24.865799 117 112 116
-18.100386 -144.65903 24.889494 83 82 86
-17.887283 -144.66563 24.881569 108 107 112
-17.7019 -144.6328 24.94294 105 102 108
-17.472471 -144.70154 24.900663 108 107 110
-17.35166 -144.72269 24.858009 109 106 110
-17.122057 -144.70894 24.915405 73 83 76
-12.184892 -144.74387 24.943026 102 101 96
-11.800257 -144.62439 24.946732 100 99 97
-11.718996 -144.77486 24.92823 90 90 82
-11.587157 -144.7735 24.837036 140 135 131
-10.557685 -144.67233 24.923468 73 78 81
-10.232409 -144.78711 24.977133 91 96 92
-10.185017 -144.67928 24.964838 77 83 82
-9.9119225 -144.6748 24.869823 80 86 90
-20.006207 -144.52525 24.896687 98 95 90
-19.835941 -144.51971 24.871387 128 124 121
-19.720875 -144.52782 24.866371 108 105 104
-19.458441 -144.51187 24.860491 113 112 113
-19.271458 -144.50929 24.917282 133 124 131
-19.129248 -144.47319 24.896498 148 138 146
-18.852606 -144.4812 24.957951 114 108 115
-18.68651 -144.50768 24.921522 123 117 123
-18.497719 -144.50543 24.892021 117 111 117
-18.320467 -144.48184 24.894609 132 121 127
-18.091576 -144.51776 24.923988 126 117 125
-17.866831 -144.4973 24.918823 112 107 114
-17.699293 -144.48309 24.893034 110 104 111
-17.513607 -144.50153 24.904921 91 88 92
-17.377295 -144.48999 24.881664 75 74 77
-16.959881 -144.57474 24.94013 65 77 73
-11.858299 -144.49617 24.96937 92 94 90
-11.708532 -144.49178 24.905851 94 94 90
-11.556298 -144.44928 24.964535 77 89 79
-11.397626 -144.43484 24.987324 63 72 71
-10.581313 -144.55202 24.984795 92 95 95
-10.32018 -144.55045 24.947124 103 105 104
-10.138222 -144.5289 24.909229 78 83 84
-19.945885 -144.32242 24.81357 65 59 69
-19.4135 -144.34338 24.837059 83 85 85
-19.263142 -144.29662 24.894657 154 138 152
-19.126734 -144.2869 24.90641 157 142 151
-18.928768 -144.31844 24.890533 159 148 154
-18.660355 -144.30365 24.953737 124 118 126
-18.495108 -144.29179 24.914129 129 119 127
-18.310505 -144.2648 24.921488 120 113 119
-18.083143 -144.28383 24.907682 120 111 119
-17.906683 -144.28006 24.939964 128 116 126
-17.718319 -144.33606 24.888163 101 96 101
-17.515749 -144.3755 24.839155 83 80 85
-17.389595 -144.3875 24.850618 53 53 53
-11.651504 -144.35835 24.921698 89 97 90
-11.519957 -144.36241 24.887819 72 80 76
-11.344801 -144.2977 24.869453 76 84 85
-11.161401 -144.34898 24.937607 90 96 94
-10.338936 -144.36905 24.939516 90 96 95
-10.144448 -144.34503 24.941807 90 98 101
-19.454933 -144.18446 24.821161 59 65 63
-19.267096 -144.10829 24.880785 112 103 112
-19.098633 -144.09897 24.88843 136 125 133
-18.917055 -144.06119 24.883976 141 127 136
-18.674448 -144.10516 24.892204 128 119 128
-18.514059 -144.09618 24.888828 130 122 129
-18.320648 -144.11841 24.886499 107 103 104
-18.120564 -144.15179 24.870033 96 95 96
-17.904518 -144.14507 24.895374 100 96 99
-17.761719 -144.11507 24.913834 68 74 69
-11.444991 -144.19855 24.990055 59 70 66
-11.218154 -144.19197 24.956318 78 82 85
-10.157488 -144.13029 24.96069 111 111 111
-19.086807 -143.95515 24.853689 123 116 121
-18.929359 -143.94839 24.871119 132 120 130
-18.681679 -143.93674 24.890703 126 116 122
-18.506516 -143.92851 24.846685 109 103 104
-18.317059 -143.92944 24.86418 114 105 109
-18.067009 -143.84225 24.897955 111 109 102
-17.970053 -143.87195 24.880135 84 89 80
-18.519899 -143.77885 24.833391 98 85 99
-18.251238 -143.71227 24.876818 87 86 88
-18.143194 -143.74294 24.873346 100 96 95
-16.530182 -141.73589 24.891489 124 123 119
-16.217155 -141.47849 24.800304 180 175 169
-16.156391 -141.42255 24.80233 131 129 117
-16.172876 -141.29178 24.884247 124 122 113
-16.072474 -141.06433 24.835226 144 138 143
-15.922043 -141.14969 24.806175 88 92 91
-16.125416 -140.94093 24.821096 175 166 162
-14.547273 -140.85838 24.921511 153 144 142
-14.25774 -140.90265 24.897522 165 155 156
-14.141276 -140.86539 24.957382 158 147 143
-13.859805 -140.87086 24.933876 70 70 60
-13.689136 -140.87563 24.856415 98 100 96
-16.078478 -140.65724 24.952642 172 164 160
-15.952635 -140.65248 24.908348 134 127 122
-15.782096 -140.63452 24.989815 135 134 140
-14.653694 -140.74057 24.961979 142 126 121
-14.475202 -140.79372 24.896658 143 130 137
-14.288109 -140.72789 24.90155 146 133 135
-14.08567 -140.7065 24.869101 148 134 134
-13.953863 -140.7126 24.997496 101 98 93
-13.668376 -140.65887 24.907452 172 168 167
-16.252594 -140.47104 24.950764 185 171 169
-16.11681 -140.50804 24.894138 172 162 159
-15.89959 -140.47366 24.920277 129 127 128
-15.685692 -140.50743 24.889324 133 128 129
-15.489095 -140.45306 24.956659 117 116 119
-15.306529 -140.42575 24.928204 119 118 116
-14.605095 -140.54366 24.891422 167 148 144
-14.529264 -140.46732 24.919853 163 150 150
-14.30145 -140.50305 24.8494 157 140 143
-14.12635 -140.52728 24.917624 140 126 128
-13.504622 -140.56241 24.999285 132 127 129
-16.309324 -140.27808 24.84655 97 96 94
-16.081837 -140.28079 24.891735 171 155 154
-15.839035 -140.3493 24.920313 127 128 128
-15.718378 -140.29324 24.946854 115 112 112
-15.49774 -140.31157 24.912563 144 142 142
-15.312512 -140.31865 24.901726 119 120 121
-15.121429 -140.21478 24.9853 89 92 96
-14.5495 -140.36311 24.811457 217 193 193
-14.317154 -140.30516 24.939346 181 167 167
-14.059896 -140.38271 24.897066 131 133 129
-16.260654 -140.09077 24.924482 175 170 160
-16.133181 -140.08733 24.904932 168 157 153
-15.916327 -140.09389 24.877729 145 146 138
-15.516156 -140.13525 24.868891 146 146 143
-15.28833 -140.09001 24.883894 88 98 93
-15.142097 -140.05605 24.921526 80 80 83
-14.994831 -140.17242 24.885799 95 97 97
-16.30788 -139.92188 24.96644 177 162 158
-16.101959 -139.88254 24.884729 126 128 124
-15.512547 -139.9953 24.82357 112 109 104
-15.256319 -139.86607 24.915848 89 98 94
-15.13017 -139.88448 24.911665 106 110 112
-14.944074 -139.92017 24.855509 95 97 98
-14.167082 -139.84427 24.950117 110 109 116
-13.972629 -139.84924 24.939852 119 116 123
-16.250298 -139.7355 24.941341 148 139 140
-16.14776 -139.66957 24.910675 147 143 139
-15.450256 -139.77669 24.936754 93 102 95
-15.301822 -139.69994 24.902308 90 98 92
-15.122081 -139.72966 24.843521 98 104 101
-14.591088 -139.66385 24.942591 118 119 124
-14.284115 -139.74358 24.96891 91 96 92
-16.846861 -139.41217 24.986469 182 179 172
-16.728115 -139.42038 24.978745 102 102 94
-16.54674 -139.42705 24.955147 118 119 111
-16.27062 -139.4902 24.941311 132 129 124
-16.091419 -139.50478 24.905195 137 136 133
-15.404559 -139.57256 24.95051 86 92 88
-15.294749 -139.50258 24.940208 105 106 101
-14.395342 -139.53687 24.95775 108 106 117
-19.223452 -139.21001 24.803255 167 148 143
-19.103233 -139.21982 24.883339 129 121 117
-16.881006 -139.27847 24.916376 146 144 138
-16.716391 -139.30145 24.896759 134 136 127
-16.523331 -139.30794 24.910622 131 130 124
-16.308819 -139.29594 24.925793 116 115 113
-16.126949 -139.28601 24.937666 109 106 110
-15.92541 -139.27359 24.966589 97 95 101
-19.635548 -139.00708 24.880486 150 142 135
-19.525883 -139.06889 24.821255 177 170 159
-19.268188 -139.06612 24.855186 208 184 182
-19.09363 -139.08527 24.862782 164 151 148
-18.960564 -139.09236 24.888901 111 106 104
-17.02467 -139.10625 24.931053 151 144 138
-16.907387 -139.12848 24.901918 163 158 150
-16.693724 -139.09769 24.925295 138 141 135
-16.460472 -139.09807 24.929764 86 89 86
-16.264872 -139.12279 24.949026 98 96 94
-16.123831 -139.10384 24.91045 132 126 128
-15.904376 -139.15361 24.907377 135 127 129
-15.690884 -139.10109 24.91033 101 99 101
-15.510664 -139.09229 24.94105 105 105 102
-15.27778 -139.14285 24.919062 115 110 114
-19.81979 -138.85071 24.89418 202 179 185
-19.735239 -138.8716 24.912222 160 148 146
-19.555199 -138.94753 24.837158 164 157 149
-19.232328 -138.91093 24.884035 221 193 193
-19.120182 -138.92377 24.924986 202 175 175
-18.936932 -138.88199 24.910288 160 146 143
-17.022163 -138.85974 24.99404 223 208 213
-16.892477 -138.90536 24.9366 188 177 177
-16.640066 -138.93521 24.908377 117 122 118
-16.485893 -138.9241 24.916477 108 112 110
-16.291325 -138.90216 24.869457 109 105 111
-16.101654 -138.99782 24.882996 116 106 114
-19.887318 -138.7074 24.882765 142 130 130
-19.714739 -138.70345 24.894182 159 151 151
-19.233366 -138.70488 24.862635 193 174 173
-19.107014 -138.67099 24.909885 197 174 175
-18.897753 -138.69598 24.864946 162 146 142
-18.697704 -138.61015 24.838955 152 142 146
-18.597551 -138.62556 24.816359 133 136 143
-17.034483 -138.71913 24.897383 182 173 178
-16.894772 -138.77956 24.921253 172 164 161
-16.571434 -138.78238 24.840815 98 108 102
-19.888151 -138.55293 24.831249 143 133 128
-19.722477 -138.5511 24.830761 166 156 154
-19.072403 -138.5078 24.914234 180 164 163
-18.906773 -138.51648 24.903271 180 160 165
-18.680559 -138.46609 24.903776 132 127 129
-18.551165 -138.48262 24.850164 139 133 138
-17.071909 -138.54855 24.906742 166 162 161
-19.531088 -138.29347 24.858122 109 111 109
-19.123884 -138.32597 24.836699 153 146 143
-18.917675 -138.32277 24.846977 111 111 113
-18.726551 -138.33392 24.874527 113 114 114
-18.550823 -138.36444 24.867414 116 118 119
-17.046759 -138.33885 24.869406 162 154 155
-16.916756 -138.28152 24.877804 177 167 169
-16.859398 -138.17593 24.954323 137 135 131
-19.677254 -137.97124 24.826059 115 115 113
-16.841375 -137.93121 24.980169 172 170 170
-16.775517 -137.89983 24.871958 166 167 165
-19.357878 -137.60097 24.894945 138 134 133
-17.363295 -137.43336 24.933722 73 72 77
-13.675812 -149.25101 25.049767 118 105 107
-13.077654 -149.32532 25.010983 128 122 120
-17.950388 -149.05574 25.067236 178 164 177
-13.433831 -149.08359 25.035366 120 118 119
-13.260779 -149.05812 25.060446 145 139 138
-13.100224 -149.08185 25.014511 132 135 132
-18.438341 -148.82727 25.122934 153 141 146
-18.280474 -148.83168 25.081308 148 138 143
-18.116465 -148.82349 25.086187 143 136 135
-17.877161 -148.83716 25.092573 147 137 140
-17.716047 -148.8235 25.091932 130 126 121
-17.454241 -148.82938 25.041035 144 136 133
-17.328901 -148.83765 25.088789 135 129 130
-15.551122 -148.83116 25.033852 160 141 134
-15.324564 -148.81519 25.022686 193 174 169
-13.438194 -148.90999 25.042999 147 142 139
-13.29856 -148.92545 25.035774 133 128 126
-13.12486 -148.91862 25.074675 115 112 111
-18.834234 -148.65916 25.080791 116 109 127
-18.667206 -148.68048 25.130527 158 147 151
-18.516626 -148.72942 25.091026 149 133 142
-18.315193 -148.75179 25.10383 164 144 153
-18.069828 -148.73338 25.136946 143 134 142
-17.906614 -148.67221 25.104059 137 132 135
-17.687559 -148.6875 25.101213 139 135 134
-17.505741 -148.69044 25.100779 143 133 136
-17.302702 -148.67545 25.092896 143 133 141
-17.146048 -148.67018 25.072058 88 88 88
-15.673424 -148.65176 25.021446 170 148 140
-15.460955 -148.67509 25.083714 170 150 145
-15.315873 -148.70312 25.057255 179 158 155
-15.155145 -148.68219 25.02272 165 148 146
-13.103209 -148.69826 25.074314 99 99 100
-19.660585 -148.4093 25.195688 163 143 155
-19.421597 -148.43713 25.044651 133 125 132
-19.28463 -148.43977 25.108057 129 125 132
-19.149818 -148.42767 25.066212 128 124 130
-18.897015 -148.43643 25.102814 160 142 158
-18.732836 -148.52219 25.104147 146 136 139
-18.541286 -148.59209 25.14163 150 134 144
-17.864347 -148.49394 25.0898 119 112 117
-17.686245 -148.47357 25.090744 125 121 128
-17.479342 -148.50404 25.086798 131 126 130
-17.30509 -148.50056 25.087313 131 125 130
-17.163589 -148.50327 25.074627 131 127 133
-15.422386 -148.5137 25.010696 154 137 127
-15.288667 -148.4807 25.036665 178 157 151
-15.154938 -148.52162 25.041546 149 134 130
-13.077131 -148.48763 25.07476 103 98 98
-12.936264 -148.45715 25.066753 64 73 69
-19.805603 -148.25198 25.065912 97 93 114
-19.658609 -148.28403 25.067783 161 146 160
-19.501093 -148.30023 25.121391 140 130 140
-19.288782 -148.28654 25.110929 123 120 126
-19.120667 -148.28032 25.095957 127 121 127
-18.873259 -148.28413 25.109364 137 125 133
-18.753187 -148.36989 25.050407 143 130 134
-17.63938 -148.30319 25.125086 113 110 114
-17.496807 -148.29391 25.108006 106 105 107
-17.303644 -148.32262 25.084557 113 111 114
-17.159389 -148.29747 25.064329 108 107 110
-15.31897 -148.30231 25.044958 144 133 124
-15.138008 -148.34752 25.005875 140 131 124
-13.037916 -148.37024 25.036972 119 108 106
-12.921034 -148.32944 25.02338 66 72 70
-12.433737 -148.25781 25.062237 154 145 147
-12.346404 -148.35245 25.118378 91 82 84
-19.685501 -148.108 25.096081 140 130 136
-19.570383 -148.08495 25.126995 151 140 149
-19.282228 -148.14995 25.142588 114 113 118
-19.125481 -148.11903 25.14152 112 111 112
-18.910616 -148.09607 25.122683 118 113 115
-18.776657 -148.11996 25.065418 106 105 102
-17.654778 -148.08698 25.130339 105 102 105
-17.501236 -148.12114 25.107315 114 113 114
-17.276386 -148.0934 25.101654 127 122 126
-17.121695 -148.09012 25.080343 128 123 128
-16.910582 -148.08972 25.096291 148 140 145
-16.726109 -148.06705 25.052959 132 129 134
-16.518147 -148.03879 25.067076 117 117 115
-16.350143 -148.06271 25.048622 99 97 93
-15.349289 -148.18343 25.080584 159 156 147
-14.689797 -148.06795 25.143251 138 124 123
-14.510786 -148.01837 25.172146 129 114 114
-22.491238 -147.91736 25.056623 105 108 123
-22.314772 -147.91924 25.029394 107 104 123
-20.194035 -147.93179 25.168852 77 71 97
-19.835648 -147.83434 25.045994 129 132 141
-19.695526 -147.9055 25.118519 141 133 138
-19.55792 -147.93713 25.14777 151 139 146
-19.245848 -147.96902 25.168739 102 101 104
-19.110003 -147.93056 25.124395 109 110 114
-18.929743 -147.94359 25.133316 91 90 88
-18.77252 -147.96535 25.07226 83 84 82
-17.652191 -147.99205 25.176128 146 138 145
-17.530552 -147.94563 25.063663 131 124 123
-17.270449 -147.91908 25.120108 110 108 111
-17.113543 -147.91725 25.079727 122 118 123
-16.872227 -147.84912 25.087658 132 128 131
-16.682329 -147.8931 25.069845 127 125 127
-16.539272 -147.92328 25.10713 123 122 119
-16.303696 -147.84464 25.078268 139 131 132
-16.107231 -147.84048 25.090006 140 134 135
-15.098167 -147.91191 25.04155 125 124 119
-14.710318 -147.90671 25.134022 133 117 114
-14.523995 -147.89635 25.110748 139 123 120
-14.283734 -147.83759 25.022272 149 133 133
-13.892076 -147.94586 25.081367 90 81 86
-13.460493 -147.80362 25.003815 74 73 69
-13.073828 -147.89085 25.07193 117 108 109
-12.920557 -147.85956 25.039436 115 110 113
-12.7054 -147.82706 25.079685 96 95 93
-12.558776 -147.85506 25.063242 113 115 112
-22.164963 -147.74416 25.115709 138 128 155
-19.911055 -147.72293 25.076656 139 128 145
-19.698574 -147.69695 25.108835 138 133 136
-19.588711 -147.74776 25.169193 196 183 192
-18.841162 -147.61331 25.16511 135 130 136
-17.253036 -147.69664 25.090918 110 107 112
-17.119061 -147.66531 25.08839 107 106 109
-16.882898 -147.69081 25.104126 134 126 132
-16.704784 -147.69496 25.101307 135 129 134
-16.508528 -147.685 25.064493 126 124 127
-16.283403 -147.69225 25.073753 141 133 135
-16.117931 -147.68692 25.096622 141 127 131
-15.914156 -147.6991 25.075794 118 112 112
-15.72016 -147.6329 25.067434 128 124 120
-15.574446 -147.6451 25.038755 177 174 167
-15.294215 -147.72696 25.065535 163 153 145
-15.116833 -147.70935 25.133448 145 134 130
-14.867868 -147.68025 25.110962 156 145 140
-14.705159 -147.6781 25.084036 145 128 123
-14.490982 -147.68504 25.056261 151 132 130
-14.316281 -147.65819 25.065889 147 128 129
-14.177375 -147.63922 25.00366 73 75 73
-13.694156 -147.70129 25.038605 120 120 120
-13.551033 -147.69406 25.016531 115 112 114
-13.242687 -147.70749 25.052542 103 99 102
-13.093102 -147.68924 25.080488 117 107 110
-12.905049 -147.67421 25.060293 99 94 94
-12.656152 -147.70569 25.131647 113 108 106
-12.516607 -147.69131 25.05607 115 111 109
-12.386011 -147.62668 25.007086 80 80 80
-21.797224 -147.58566 25.0564 110 102 123
-20.176121 -147.46948 25.041912 140 131 146
-19.892452 -147.51599 25.079159 179 163 179
-19.682381 -147.52785 25.107948 131 128 130
-19.538578 -147.42783 25.106798 78 80 82
-19.375944 -147.4097 25.007427 64 71 63
-17.325724 -147.40494 25.147099 104 104 106
-17.083885 -147.4902 25.105145 105 106 110
-16.911045 -147.51299 25.125166 119 112 118
-16.668646 -147.58308 25.161926 138 127 136
-16.504639 -147.50372 25.107906 122 120 125
-16.288549 -147.50529 25.078993 129 125 128
-16.118622 -147.49074 25.095139 139 129 132
-15.900455 -147.49319 25.11504 120 115 115
-15.732086 -147.5106 25.115566 123 122 117
-15.500035 -147.48698 25.085421 142 140 135
-15.307093 -147.50636 25.078636 143 137 131
-15.099811 -147.48955 25.079262 124 120 114
-14.881984 -147.49727 25.088961 155 143 137
-14.692241 -147.49754 25.101187 144 131 125
-14.498199 -147.48965 25.074125 148 133 128
-14.328623 -147.48328 25.073376 159 140 137
-14.126458 -147.46909 25.058716 131 123 118
-13.708481 -147.48897 25.124722 166 160 160
-13.496557 -147.50217 25.045368 114 111 110
-13.281981 -147.45995 25.094336 105 101 103
-13.086639 -147.48729 25.064304 120 113 116
-12.902562 -147.49965 25.098494 116 109 110
-12.713109 -147.51338 25.098516 109 105 103
-12.513063 -147.50868 25.082304 101 99 98
-12.307939 -147.48189 25.083395 87 88 87
-12.144226 -147.44252 25.067739 98 100 101
-11.609907 -147.51714 25.119162 87 97 88
-20.047939 -147.3152 25.067184 141 133 149
-19.863766 -147.26477 25.086533 114 112 114
-19.694633 -147.27927 25.076546 112 109 111
-19.526979 -147.32086 25.103951 97 99 96
-19.297972 -147.32249 25.102774 126 123 125
-19.166176 -147.34364 25.017628 111 111 113
-17.269131 -147.27994 25.139599 74 79 80
-17.102657 -147.29301 25.090788 89 93 94
-16.95717 -147.31062 25.138369 105 107 110
-16.66571 -147.2766 25.153913 97 98 102
-16.500727 -147.28995 25.113783 114 111 117
-16.323132 -147.31421 25.075901 115 113 117
-16.093422 -147.31772 25.061214 116 111 113
-15.945687 -147.33452 25.055054 106 103 103
-15.698636 -147.37216 25.092373 118 117 113
-15.490904 -147.31918 25.083103 132 126 122
-15.288691 -147.28984 25.079754 151 140 136
-15.115066 -147.29689 25.093222 137 129 123
-14.884326 -147.28767 25.11503 163 150 142
-14.696872 -147.30067 25.133678 170 151 142
-14.500297 -147.31038 25.116348 156 139 133
-14.299453 -147.29587 25.071218 154 135 131
-14.123542 -147.27863 25.071537 135 128 124
-13.945587 -147.35127 25.05201 100 103 98
-13.710861 -147.31757 25.126122 120 104 112
-13.47747 -147.25357 25.09239 109 103 101
-13.312948 -147.28729 25.095198 110 105 105
-13.105868 -147.29709 25.086018 127 122 123
-12.949042 -147.342 25.067686 124 120 123
-12.624619 -147.35516 25.15349 102 100 95
-12.497413 -147.349 25.149128 97 96 93
-12.314577 -147.35162 25.08905 84 85 81
-12.120766 -147.30679 25.127293 88 93 89
-11.915806 -147.31386 25.105011 82 85 83
-11.787202 -147.21725 25.10721 78 80 79
-20.240723 -147.03996 25.053383 129 129 147
-20.1084 -147.06844 25.114014 153 147 157
-19.89938 -147.14745 25.090424 121 119 121
-19.71183 -147.10207 25.118214 122 121 121
-19.589241 -147.06241 25.118542 132 128 130
-19.130951 -147.05486 25.126728 65 72 78
-17.464899 -147.07382 25.078402 56 60 61
-17.274454 -147.10121 25.092745 77 78 80
-17.089577 -147.10132 25.11554 89 91 93
-16.911261 -147.08002 25.125769 85 85 89
-16.69986 -147.11292 25.158133 116 114 118
-16.477955 -147.1794 25.152514 136 127 137
-16.286503 -147.11909 25.093365 118 113 119
-16.107141 -147.08936 25.072737 111 108 109
-15.948224 -147.11768 25.044531 103 100 101
-15.446824 -147.09827 25.104633 143 138 130
-15.294337 -147.09375 25.079975 150 139 133
-15.106647 -147.09602 25.086611 154 143 136
-14.912065 -147.0905 25.116587 155 142 135
-14.717751 -147.11171 25.121992 153 142 134
-14.504447 -147.11018 25.121687 150 137 129
-14.292103 -147.11105 25.105745 147 134 129
-14.12479 -147.09229 25.063251 117 111 107
-13.95277 -147.06909 25.038855 135 128 123
-13.446642 -147.06172 25.101025 131 123 123
-13.312182 -147.10112 25.084925 126 121 120
-13.141004 -147.12811 25.088507 113 112 110
-12.939623 -147.16635 25.025433 106 106 111
-12.672989 -147.03017 25.101822 132 127 129
-12.374211 -147.00667 25.194391 127 126 131
-11.847936 -147.13751 25.118813 70 76 72
-11.730444 -147.09143 25.095087 94 94 90
-11.565357 -147.07568 25.08437 128 121 119
-20.610363 -146.92499 25.018391 136 131 153
-20.461639 -146.8602 25.127394 136 132 151
-20.314936 -146.89496 25.118055 133 130 145
-20.139826 -146.88542 25.070417 131 128 130
-19.701166 -146.95602 25.084534 113 110 112
-19.267029 -146.80075 25.129522 73 74 80
-19.098816 -146.92642 25.128139 72 79 81
-18.934662 -146.85999 25.109198 74 81 84
-18.523693 -146.89124 25.168259 90 81 86
-17.608351 -146.83385 25.117466 87 87 89
-17.488611 -146.90785 25.142954 79 81 79
-17.307125 -146.92448 25.153975 90 91 91
