ply
format ascii 1.0
comment PCL generated
element vertex 1088
property float x
property float y
property float z
property uchar red
property uchar green
property uchar blue
element face 0
element camera 0
property float view_px
property float view_py
property float view_pz
property float x_axisx
property float x_axisy
property float x_axisz
property float y_axisx
property float y_axisy
property float y_axisz
property float z_axisx
property float z_axisy
property float z_axisz
property float focal
property float scalex
property float scaley
property float centerx
property float centery
property int viewportx
property int viewporty
property float k1
property float k2
end_header
-30.938803 -151.69366 24.880037 119 124 120
-30.764399 -151.76364 24.900021 127 131 134
-32.128841 -151.55135 24.805374 165 160 154
-31.876404 -151.49463 24.919167 136 142 133
-31.688244 -151.47922 24.892063 106 114 106
-31.529982 -151.50887 24.872723 100 110 103
-31.265682 -151.50009 24.866272 119 125 123
-31.105497 -151.52753 24.881069 145 145 145
-30.923841 -151.49756 24.926758 136 139 139
-30.032715 -151.45506 24.952385 115 121 121
-32.100006 -151.22673 24.80711 146 154 146
-31.901012 -151.33678 24.893564 116 122 119
-31.687618 -151.33894 24.918715 125 129 124
-31.48436 -151.29741 24.95257 108 116 108
-31.224722 -151.35143 24.864325 114 120 121
-31.122093 -151.35025 24.905054 108 112 115
-30.990215 -151.37616 24.830524 134 143 138
-29.570839 -151.23715 24.833029 126 128 121
-32.441956 -151.06404 24.80254 141 126 129
-32.092754 -151.12248 24.856077 138 142 136
-31.94335 -151.16043 24.876863 113 118 115
-32.489548 -150.83543 24.881054 203 181 178
-32.308247 -150.92038 24.859877 153 150 141
-32.165768 -150.91199 24.887894 128 128 125
-32.450394 -150.75177 24.815342 193 184 175
-32.328197 -150.71838 24.846695 115 112 109
-31.483198 -150.47992 24.843437 164 151 162
-31.498709 -150.2507 24.8594 176 164 176
-31.291685 -150.27895 24.852848 141 134 145
-31.112097 -150.24142 24.832302 149 139 151
-30.916716 -150.20164 24.855145 197 182 194
-30.65975 -150.34018 24.940056 149 148 159
-30.530067 -150.30292 24.948112 127 120 130
-29.759436 -150.26549 24.828176 174 173 178
-32.850128 -150.07101 24.835997 131 119 133
-32.780376 -150.07767 24.992279 140 128 140
-31.504967 -150.0775 24.863167 165 156 165
-31.290306 -150.10687 24.874313 172 164 171
-31.087109 -150.09427 24.878317 178 169 177
-30.896343 -150.09024 24.892019 169 160 170
-30.773663 -150.02911 24.908978 158 154 165
-30.484207 -150.15593 24.955217 123 120 127
-30.377029 -150.02513 24.970423 129 127 130
-22.646009 -150.08971 24.85533 75 82 75
-32.851177 -149.89249 24.887604 127 119 133
-32.751968 -149.9565 24.937359 98 92 109
-32.469971 -149.91006 24.85948 188 172 190
-32.273628 -149.86397 24.909872 167 157 171
-32.109558 -149.89699 24.901979 164 153 165
-31.959326 -149.8934 24.98325 99 97 101
-31.654327 -149.90236 24.939062 181 182 187
-31.454472 -149.90921 24.87841 168 160 166
-31.298216 -149.91238 24.903681 148 142 147
-31.105682 -149.9386 24.938694 158 152 158
-30.897999 -149.92061 24.893021 162 156 161
-30.493929 -149.90361 24.926569 117 118 120
-30.343746 -149.93117 24.924557 118 119 121
-29.253687 -149.88037 24.834206 180 167 180
-32.99831 -149.65033 24.916393 132 130 133
-32.238075 -149.72032 24.881996 135 134 139
-32.143867 -149.69572 24.895439 129 128 133
-31.897083 -149.66742 24.894701 149 139 149
-31.675556 -149.74327 24.815403 131 131 136
-31.507425 -149.72133 24.901209 163 153 162
-30.888222 -149.69447 24.899424 140 139 138
-30.682159 -149.68909 24.892868 102 104 106
-30.557116 -149.63127 24.858566 103 102 105
-32.239544 -149.54257 24.942402 123 123 126
-32.063732 -149.52788 24.94219 138 139 143
-31.900503 -149.49559 24.911251 148 144 151
-31.726938 -149.54271 24.887196 135 128 138
-31.443087 -149.4733 24.913097 101 102 108
-31.036266 -149.43864 24.889391 113 115 114
-30.914444 -149.5088 24.900944 124 124 122
-30.422184 -149.56265 24.912718 136 130 136
-30.287895 -149.51433 24.903204 138 134 139
-30.152147 -149.52066 24.864933 142 140 149
-29.358612 -149.48633 24.869865 136 134 141
-33.487827 -149.23734 24.872271 155 155 172
-32.847519 -149.21008 24.853699 96 98 101
-32.7187 -149.2625 24.984947 104 104 109
-32.535164 -149.2776 24.830269 108 109 113
-32.335884 -149.37679 24.912338 100 103 105
-31.856747 -149.35637 24.891705 147 144 154
-31.687212 -149.32045 24.890097 138 135 142
-31.501049 -149.30556 24.902639 140 138 143
-31.331419 -149.30917 24.946583 138 142 143
-31.068129 -149.31618 24.923765 118 124 118
-30.884773 -149.31413 24.921106 135 134 133
-30.744722 -149.27966 24.903435 137 136 135
-30.507225 -149.23279 24.862785 122 123 126
-30.33606 -149.21831 24.905462 99 101 103
-30.124781 -149.3284 24.88987 118 116 120
-29.964602 -149.26338 24.926809 114 112 118
-29.721481 -149.28546 24.823643 82 82 87
-33.644409 -149.02538 24.88512 148 142 161
-33.159943 -149.05124 24.981506 132 135 143
-32.870502 -149.09923 24.943333 106 107 113
-32.799744 -149.15547 24.940102 78 79 83
-31.703905 -149.13596 24.913153 114 112 120
-31.454199 -149.06447 24.926044 109 113 114
-31.297726 -149.09613 24.900112 105 111 108
-31.102804 -149.08923 24.885561 103 108 107
-30.898932 -149.10794 24.912594 127 130 126
-30.719488 -149.09656 24.880486 129 130 127
-30.488184 -149.11238 24.892157 111 113 115
-30.263565 -149.1097 24.862289 98 100 103
-30.124662 -149.14732 24.883785 105 104 108
-29.939219 -149.03015 24.850578 107 108 113
-29.726765 -149.19563 24.821112 92 90 91
-23.430696 -149.0406 24.850168 188 178 181
-23.278511 -149.03427 24.885872 159 156 160
-23.072332 -149.05983 24.863661 179 169 174
-22.904167 -149.05096 24.910824 177 164 172
-22.72868 -149.05536 24.86367 167 158 162
-22.555023 -149.0432 24.880558 147 144 143
-33.446167 -148.91745 24.847103 123 125 135
-33.272427 -148.90649 24.936745 113 113 126
-33.043423 -148.83904 24.928686 109 112 122
-32.909927 -148.82968 24.937885 81 86 90
-32.679802 -148.93915 24.931997 117 117 119
-32.547897 -148.99031 24.930153 98 97 102
-31.478001 -148.87704 24.922712 111 114 113
-31.309845 -148.91039 24.867949 98 106 104
-31.112585 -148.9088 24.893337 112 119 118
-30.90284 -148.90141 24.889929 124 127 125
-30.730873 -148.89418 24.893318 134 130 129
-30.512093 -148.91446 24.918568 101 103 105
-30.310354 -148.86415 24.93202 93 97 99
-30.087317 -148.92796 24.846846 116 118 124
-29.934448 -148.89072 24.907248 107 110 114
-23.623077 -148.83105 24.960098 165 161 166
-23.472807 -148.86044 24.888941 177 168 173
-23.292301 -148.90413 24.894411 166 159 166
-23.107737 -148.89322 24.879141 164 158 161
-22.904928 -148.9014 24.886087 168 161 165
-22.702463 -148.90463 24.906418 165 158 162
-22.496208 -148.89119 24.863396 166 161 163
-22.303564 -148.8532 24.863297 164 155 159
-22.064426 -148.84433 24.837204 169 158 165
-21.881851 -148.82773 24.846142 167 158 166
-21.704535 -148.8479 24.858242 144 136 142
-18.546373 -148.8976 24.995472 118 116 111
-33.382675 -148.78632 24.884275 118 118 126
-33.083115 -148.71695 24.945007 119 121 130
-32.918953 -148.74426 24.898609 82 82 89
-31.601591 -148.63716 24.877272 98 98 98
-31.483242 -148.68332 24.880041 143 134 131
-31.284575 -148.70326 24.882179 126 124 120
-31.116333 -148.67834 24.880735 125 125 121
-30.872082 -148.71971 24.875051 102 107 108
-30.659109 -148.73599 24.883575 101 101 105
-30.486307 -148.69728 24.866188 104 107 113
-30.276407 -148.66299 24.878126 106 108 112
-30.115383 -148.68901 24.86627 102 106 110
-29.972878 -148.65646 24.901503 139 137 141
-23.63979 -148.72888 24.895781 171 164 167
-23.508595 -148.69519 24.90295 174 165 170
-23.296156 -148.70561 24.937803 164 157 161
-23.09255 -148.70168 24.891794 146 144 144
-22.893646 -148.70235 24.875458 151 149 148
-22.731129 -148.7198 24.866621 143 143 141
-22.433123 -148.74825 24.870996 175 167 173
-22.297535 -148.69791 24.871601 177 166 170
-22.086679 -148.69482 24.881922 180 167 176
-21.910561 -148.69212 24.887606 170 160 167
-21.728811 -148.69322 24.846565 162 154 160
-21.570238 -148.66734 24.866325 152 144 150
-19.011509 -148.71967 24.992037 147 135 139
-34.04882 -148.43835 24.942917 141 132 149
-33.911167 -148.53235 24.904819 132 121 127
-32.834053 -148.5992 24.83556 144 135 145
-32.695621 -148.55135 24.927044 118 119 126
-32.538498 -148.48599 24.982998 86 87 92
-31.224922 -148.51456 24.967768 109 108 107
-31.097576 -148.50453 24.904856 106 106 105
-30.898397 -148.4978 24.911505 97 101 102
-30.708258 -148.4935 24.892185 137 132 140
-30.488422 -148.5139 24.896589 102 104 111
-30.303549 -148.51295 24.905504 99 102 105
-30.106033 -148.51332 24.838652 97 101 105
-23.607838 -148.5274 24.859543 198 201 210
-23.460852 -148.51454 24.896347 166 159 163
-23.312109 -148.49712 24.921003 162 155 159
-23.091858 -148.50244 24.906061 154 149 150
-22.902025 -148.49355 24.898447 156 152 150
-22.735676 -148.47728 24.854731 145 144 141
-22.497702 -148.49564 24.845884 161 154 157
-22.282166 -148.53484 24.871782 155 150 154
-22.094763 -148.51099 24.885689 168 158 166
-21.903502 -148.50601 24.876564 154 147 152
-21.758467 -148.52483 24.855465 145 137 142
-20.474121 -148.47005 24.898502 165 149 154
-20.349781 -148.44507 24.877254 161 147 153
-20.160633 -148.52948 24.843388 150 147 152
-19.496649 -148.50565 24.990051 179 172 178
-19.314178 -148.49229 24.967398 176 168 172
-19.087139 -148.53439 24.970762 158 155 160
-34.100185 -148.38721 24.890305 87 79 97
-31.25869 -148.23145 24.84827 158 146 148
-31.140894 -148.36424 24.892155 99 97 104
-30.836361 -148.28746 24.897655 145 137 140
-30.737371 -148.32559 24.922258 178 167 170
-30.487082 -148.33731 24.89373 148 139 145
-30.329668 -148.27226 24.931787 179 161 168
-30.118353 -148.23663 24.925064 139 125 142
-25.651054 -148.23967 24.800062 164 150 158
-23.440451 -148.30939 24.927263 149 149 153
-23.295626 -148.2886 24.890322 158 151 155
-23.097414 -148.29343 24.888348 151 146 148
-22.894318 -148.2998 24.909342 169 158 161
-22.703568 -148.3295 24.918869 168 159 160
-22.502686 -148.29312 24.877716 148 142 144
-22.31361 -148.28528 24.851824 144 142 142
-22.08695 -148.31958 24.8577 138 134 139
-21.936829 -148.3465 24.859543 140 138 142
-20.489555 -148.32977 24.866859 164 153 157
-20.344002 -148.35683 24.892221 149 138 141
-20.17511 -148.31862 24.875809 123 118 122
-19.625092 -148.35179 24.962704 171 158 159
-19.558729 -148.2785 24.96578 142 134 138
-31.762177 -148.13577 24.879532 96 101 103
-31.527138 -148.0981 24.884918 75 77 85
-31.056822 -148.0618 24.900093 111 110 110
-30.891726 -148.07336 24.893 130 128 127
-30.788158 -148.1377 24.991623 114 116 115
-30.33971 -148.14519 24.892097 155 147 148
-30.119879 -148.12895 24.878773 145 138 146
-25.907398 -148.08977 24.813305 143 135 143
-25.701363 -148.0822 24.855604 140 128 141
-25.491457 -148.05167 24.890963 162 154 165
-25.310278 -148.02667 24.846655 148 139 147
-24.920279 -148.00536 24.812937 136 127 125
-23.43675 -148.13898 24.802357 137 139 142
-23.280993 -148.11554 24.893246 166 158 163
-23.102592 -148.09789 24.881706 153 146 149
-22.902054 -148.09865 24.882572 156 147 150
-22.704063 -148.09351 24.922352 170 161 166
-22.49312 -148.10144 24.939035 161 153 157
-22.310596 -148.09666 24.896999 151 145 149
-22.156876 -148.04584 24.836504 132 129 135
-20.492966 -148.07927 24.872894 159 150 151
-19.71328 -148.05701 24.95989 132 130 132
-19.587889 -148.12692 24.990307 145 133 143
-33.104668 -147.83359 24.945549 85 92 96
-32.904076 -147.89893 24.924545 92 96 101
-32.745903 -147.93329 24.878019 95 98 104
-31.852467 -147.96428 24.916542 83 89 95
-31.686035 -147.88165 24.938583 89 94 93
-31.534521 -147.83043 24.955397 113 118 116
-31.200361 -147.81319 24.815386 93 96 101
-31.064407 -147.86465 24.842342 121 122 124
-30.930218 -147.8985 24.873425 113 114 116
-30.70302 -147.86308 24.918921 119 122 124
-30.505808 -147.85858 24.943901 113 116 117
-30.2789 -147.87918 24.928986 134 128 130
-30.129833 -147.89897 24.911623 133 129 133
-25.90634 -147.89046 24.808403 173 162 178
-25.696667 -147.89835 24.848572 155 143 156
-25.469982 -147.88417 24.831207 154 145 154
-25.301662 -147.84521 24.842047 165 156 163
-25.1429 -147.91289 24.82712 166 160 164
-24.884266 -147.97832 24.822155 140 139 134
-23.263014 -147.9565 24.853086 152 152 156
-23.087793 -147.92665 24.879122 153 150 155
-22.938065 -147.95151 24.883368 148 144 146
-22.670959 -147.9482 24.859753 149 145 145
-22.500509 -147.95773 24.872087 150 145 149
-22.322775 -147.95889 24.870924 140 136 138
-22.081457 -147.89589 24.863491 142 141 146
-21.95797 -147.92786 24.840334 137 135 140
-20.08605 -147.84399 24.977066 163 156 163
-19.914875 -147.86087 24.96011 149 148 148
-19.681349 -147.90068 24.959429 125 125 124
-19.505356 -147.86748 24.98312 139 139 141
-33.109962 -147.70837 24.862225 93 96 100
-32.904125 -147.6855 24.941587 119 124 128
-32.649925 -147.77887 24.878309 86 90 94
-32.161747 -147.64058 24.987379 77 84 90
-31.823109 -147.68558 24.873276 107 112 113
-31.686852 -147.70035 24.904547 96 103 104
-31.531931 -147.66182 24.957802 103 108 109
-31.248825 -147.67931 24.863432 103 107 112
-31.087442 -147.69586 24.894558 105 108 109
-30.853497 -147.75871 24.929546 142 135 139
-30.689655 -147.73419 24.889929 121 123 125
-30.493904 -147.70412 24.897968 132 131 133
-30.293905 -147.71397 24.898155 134 131 131
-30.109537 -147.68729 24.905407 121 123 128
-29.923899 -147.6956 24.911598 124 122 132
-26.070629 -147.65573 24.868399 111 103 109
-25.831589 -147.69316 24.823572 171 164 176
-25.717936 -147.73138 24.845264 156 150 162
-25.459677 -147.72121 24.838877 163 156 167
-25.324522 -147.71739 24.863657 154 149 157
-25.102112 -147.72032 24.841827 160 152 159
-24.886097 -147.72423 24.828272 146 139 147
-22.216896 -147.72649 24.871613 142 142 140
-22.155355 -147.68689 24.848251 170 171 174
-20.214325 -147.69284 24.973827 163 155 162
-20.134279 -147.70274 24.928223 167 157 164
-19.868664 -147.77182 24.961906 135 134 134
-19.664885 -147.72884 24.986698 140 137 144
-32.963509 -147.53964 24.908707 127 124 126
-32.783756 -147.51065 24.842438 96 97 102
-32.091114 -147.53818 24.872253 105 104 107
-31.885267 -147.49591 24.909094 103 105 108
-31.706135 -147.56293 24.906357 95 100 103
-31.500257 -147.49928 24.938087 105 107 110
-31.312763 -147.49545 24.894403 93 97 100
-31.11235 -147.55136 24.870586 117 119 122
-30.998938 -147.57327 24.811367 116 122 126
-30.683079 -147.54291 24.834677 90 93 94
-30.486849 -147.53487 24.902515 144 136 141
-30.335434 -147.53801 24.910728 141 132 137
-30.110622 -147.58176 24.911802 122 122 130
-29.991947 -147.56407 24.916477 98 105 115
-26.252571 -147.43056 24.802864 102 99 115
-26.026932 -147.56697 24.874172 62 62 70
-25.904663 -147.57956 24.854462 142 140 154
-25.48802 -147.59261 24.907814 213 201 223
-25.277851 -147.52094 24.859127 145 142 155
-24.91494 -147.57269 24.836653 158 154 164
-22.523491 -147.46947 24.876982 194 176 186
-22.390772 -147.45026 24.921808 132 129 132
-20.226084 -147.5242 24.978085 138 136 139
-20.155161 -147.46246 24.957355 143 140 143
-19.481373 -147.42426 24.983305 131 131 129
-19.354851 -147.50055 24.981712 119 118 118
-32.911308 -147.31799 24.804834 103 106 115
-32.713722 -147.2323 24.891203 99 107 115
-32.509335 -147.22289 24.993757 92 98 102
-32.288124 -147.27321 24.917921 95 102 105
-32.190445 -147.28925 24.936714 87 94 100
-31.841894 -147.3325 24.84675 118 121 124
-31.754919 -147.28796 24.922665 105 107 112
-31.415264 -147.31793 24.895065 124 124 132
-25.682974 -147.26852 24.87019 194 178 191
-25.560881 -147.23019 24.859379 184 170 179
-22.467894 -147.28996 24.872641 185 171 181
-22.319206 -147.29567 24.855167 145 138 144
-22.152834 -147.28123 24.827078 135 128 136
-20.131941 -147.30385 24.954445 153 150 153
-19.999163 -147.23892 24.942944 167 157 165
-19.707081 -147.28183 24.958923 112 106 120
-19.4979 -147.32237 24.980066 110 111 112
-32.685612 -147.15344 24.940172 102 110 120
-32.433952 -147.09241 24.857365 113 118 123
-32.349255 -147.11478 24.877783 102 108 114
-31.805635 -147.12071 24.804714 137 134 135
-31.738224 -147.13474 24.940914 116 116 121
-30.611876 -147.00795 24.841986 131 129 136
-30.521477 -147.11691 24.810265 112 111 118
-25.853647 -147.09654 24.841749 166 158 166
-25.680794 -147.06519 24.890957 190 169 178
-25.498861 -147.03615 24.8557 187 167 177
-25.377396 -147.01341 24.883982 161 145 151
-25.129183 -147.01991 24.858582 195 175 184
-24.980024 -147.00691 24.876469 192 187 193
-22.454588 -147.17705 24.832357 157 147 157
-22.299576 -147.19064 24.856506 150 145 149
-20.223549 -147.12044 24.970896 144 138 143
-20.142269 -147.11873 24.942892 157 151 153
-32.443573 -146.88452 24.878153 90 95 102
-32.295509 -146.90923 24.920851 96 101 107
-31.857861 -146.85991 24.914413 127 122 130
-31.794186 -146.91632 24.938951 129 124 132
-30.546932 -146.87556 24.820549 158 153 163
-25.843491 -146.90508 24.872175 184 172 179
-25.683023 -146.89775 24.874231 178 162 169
-25.510496 -146.90929 24.899717 183 163 173
-25.304073 -146.89059 24.898491 164 151 157
-25.133892 -146.87988 24.880732 151 143 146
-24.141153 -146.86642 24.802807 226 207 213
-20.263737 -146.94135 24.995771 105 110 106
-20.061716 -146.9335 24.972544 142 137 138
-19.891588 -146.86111 24.96706 150 147 151
-32.471638 -146.74686 24.91777 106 107 112
-32.311771 -146.72583 24.923647 104 109 114
-32.144249 -146.76218 24.953428 129 130 136
-31.923746 -146.72794 24.925739 107 106 112
-26.242682 -146.71297 24.803005 221 206 209
-26.06982 -146.71408 24.821802 169 159 162
-25.886644 -146.66841 24.85059 179 166 170
-25.685408 -146.71062 24.8591 169 157 162
-25.503313 -146.69035 24.900581 166 154 160
-25.299515 -146.69144 24.909309 159 148 153
-25.134806 -146.70306 24.895649 141 136 136
-24.962608 -146.69727 24.86558 138 138 137
-24.204651 -146.75923 24.814392 143 149 149
-24.031488 -146.67622 24.820395 131 123 129
-23.920506 -146.67413 24.820816 155 145 147
-21.531387 -146.71567 24.88656 120 116 117
-20.037632 -146.61877 24.973013 155 154 153
-19.902 -146.74139 24.935839 173 166 177
-19.788097 -146.73474 24.973831 123 124 123
-32.412411 -146.4097 24.803478 116 106 119
-32.282486 -146.48256 24.925467 115 111 121
-32.057083 -146.46899 24.930311 129 126 136
-31.927691 -146.51736 24.903456 118 114 121
-26.288353 -146.46324 24.972843 75 86 80
-26.048784 -146.50908 24.818678 158 149 155
-25.877047 -146.53825 24.855415 156 151 157
-25.68482 -146.53004 24.852087 168 157 163
-25.492456 -146.50943 24.883644 168 157 162
-25.317991 -146.50826 24.871923 148 142 144
-25.134657 -146.57896 24.838011 136 134 132
-24.69541 -146.44603 24.942923 151 146 144
-24.500217 -146.45578 24.817411 140 138 135
-24.252377 -146.55458 24.81049 73 80 72
-24.076153 -146.50685 24.824823 168 159 163
-23.892124 -146.44919 24.839905 178 168 167
-21.27837 -146.57147 24.86134 188 186 197
-20.496637 -146.44743 24.922163 117 121 118
-20.303219 -146.47366 24.887909 143 142 140
-20.102289 -146.49574 24.90177 125 119 125
-19.714485 -146.44609 24.955622 147 143 150
-32.27317 -146.3974 24.97407 144 130 143
-32.140385 -146.36531 24.874949 118 112 125
-26.254175 -146.35182 24.834869 63 75 69
-26.157791 -146.28146 24.854952 57 67 68
-25.877729 -146.35605 24.820187 198 192 196
-25.652611 -146.24448 24.832834 158 141 143
-25.481514 -146.30405 24.843742 166 158 160
-25.326056 -146.31012 24.825506 161 156 156
-25.160982 -146.2382 24.886681 171 157 159
-24.662903 -146.29066 24.85364 173 164 165
-24.49526 -146.26273 24.872322 171 159 159
-24.31304 -146.24658 24.876322 169 160 159
-24.113974 -146.22791 24.888359 177 164 167
-23.853336 -146.27312 24.855576 159 149 152
-23.719978 -146.27216 24.8848 160 151 152
-23.562057 -146.22885 24.810551 155 146 151
-20.461729 -146.32054 24.866354 150 148 146
-20.281357 -146.29605 24.921753 128 129 130
-20.139208 -146.29285 24.942181 121 120 123
-25.668264 -146.1391 24.816917 161 154 157
-25.510212 -146.14569 24.852848 163 154 158
-25.274887 -146.11049 24.842943 165 150 153
-25.12385 -146.11438 24.849417 159 146 149
-24.916481 -146.08514 24.828766 160 149 150
-24.669188 -146.11554 24.858528 170 159 163
-24.486689 -146.10397 24.883051 177 163 168
-24.302233 -146.09862 24.902996 172 158 162
-24.119549 -146.09206 24.888607 153 144 146
-23.883976 -146.10077 24.860424 167 155 159
-23.698795 -146.1053 24.882273 166 155 157
-23.564812 -146.08441 24.867151 155 148 147
-20.223801 -146.12079 24.863426 136 139 135
-20.108963 -146.13911 24.915817 113 114 115
-19.919518 -146.09906 24.943108 160 151 158
-30.50028 -145.80495 24.811335 140 134 145
-25.596632 -145.98904 24.809132 163 163 171
-25.244209 -145.9173 24.830521 148 138 142
-25.185043 -145.98283 24.869158 202 191 195
-24.830736 -145.91148 24.807167 106 103 96
-24.637711 -145.9549 24.864334 175 164 173
-24.494745 -145.93716 24.870344 166 155 161
-24.296432 -145.91179 24.882191 168 156 160
-24.109844 -145.89348 24.877682 169 156 160
-23.897005 -145.89821 24.870153 158 149 149
-23.746891 -145.94441 24.872141 150 144 143
-23.564613 -145.97379 24.833317 123 123 117
-20.019388 -145.96159 24.92786 119 117 115
-19.85326 -145.87947 24.936634 122 120 122
-19.692955 -145.83594 24.970558 117 118 121
-31.027061 -145.66928 24.811831 188 157 155
-30.915091 -145.67201 24.886707 152 138 144
-30.67894 -145.62444 24.907042 156 149 159
-30.505489 -145.65985 24.870714 138 130 142
-30.34339 -145.69801 24.868546 138 134 146
-25.297735 -145.64716 24.868263 182 175 180
-25.088524 -145.67201 24.86771 163 155 156
-24.912426 -145.67982 24.857908 157 151 146
-24.780998 -145.69666 24.824263 122 122 116
-24.425503 -145.67606 24.809628 144 140 139
-24.274929 -145.71017 24.869421 174 160 166
-24.090391 -145.70511 24.891609 177 162 169
-23.90777 -145.69643 24.893831 160 149 152
-23.724394 -145.69717 24.855812 157 150 149
-20.227911 -145.67017 24.976599 157 148 148
-20.119598 -145.71347 24.953705 157 150 154
-19.931211 -145.75587 24.964924 131 131 136
-19.769047 -145.74992 24.96032 99 105 108
-19.578671 -145.67311 24.980999 90 97 97
-31.235712 -145.45444 24.812876 188 167 168
-31.053534 -145.47675 24.861525 146 139 141
-30.894602 -145.50096 24.883705 150 140 146
-30.692038 -145.48923 24.909853 137 132 141
-30.50609 -145.51289 24.873774 135 133 143
-30.344721 -145.49077 24.916733 150 145 153
-25.55518 -145.41202 24.815048 146 140 134
-25.269901 -145.4944 24.835283 180 170 174
-25.097569 -145.49763 24.858839 174 163 166
-24.909143 -145.50424 24.904291 165 156 154
-24.739073 -145.46097 24.857 139 137 130
-24.466227 -145.52885 24.892405 133 140 133
-24.277424 -145.51033 24.848169 165 156 157
-24.098028 -145.49011 24.872671 160 149 150
-23.896286 -145.55042 24.851587 150 145 145
-23.720324 -145.51332 24.851128 165 154 153
-23.58345 -145.58415 24.803961 143 140 134
-20.292164 -145.53572 24.981054 157 155 158
-20.187662 -145.46489 24.973907 141 138 143
-19.455639 -145.54863 24.903664 124 124 120
-19.286249 -145.42667 24.989147 107 116 115
-31.059456 -145.29816 24.842318 165 159 164
-30.886074 -145.26486 24.880632 140 137 146
-30.709181 -145.28108 24.934164 130 130 137
-30.517252 -145.20398 24.870277 117 112 124
-25.472162 -145.28371 24.8447 173 162 161
-25.278358 -145.2796 24.855742 169 158 158
-25.080902 -145.30499 24.867245 171 159 161
-24.892118 -145.30614 24.881922 169 159 160
-24.728739 -145.29703 24.880005 146 142 138
-24.237146 -145.30392 24.847166 176 163 171
-24.108139 -145.29407 24.885529 165 153 155
-23.944403 -145.29839 24.883486 139 137 131
-23.410753 -145.24687 24.879166 193 174 176
-23.353807 -145.25946 24.839365 170 155 154
-23.032368 -145.26573 24.847303 121 120 116
-20.446421 -145.23721 24.89893 144 136 142
-20.292288 -145.30272 24.939142 162 155 161
-20.152489 -145.2612 24.96596 146 140 148
-31.01399 -145.16302 24.810299 172 170 177
-30.891153 -145.07968 24.893337 133 129 140
-30.675629 -145.11693 24.887615 131 127 138
-30.476196 -145.0656 24.868708 146 143 155
-30.32205 -145.01128 24.902168 182 165 180
-25.601002 -145.01334 24.855112 197 182 185
-25.491123 -145.16267 24.818359 189 179 189
-25.284172 -145.13757 24.83667 172 163 163
-25.067692 -145.09921 24.857651 171 158 161
-24.911053 -145.10748 24.874285 163 153 154
-24.732061 -145.1252 24.901562 133 133 125
-24.45784 -145.09547 24.873316 175 162 162
-24.29273 -145.10036 24.889601 167 158 158
-24.088085 -145.1008 24.887806 166 155 155
-23.952389 -145.0984 24.840845 131 131 123
-23.258865 -145.04333 24.866301 181 160 167
-23.133839 -145.07669 24.851637 130 123 121
-20.507048 -145.12254 24.98119 147 151 157
-20.311054 -145.13579 24.941481 147 145 147
-20.146193 -145.12444 24.976639 179 166 171
-19.436214 -145.16386 24.943531 116 122 118
-30.736979 -144.93178 24.957232 114 113 123
-30.418421 -144.98083 24.837778 143 135 150
-30.308832 -144.90878 24.868958 158 146 158
-30.089762 -144.86514 24.867901 166 152 162
-29.982336 -144.81778 24.887583 169 156 162
-25.981672 -144.86745 24.976624 153 150 143
-25.202679 -144.85713 24.816856 165 160 156
-25.06773 -144.90872 24.854094 172 159 162
-24.901333 -144.91096 24.88389 168 159 156
-24.709488 -144.88573 24.908392 169 157 155
-24.507156 -144.87891 24.886789 152 144 143
-24.327543 -144.95436 24.857149 134 131 128
-24.106516 -144.95128 24.828917 159 152 150
-23.977865 -144.95203 24.825409 161 154 149
-23.410192 -144.80841 24.916092 84 77 85
-23.260284 -144.87648 24.898581 141 133 135
-23.15233 -144.90752 24.871529 119 115 112
-20.513708 -144.9388 24.971245 111 113 110
-20.268082 -144.88054 24.809933 110 100 99
-20.061827 -144.90256 24.968107 143 135 138
-19.9657 -144.81677 24.984112 153 134 140
-30.505035 -144.71039 24.862686 141 130 146
-30.308271 -144.7515 24.879004 156 148 158
-30.047192 -144.7269 24.849171 167 155 165
-29.954245 -144.74147 24.890564 171 161 167
-25.055151 -144.77341 24.823044 172 161 158
-24.867155 -144.71469 24.859146 174 162 162
-24.696787 -144.69554 24.886583 174 160 166
-24.524208 -144.71396 24.894583 159 151 154
-24.390186 -144.64848 24.854528 127 125 130
-23.411861 -144.7692 24.804062 187 167 185
-23.245111 -144.76785 24.863997 129 124 121
-23.177437 -144.76657 24.852806 110 112 105
-20.061491 -144.74251 24.896967 226 206 214
-30.282263 -144.50494 24.819193 169 155 163
-30.16165 -144.50435 24.912758 146 136 148
-25.269955 -144.42682 24.894096 138 122 124
-25.059996 -144.46205 24.849104 165 147 147
-24.894009 -144.51872 24.859428 138 129 128
-24.678314 -144.57138 24.845644 148 139 147
-24.52236 -144.57507 24.90151 117 112 116
-20.028898 -144.5448 24.995289 83 88 91
-19.891659 -144.44315 24.982981 162 149 154
-19.423674 -144.43776 24.951092 130 124 124
-19.397259 -144.46622 24.995665 132 124 128
-30.24666 -144.32535 24.861116 169 153 166
-25.102583 -144.27834 24.879515 139 125 129
-24.89308 -144.32944 24.892345 120 113 113
-24.785805 -144.34373 24.927952 64 68 64
-19.941225 -144.26831 24.899698 144 129 139
-19.724367 -144.25641 24.989029 116 112 109
-19.560738 -144.30858 24.981567 145 132 135
-19.323713 -144.30879 24.951429 140 132 133
-19.192133 -144.2684 24.908321 150 145 147
-25.222195 -144.12773 24.816097 226 197 219
-25.091015 -144.17563 24.864416 150 139 147
-24.915941 -144.16965 24.873007 117 112 113
-20.142214 -144.17358 24.967434 151 140 156
-19.762276 -144.12932 24.888092 107 110 97
-19.510834 -144.1474 24.973034 162 144 149
-19.311304 -144.09444 24.950705 158 146 145
-19.402199 -143.96852 24.979357 126 118 107
-19.372223 -143.94701 24.961004 166 161 156
-19.131838 -143.96164 24.949409 181 168 165
-22.718031 -138.27534 24.811546 168 140 152
-30.452234 -153.14975 25.059593 178 161 170
-30.362225 -153.15535 25.075592 165 147 162
-30.477642 -152.99409 25.038849 144 139 145
-30.706198 -152.617 25.021339 194 182 190
-31.040325 -152.44728 25.002335 169 157 165
-30.887812 -152.45824 25.055632 181 175 178
-30.708696 -152.49031 25.076689 201 190 192
-30.5084 -152.48827 25.109404 181 168 173
-30.379333 -152.49837 25.075247 159 152 150
-31.478432 -152.22183 25.057632 139 127 143
-31.296457 -152.24557 25.056372 135 129 126
-31.10183 -152.25558 25.062174 182 176 171
-30.879749 -152.29672 25.050417 153 151 147
-30.699259 -152.30183 25.078688 154 150 150
-30.523203 -152.33015 25.078003 158 153 155
-30.352304 -152.34669 25.130007 129 122 123
-31.281273 -152.07919 25.088917 168 167 166
-31.088724 -152.1058 25.051931 146 147 141
-30.970263 -152.17523 25.02491 126 130 123
-31.616096 -151.81793 25.0035 124 131 124
-31.462341 -151.90381 25.057356 116 123 119
-31.295301 -151.91501 25.101019 136 139 136
-31.117441 -151.90097 25.06942 119 124 122
-31.637466 -151.70695 25.087973 117 122 115
-31.517595 -151.7067 25.091278 114 121 115
-31.3449 -151.71577 25.101091 105 112 106
-31.102388 -151.72519 25.086931 121 123 125
-30.856613 -151.72748 25.087162 120 122 121
-30.727322 -151.75117 25.082581 136 138 140
-31.678917 -151.46574 25.078827 125 130 123
-31.518793 -151.50671 25.055815 107 114 109
-31.217638 -151.5838 25.025473 97 92 102
-31.087803 -151.51987 25.071465 151 144 151
-30.952612 -151.52536 25.076864 146 143 146
-30.790936 -151.59943 25.098488 103 109 109
-31.834677 -151.2959 25.064219 120 124 121
-31.71612 -151.35658 25.06963 114 118 114
-31.535385 -151.34882 25.112885 101 104 103
-32.091824 -151.00662 25.022884 120 123 119
-31.953724 -151.15878 25.037621 147 146 148
-32.356564 -150.83727 25.000992 241 225 223
-30.493765 -150.23326 25.082243 141 138 145
-32.669106 -150.04256 25.034355 124 114 128
-32.500481 -150.06406 25.154018 154 148 168
-31.316355 -150.07864 25.006996 182 175 189
-31.152473 -150.10153 25.042376 188 184 198
-30.865459 -150.02051 25.008984 187 181 198
-30.479866 -150.06282 25.073175 118 117 121
-32.833176 -149.93909 25.03825 165 146 166
-32.701099 -149.89389 25.052347 122 111 129
-32.52409 -149.85889 25.157715 141 127 148
-32.29211 -149.83716 25.095617 175 166 179
-32.07214 -149.85413 25.087748 173 164 177
-31.966206 -149.82254 25.028633 136 130 138
-31.321117 -149.8895 25.042925 173 160 169
-31.089596 -149.89268 25.109715 181 169 181
-30.909103 -149.88806 25.109442 186 175 184
-30.652029 -149.81294 25.048336 113 114 109
-30.504417 -149.90439 25.108715 106 110 110
-30.340103 -149.92166 25.101702 114 117 118
-18.018185 -149.91464 25.070278 149 142 147
-32.87384 -149.71072 25.168888 123 124 132
-32.703209 -149.75201 25.126791 148 140 156
-32.451019 -149.72661 25.094761 157 154 159
-32.262241 -149.71019 25.079132 148 144 151
-32.142475 -149.71696 25.110672 136 134 141
-31.658051 -149.63571 25.096333 170 157 169
-31.484955 -149.68829 25.096916 172 159 168
-31.303022 -149.73865 25.123348 176 165 176
-31.101044 -149.69826 25.145197 171 162 168
-30.88863 -149.69446 25.106915 163 156 157
-30.566153 -149.6967 25.086565 94 99 98
-17.892164 -149.7989 25.174488 93 99 89
-32.672394 -149.54343 25.167 119 119 127
-32.260376 -149.50568 25.067446 119 120 123
-32.114918 -149.49457 25.106068 123 123 128
-31.874487 -149.48738 25.103075 163 158 166
-31.709442 -149.5 25.043457 139 134 144
-31.494616 -149.52379 25.123564 142 134 143
-31.374872 -149.42191 25.064859 136 137 139
-31.072605 -149.45337 25.143948 152 150 149
-30.899166 -149.51807 25.111465 153 149 149
-30.636932 -149.55939 25.085457 127 124 128
-30.476364 -149.50302 25.106419 103 100 104
-30.317263 -149.43655 25.10494 129 124 132
-33.273254 -149.20578 25.178482 142 132 147
-32.77956 -149.20422 25.10466 88 86 91
-32.274429 -149.33878 25.093834 120 119 124
-32.191628 -149.32593 25.082256 115 110 122
-31.859823 -149.34258 25.084185 148 144 153
-31.687454 -149.29701 25.100229 149 145 153
-31.498209 -149.26036 25.088243 149 145 152
-31.287186 -149.29501 25.100439 143 144 146
-31.084759 -149.27548 25.101137 134 136 134
-30.894659 -149.28629 25.074219 134 135 133
-30.734604 -149.26646 25.084778 137 133 136
-30.458984 -149.31238 25.134583 117 116 119
-30.27791 -149.3028 25.089355 125 125 127
-30.121887 -149.29756 25.06155 114 115 118
-29.963627 -149.26675 25.018661 127 125 130
-33.157787 -149.10748 25.098087 140 139 143
-32.85527 -149.08777 25.106871 105 106 108
-32.695145 -149.04851 25.076719 108 108 114
-32.578907 -149.10429 25.157253 118 117 125
-31.649067 -149.09047 25.071861 105 101 106
-31.517345 -149.09724 25.070499 138 135 140
-31.318886 -149.11794 25.079208 134 133 133
-31.088484 -149.15321 25.085014 118 123 121
-30.888748 -149.12895 25.062086 121 126 124
-30.768251 -149.12273 25.102543 132 135 137
-30.460291 -149.11978 25.078327 118 117 121
-30.321077 -149.12241 25.08091 107 109 110
-30.082565 -149.15373 25.023775 110 110 114
-23.307568 -149.00627 25.031902 138 133 137
-23.160456 -149.13158 25.017315 163 158 165
-22.867887 -149.04208 25.059952 178 171 175
-22.751831 -149.04005 25.032421 158 152 155
-17.629204 -149.01698 25.094664 176 163 174
-17.514505 -149.02879 25.152597 140 131 133
-17.397797 -149.04111 25.12624 144 145 139
-33.077835 -148.87169 25.08452 133 131 144
-32.887379 -148.91858 25.13096 131 129 139
-32.703598 -148.88019 25.095997 118 118 125
-32.531815 -148.88455 25.113134 117 117 122
-32.359634 -148.86546 25.076038 174 177 184
-31.656452 -148.92783 25.133068 121 115 117
-31.467428 -148.93825 25.05233 118 122 123
-31.343498 -148.89796 25.104218 113 117 119
-31.107843 -148.86348 25.056618 114 119 123
-30.86927 -148.91798 25.032349 110 115 116
-30.737349 -148.88419 25.064606 115 122 121
-30.50766 -148.84763 25.134678 103 106 109
-30.359755 -148.89531 25.122568 102 104 106
-29.892633 -148.90048 25.005287 110 112 115
-23.681551 -148.80167 25.005695 154 151 156
-23.475945 -148.84459 25.056999 162 155 159
-23.307226 -148.87057 25.021225 154 149 153
-23.159239 -148.84875 25.03104 187 178 184
-22.874693 -148.88722 25.040611 163 157 159
-22.753586 -148.87372 25.027939 167 164 168
-22.525986 -148.82695 25.055679 158 149 155
-22.359449 -148.81905 25.000793 162 147 152
-21.980343 -148.82295 25.065201 152 150 156
-19.03265 -148.83591 25.090237 168 155 160
-18.894737 -148.86832 25.104614 168 156 161
-18.708981 -148.87859 25.106415 147 140 141
-18.49708 -148.86212 25.107985 127 126 124
-18.329624 -148.8374 25.092583 163 155 160
-18.151945 -148.87952 25.102943 166 155 158
-17.919779 -148.9343 25.154095 151 143 145
-17.765991 -148.96484 25.11076 135 131 136
-17.477554 -148.97968 25.11747 121 113 114
-17.214844 -148.88525 25.186052 90 93 89
-17.126122 -148.85123 25.1647 110 109 107
-16.940617 -148.85643 25.108501 155 145 146
-33.220592 -148.73732 25.108841 139 132 140
-33.064137 -148.71854 25.132923 136 129 142
-32.89547 -148.735 25.065594 103 102 113
-32.707348 -148.71745 25.130613 112 111 119
-32.54158 -148.77875 25.124317 124 125 131
-31.453104 -148.73682 25.065981 125 121 117
-31.322872 -148.70793 25.103052 134 124 120
-31.10927 -148.69583 25.081228 117 115 115
-30.887939 -148.60796 25.0846 81 89 92
-30.689137 -148.71169 25.104048 97 101 106
-30.306665 -148.63783 25.058823 104 103 110
-29.842388 -148.76991 25.032368 75 78 85
-23.816326 -148.66162 25.060173 159 158 163
-23.657671 -148.73 25.033749 163 159 163
-23.496296 -148.71423 25.028931 166 159 165
-23.291645 -148.67561 25.05681 161 155 160
-23.136417 -148.73438 25.033661 148 147 149
-22.910852 -148.66779 25.030106 157 155 160
-22.292143 -148.75713 25.034918 177 165 174
-22.108612 -148.76408 25.015873 176 167 177
-21.91646 -148.7048 25.034742 162 157 167
-19.052467 -148.69522 25.110958 135 131 130
-18.933996 -148.69818 25.122353 148 144 141
-18.671745 -148.60391 25.136135 109 110 111
-18.481945 -148.79141 25.102726 148 145 145
-18.320309 -148.76924 25.112694 135 128 131
-18.102886 -148.76645 25.094784 132 123 128
-32.914009 -148.51601 25.098442 150 147 153
-32.709385 -148.49364 25.094957 131 128 137
-32.509197 -148.47952 25.128815 123 125 132
-31.240421 -148.53915 25.047569 139 132 128
-31.091759 -148.50191 25.077414 125 120 119
-30.901169 -148.55595 25.0686 89 92 96
-30.732109 -148.55249 25.120872 96 93 103
-30.508677 -148.48972 25.120941 125 121 130
-30.316854 -148.48093 25.063955 129 127 134
-23.455862 -148.52611 25.068228 158 158 164
-23.288603 -148.51643 25.057076 167 163 169
-23.127068 -148.49486 25.035749 159 156 158
-22.884665 -148.46461 25.050314 164 160 162
-22.259884 -148.5336 25.059366 149 148 156
-22.100246 -148.43263 25.117365 192 180 189
-19.662098 -148.44722 25.141417 165 151 157
-19.500847 -148.48328 25.105427 172 161 168
-19.317186 -148.50148 25.095366 159 154 159
-19.102188 -148.53589 25.092098 128 126 127
-18.911766 -148.55692 25.07992 116 119 118
-18.689077 -148.50563 25.160131 110 114 111
-18.55846 -148.49397 25.088421 119 124 122
-33.884678 -148.38799 25.043215 176 164 186
-32.810963 -148.31641 25.006042 95 99 102
-32.71682 -148.30074 25.127409 115 114 116
-32.513977 -148.3808 25.193048 136 135 133
-32.338242 -148.3756 25.191404 119 123 128
-31.618776 -148.20677 25.041 68 75 81
-31.086382 -148.31197 25.095245 113 106 104
-30.901196 -148.28705 25.067003 101 100 110
-30.699667 -148.30772 25.104609 163 154 160
-30.46092 -148.29997 25.08539 159 148 153
-30.33289 -148.29591 25.105282 165 156 164
-30.155279 -148.2645 25.028936 172 160 172
-23.458628 -148.31071 25.08532 131 133 132
-23.302216 -148.3174 25.023321 144 143 146
-23.07029 -148.29871 25.029028 153 148 152
-22.870796 -148.28796 25.047272 181 167 174
-22.707327 -148.27657 25.064411 178 166 173
-22.531269 -148.25372 25.050123 150 144 148
-22.384518 -148.22647 25.024191 114 116 124
-22.072981 -148.35698 25.00408 149 139 144
-19.700731 -148.30441 25.135969 165 153 157
-19.568771 -148.28159 25.056789 131 125 128
-19.200558 -148.39406 25.039366 155 145 154
-18.662947 -148.3237 25.162964 113 115 111
-18.494913 -148.30057 25.133417 123 125 126
-18.328503 -148.36737 25.026379 77 84 85
-16.747612 -148.34924 25.154762 159 158 151
-16.548388 -148.28494 25.171795 157 142 138
-32.682159 -148.05348 25.13596 102 105 111
-32.42749 -148.05925 25.177975 98 101 105
-31.612965 -148.03262 25.092697 118 118 119
-31.410835 -148.0097 25.057024 105 102 109
-31.091278 -148.06781 25.092838 131 128 127
-30.896088 -148.03577 25.084967 107 106 111
-30.736511 -148.08649 25.114847 155 150 150
-30.472561 -148.1265 25.17935 165 155 155
-30.309574 -148.10626 25.1315 175 159 163
-30.13695 -148.13477 25.071835 165 149 156
-29.95578 -148.06357 25.094927 136 132 139
-23.282417 -148.08943 25.028845 165 161 166
-23.058968 -148.07672 25.071735 150 144 149
-22.873657 -148.10191 25.090952 173 163 168
-22.697649 -148.1246 25.079128 177 165 169
-22.508451 -148.12213 25.048506 167 158 165
-22.367388 -148.11349 25.013855 115 119 118
-19.713884 -148.09785 25.134926 131 129 127
-19.535313 -148.12001 25.119541 106 102 103
-18.54883 -148.16472 25.107105 95 99 98
-33.10598 -147.80937 25.077713 91 95 100
-32.892174 -147.89531 25.097542 89 95 98
-32.787315 -147.90437 25.116745 95 95 103
-32.519314 -147.93361 25.119799 94 93 101
-31.663347 -147.90916 25.07786 96 101 100
-31.492041 -147.88977 25.110855 102 106 108
-31.362551 -147.89783 25.155127 128 127 124
-31.017282 -147.90707 25.112757 125 122 120
-30.919111 -147.9118 25.065639 114 113 116
-30.708387 -147.89125 25.121469 145 139 143
-30.499714 -147.90942 25.101921 131 131 132
-30.29052 -147.90047 25.107832 149 142 145
-30.110699 -147.91096 25.092541 133 126 131
-29.961418 -147.88318 25.081635 122 125 129
-23.072178 -147.9077 25.077621 121 123 122
-22.917515 -147.95581 25.029743 151 147 149
-22.682981 -147.95505 25.055817 164 160 163
-22.505121 -147.93784 25.076738 149 145 151
-22.322577 -147.96756 25.013599 125 135 137
-22.189987 -147.80278 25.102364 84 95 99
-20.235565 -147.80548 25.199369 113 103 114
-20.074947 -147.83195 25.084417 150 144 149
-19.911356 -147.84039 25.084682 131 131 130
-19.691381 -147.85901 25.079929 114 117 115
-19.543436 -147.8775 25.131588 122 121 119
-33.044189 -147.73036 25.086044 88 93 94
-32.892006 -147.67276 25.148577 109 113 116
-32.65567 -147.69974 25.111259 91 91 97
-31.668514 -147.69537 25.130558 105 109 109
-31.511204 -147.70274 25.085176 108 112 113
-31.338015 -147.6554 25.093794 134 135 141
-31.069344 -147.65514 25.096445 119 119 120
-30.989532 -147.68671 25.151028 137 137 137
-30.677813 -147.72885 25.122086 114 114 118
-30.527431 -147.74719 25.08688 126 128 131
-30.297047 -147.68297 25.048061 143 140 145
-30.097902 -147.76744 25.08548 107 111 113
-29.897522 -147.71906 25.119734 128 127 135
-29.796349 -147.71112 25.195084 99 99 107
-20.243513 -147.67914 25.123907 162 152 157
-20.115423 -147.70702 25.11916 155 145 148
-19.90448 -147.73648 25.134895 133 133 131
-19.695576 -147.69633 25.135725 119 119 117
-19.539976 -147.70502 25.11994 118 119 116
-19.357389 -147.63255 25.072859 74 74 75
-32.863026 -147.53308 25.108585 109 109 110
-32.776672 -147.41931 25.148045 110 107 113
-32.420422 -147.4539 25.182943 107 110 115
-32.394711 -147.42627 25.170553 98 103 106
-32.092716 -147.52879 25.07196 107 105 109
-31.890791 -147.47166 25.106432 118 118 120
-31.771849 -147.48105 25.092485 117 116 120
-31.464666 -147.51352 25.100641 111 111 117
-31.343302 -147.47212 25.13455 124 122 128
-31.120852 -147.51772 25.124796 129 127 131
-30.485619 -147.56573 25.064087 126 123 126
-30.303988 -147.50632 25.045925 141 136 146
-30.144371 -147.51921 25.113821 134 134 146
-20.245211 -147.5313 25.121349 141 137 139
-20.12023 -147.50024 25.111517 136 133 133
-19.886366 -147.48111 25.134228 103 107 103
-19.686569 -147.48741 25.132011 100 102 100
-19.539219 -147.49849 25.112947 104 106 104
-19.322741 -147.50415 25.074593 123 126 126
-32.754459 -147.28355 25.070978 97 100 109
-32.494839 -147.24716 25.08717 87 94 99
-32.305477 -147.29591 25.087618 96 102 106
-32.100044 -147.28131 25.141991 118 122 127
-31.925688 -147.38676 25.116928 126 124 126
-31.71097 -147.28267 25.135796 123 122 125
-31.424026 -147.36755 25.047276 115 114 120
-31.336149 -147.37859 25.046417 96 95 102
-20.241604 -147.26389 25.130833 142 139 141
-20.115738 -147.31511 25.115366 144 140 142
-19.900377 -147.35941 25.151064 119 119 118
-19.700943 -147.37163 25.134571 109 109 110
-19.501493 -147.32626 25.065826 109 110 113
-19.299425 -147.26939 25.137993 96 96 99
-19.177328 -147.29553 25.112953 98 97 100
-18.883219 -147.30629 25.155653 93 100 100
-18.675785 -147.35017 25.125832 91 94 96
-32.671318 -147.13007 25.079086 99 101 111
-32.545822 -147.14377 25.082363 108 114 120
-32.315224 -147.11963 25.088308 104 111 115
-32.107944 -147.09933 25.144564 116 115 123
-31.827202 -147.13382 25.197533 152 150 150
-31.716108 -147.08595 25.099794 128 128 131
-25.694124 -147.05299 25.028366 197 177 185
-20.249069 -147.11267 25.111923 146 140 143
-20.146671 -147.09053 25.098661 146 142 143
-19.883959 -147.14372 25.162468 149 142 146
-19.204966 -147.01532 25.091639 159 153 163
-18.864258 -147.19307 25.041992 121 121 119
-32.442104 -146.80815 25.080631 113 111 116
-32.316803 -146.89699 25.116779 103 108 113
-32.087364 -146.86691 25.126419 114 114 120
-31.806477 -146.84088 25.117739 91 91 97
-31.761572 -146.89885 25.10429 127 121 128
-25.634809 -146.98029 25.031092 193 173 181
-25.473831 -146.89313 25.049526 178 164 171
-25.309376 -146.8717 25.04357 172 157 163
-25.151041 -146.88705 25.049515 170 153 163
-20.087378 -146.93217 25.132591 152 148 149
-19.943201 -146.89433 25.08333 143 142 145
-32.284901 -146.72878 25.04241 112 115 122
-32.144173 -146.68625 25.096689 112 112 120
-31.871742 -146.69035 25.089785 129 123 130
-31.777304 -146.78969 25.144583 116 112 120
-25.622868 -146.66124 25.028419 146 139 145
-25.449024 -146.77444 25.056601 167 157 168
-25.300207 -146.71179 25.051916 170 155 166
-25.147392 -146.71889 25.055819 158 149 155
-20.244913 -146.66161 25.191952 184 167 177
-20.085087 -146.69591 25.141327 170 162 162
-19.924746 -146.689 25.075392 134 128 130
-19.777723 -146.79163 25.070599 119 119 121
-32.286907 -146.51729 25.074148 120 118 128
-32.088867 -146.50177 25.116783 148 138 148
-31.940823 -146.5114 25.11614 139 131 140
-31.703501 -146.52994 25.052078 92 93 97
-25.428991 -146.56725 25.029053 175 164 173
-25.375153 -146.50148 25.017088 160 151 153
-23.259083 -146.52295 25.156078 152 141 147
-23.160528 -146.45111 25.056055 127 122 129
-20.260027 -146.46472 25.064411 198 170 182
-20.121132 -146.49448 25.060789 174 158 165
-19.917822 -146.47763 25.129694 138 134 138
-19.737108 -146.53255 25.046806 136 132 139
-24.231306 -146.22766 25.029808 183 171 170
-24.044468 -146.27196 25.081224 145 147 160
-23.746307 -146.37628 25.003296 109 107 110
-20.494686 -146.38196 25.060505 201 200 196
-20.253624 -146.26466 25.045244 115 116 118
-20.107841 -146.30923 25.083679 138 133 137
-19.921057 -146.2773 25.097204 136 134 137
-19.789246 -146.3293 25.001402 131 132 136
-24.658058 -146.1604 25.000603 181 162 166
-24.495226 -146.17189 25.056818 194 181 190
-24.284533 -146.08797 25.030163 177 162 168
-24.148941 -146.07375 25.025969 165 156 158
-23.804682 -146.09541 25.000494 172 168 167
-23.695387 -146.1291 25.025827 168 157 158
-20.422297 -146.04961 25.052427 108 114 114
-20.227324 -146.14624 25.041716 92 92 94
-20.08708 -146.13249 25.065453 111 112 116
-19.919849 -146.09248 25.125299 128 128 129
-19.7714 -146.06161 25.102472 102 106 109
-19.596767 -146.00923 25.180483 116 116 124
-19.298502 -146.02135 25.190388 153 151 152
-24.272543 -145.98372 25.027168 156 141 146
-24.018503 -145.90067 25.042353 155 147 148
-23.96435 -145.84648 25.02491 171 156 157
-20.235031 -145.82773 25.09082 144 133 136
-20.07963 -145.83202 25.120888 132 131 132
-19.885769 -145.89743 25.126368 119 121 121
-19.743288 -145.86615 25.131855 107 111 111
-30.856918 -145.68867 25.010019 168 149 161
-30.720621 -145.67683 25.112257 163 149 161
-29.939909 -145.6176 25.046558 84 75 94
-25.080467 -145.71548 25.025875 183 178 174
-24.046331 -145.73357 25.039606 187 166 171
-23.969648 -145.69608 25.028826 167 153 157
-20.544796 -145.64806 25.196358 164 164 172
-20.270195 -145.69234 25.126629 161 149 152
-20.120638 -145.74863 25.105829 150 144 147
-19.87532 -145.72606 25.12422 113 116 116
-19.709858 -145.69809 25.122396 102 104 104
-19.503908 -145.65384 25.138199 104 109 104
-19.302334 -145.70656 25.129511 115 114 113
-19.162762 -145.73605 25.197319 126 132 134
-18.686852 -145.71689 25.126234 85 90 84
-18.560036 -145.62299 25.074903 75 81 78
-30.830992 -145.49078 25.022179 140 134 143
-30.685459 -145.54712 25.117813 154 142 153
-30.477148 -145.56265 25.021397 138 137 146
-25.079596 -145.50948 25.027166 161 152 155
-24.91926 -145.5088 25.035517 154 143 143
-24.074354 -145.43457 25.053398 165 156 154
-23.787474 -145.54248 25.005503 91 98 90
-21.379187 -145.40057 25.149778 74 72 75
-20.456476 -145.52338 25.170727 131 129 134
-20.287718 -145.49858 25.105862 163 155 159
-20.130754 -145.47653 25.073063 133 129 132
-19.940674 -145.49657 25.120937 145 135 144
-19.665623 -145.54668 25.134924 117 122 119
-19.51462 -145.53766 25.124739 114 119 116
-19.370235 -145.49815 25.120014 110 116 116
-31.082952 -145.34793 25.018581 172 152 163
-30.922342 -145.3345 25.104412 163 153 162
-30.65423 -145.37614 25.090773 120 119 128
-30.536537 -145.29478 25.132507 125 125 133
-30.340796 -145.26735 25.050213 76 80 91
-24.818243 -145.28287 25.034845 167 159 159
-24.74646 -145.30756 25.07201 131 127 125
-24.052908 -145.34402 25.038271 160 151 151
-23.977757 -145.33412 25.013988 154 146 142
-20.609573 -145.31947 25.034212 154 155 159
-20.434443 -145.25432 25.059063 192 189 196
-20.301886 -145.29054 25.089056 162 153 158
-20.154633 -145.32785 25.077639 137 133 140
-19.545677 -145.33554 25.114948 103 108 104
-30.849833 -145.08875 25.097923 81 85 96
-30.691868 -145.09268 25.04763 91 90 102
-30.474754 -145.02217 25.090275 70 74 83
-24.911757 -145.10046 25.047262 155 147 142
-24.360846 -145.15506 25.044842 167 161 165
-24.063717 -145.19467 25.001308 104 100 97
-23.265347 -145.07097 25.012316 59 58 55
-20.644922 -145.12875 25.07394 178 177 183
-20.451944 -145.13536 25.114357 121 121 122
-20.263037 -145.11624 25.095486 154 146 148
-20.144062 -145.09178 25.100931 153 144 146
-19.994831 -145.04364 25.110744 124 117 125
-19.761185 -145.04004 25.195532 153 150 150
-30.685083 -144.92731 25.083754 116 113 125
-30.507015 -144.92993 25.109749 123 126 134
-30.204563 -144.94849 25.032555 138 121 139
-24.917267 -144.98114 25.016037 159 143 147
-24.666412 -144.88043 25.062443 172 163 167
-24.535183 -144.8658 25.069803 164 158 160
-23.278191 -144.89664 25.009916 133 130 126
-23.172661 -144.96043 25.061026 149 145 142
-20.454996 -144.97998 25.10817 120 115 115
-20.282879 -144.88727 25.093914 164 151 157
-20.120995 -144.91057 25.114641 171 155 161
-19.958225 -144.84389 25.076273 145 132 139
