ply
format ascii 1.0
comment PCL generated
element vertex 1117
property float x
property float y
property float z
property uchar red
property uchar green
property uchar blue
element face 0
element camera 0
property float view_px
property float view_py
property float view_pz
property float x_axisx
property float x_axisy
property float x_axisz
property float y_axisx
property float y_axisy
property float y_axisz
property float z_axisx
property float z_axisy
property float z_axisz
property float focal
property float scalex
property float scaley
property float centerx
property float centery
property int viewportx
property int viewporty
property float k1
property float k2
end_header
-81.487915 40.076176 -6.9121375 101 112 121
-81.29512 40.071472 -6.9180479 84 97 104
-81.073929 40.109821 -6.914506 115 119 129
-80.89666 40.11021 -6.9094276 135 134 146
-80.696533 40.088314 -6.8736734 154 150 161
-80.495949 40.11615 -6.9216018 115 113 123
-80.296944 40.102917 -6.9078221 135 129 138
-80.115669 40.123138 -6.8959498 128 125 135
-79.885445 40.088047 -6.8910322 125 124 136
-79.704689 40.121593 -6.8868036 138 133 142
-79.492706 40.089256 -6.8896236 117 119 130
-79.305511 40.116673 -6.874011 142 138 139
-79.099136 40.088768 -6.8623576 132 128 122
-78.89949 40.112076 -6.8575096 129 125 122
-78.697243 40.058987 -6.863235 98 99 97
-78.50679 40.086178 -6.9062023 79 85 83
-78.314255 40.079441 -6.9271069 95 100 102
-78.160187 40.050583 -6.8991117 134 126 124
-84.253357 40.361679 -6.8567371 24 48 39
-84.15094 40.343967 -6.8059893 30 52 43
-83.882637 40.292294 -6.9141235 43 66 59
-83.714531 40.285328 -6.9585228 55 78 77
-83.55587 40.319386 -6.9795046 72 93 97
-82.834145 40.233631 -6.9016814 28 47 51
-82.631927 40.229164 -6.8908873 129 135 145
-82.493629 40.264408 -6.8751702 92 102 110
-82.298897 40.295444 -6.8770185 107 118 125
-82.085785 40.289482 -6.9269524 71 84 90
-81.88131 40.319515 -6.878952 84 101 112
-81.738686 40.29557 -6.9178925 103 119 130
-81.494247 40.304276 -6.9347634 122 124 131
-81.316032 40.296162 -6.8915143 104 110 120
-81.08416 40.275356 -6.9058146 116 122 132
-80.909882 40.32394 -6.8992429 149 150 163
-80.711838 40.284008 -6.9009867 152 148 163
-80.516838 40.329845 -6.8822169 139 139 150
-80.321175 40.283607 -6.9283009 142 137 145
-80.098557 40.309578 -6.9171758 124 124 135
-79.888657 40.322163 -6.8962493 114 113 123
-79.692406 40.311512 -6.8805485 96 91 98
-79.49118 40.300545 -6.8879704 113 114 124
-79.31208 40.319572 -6.8837605 89 96 96
-79.09893 40.295311 -6.8759484 145 142 128
-78.908005 40.316113 -6.8715463 128 130 116
-78.678841 40.311321 -6.8747177 123 129 109
-78.506981 40.297241 -6.9130554 84 96 88
-78.349396 40.306877 -6.939971 65 77 82
-84.297241 40.519859 -6.9174662 43 70 67
-84.099709 40.47279 -6.9202619 44 67 67
-83.901299 40.501045 -6.9373603 56 76 78
-83.67968 40.500416 -6.9817033 88 105 108
-83.459793 40.523186 -6.9718065 128 139 143
-83.272041 40.509499 -6.9410095 122 132 136
-83.121262 40.509903 -6.910718 146 158 163
-82.656151 40.538586 -6.9277558 180 192 200
-82.521843 40.504799 -6.8914585 90 104 113
-82.293861 40.550529 -6.8428845 77 94 100
-82.116394 40.479877 -6.8841739 92 106 115
-81.908295 40.532036 -6.894556 112 126 141
-81.664513 40.501934 -6.9057164 136 144 157
-81.490685 40.477901 -6.9031501 128 134 145
-81.309006 40.493744 -6.9583964 123 124 134
-81.098824 40.501263 -6.9178467 148 150 161
-80.898277 40.503006 -6.9064932 142 143 156
-80.711266 40.491734 -6.8879728 148 148 159
-80.499649 40.511166 -6.8700695 106 107 116
-80.274879 40.492317 -6.8507524 159 156 166
-80.088921 40.498951 -6.8625398 96 103 114
-79.906593 40.503197 -6.8923492 118 119 133
-79.698074 40.496555 -6.8996773 109 110 121
-79.50045 40.491459 -6.894455 80 89 99
-79.303612 40.477345 -6.9324737 73 82 91
-79.093361 40.500481 -6.9085217 112 115 122
-78.912987 40.49062 -6.9192395 109 112 110
-78.696358 40.485023 -6.9293532 104 109 113
-78.514053 40.464722 -6.9169059 100 108 106
-78.334175 40.472427 -6.9144344 137 140 121
-84.446724 40.657211 -6.9032211 19 44 35
-84.30526 40.697556 -6.9593835 45 67 67
-84.053894 40.687614 -6.9710126 68 84 85
-83.889633 40.736401 -6.9618855 102 118 119
-83.71376 40.697815 -6.9627395 89 103 96
-83.50415 40.675503 -6.9676208 89 102 102
-83.336769 40.690788 -6.9787879 134 148 151
-83.098984 40.703526 -6.9498816 148 161 170
-82.912994 40.741127 -6.9635282 69 84 93
-82.69249 40.677509 -6.9386549 85 100 105
-82.513939 40.671284 -6.9182572 91 104 112
-82.263527 40.708797 -6.9163337 105 112 121
-82.132523 40.723167 -6.8548279 97 109 118
-81.954758 40.673294 -6.9015231 85 98 111
-81.73304 40.703484 -6.8710394 116 128 141
-81.493607 40.723331 -6.8957539 106 110 120
-81.273117 40.676327 -6.9338198 158 155 162
-81.096451 40.718761 -6.9326453 124 125 134
-80.904984 40.692356 -6.9039183 118 125 138
-80.703598 40.722656 -6.8848405 179 179 191
-80.519127 40.6964 -6.8608541 127 129 140
-80.28756 40.724644 -6.8615408 128 127 139
-80.07122 40.693913 -6.8982396 106 111 123
-79.902939 40.711937 -6.9054141 108 112 124
-79.696999 40.690834 -6.9114456 110 114 129
-79.519814 40.67981 -6.9155917 94 103 119
-79.300323 40.691845 -6.9559331 84 98 115
-79.091919 40.665199 -6.9139676 67 75 89
-78.930534 40.684753 -6.9142618 75 74 78
-78.676605 40.613274 -6.9408531 82 89 97
-78.567307 40.63932 -6.9621973 104 111 119
-84.68293 40.886448 -6.9029837 33 57 32
-84.492172 40.886478 -6.934906 41 65 60
-84.261902 40.987602 -6.9765363 87 105 105
-84.085281 40.899139 -6.967546 79 91 93
-83.894135 40.896069 -6.9099226 83 98 102
-83.672752 40.887753 -6.9289522 90 106 105
-83.493683 40.932541 -6.9538779 101 117 115
-83.328407 40.900738 -6.9557891 102 116 121
-83.096298 40.911114 -6.9809866 110 124 129
-82.903809 40.903362 -6.9941921 100 116 117
-82.496597 40.871773 -6.9036922 83 95 100
-82.032089 40.867966 -6.9011359 114 127 140
-81.849579 40.937122 -6.8977842 100 112 124
-81.639465 40.936447 -6.8570132 110 123 136
-81.496803 40.944405 -6.955852 121 121 132
-81.302544 40.875141 -6.9270163 148 149 157
-81.120346 40.92226 -6.9477286 116 116 124
-80.885139 40.869434 -6.9341378 112 118 131
-80.717621 40.933655 -6.9194746 121 123 135
-80.490532 40.89386 -6.8859749 128 131 144
-80.285339 40.937527 -6.9200516 69 80 89
-80.1064 40.885017 -6.9064112 77 87 99
-79.891914 40.913265 -6.9163656 88 98 113
-79.688103 40.873135 -6.9361181 99 104 116
-79.531914 40.869209 -6.9666333 102 106 120
-79.320404 40.871983 -6.9645534 92 101 119
-79.12075 40.860447 -6.9064221 80 81 89
-84.695213 41.083664 -6.9012809 44 68 35
-84.536034 41.113361 -6.9139466 42 65 42
-84.282745 41.112244 -6.9528031 68 83 80
-84.100899 41.12719 -6.9196415 75 92 94
-83.869247 41.096569 -6.9332376 88 101 104
-83.703606 41.104053 -6.9301257 124 135 139
-83.495239 41.111595 -6.9586 115 126 121
-83.321083 41.124367 -6.9647141 116 126 128
-83.124756 41.177166 -6.9097104 132 147 150
-82.95134 41.136726 -6.979341 119 128 128
-82.430458 41.09087 -6.847116 63 78 75
-82.331039 41.035957 -6.9045668 89 99 103
-82.148376 41.091228 -6.9087353 40 61 65
-81.938461 41.132732 -6.8399653 81 96 103
-81.651672 41.065685 -6.9291539 98 102 113
-81.482231 41.089096 -6.9453788 112 120 128
-81.272461 41.092674 -6.9330339 124 127 138
-81.081482 41.118263 -6.9313297 157 157 165
-80.91156 41.066864 -6.928515 108 115 125
-80.718948 41.09507 -6.8954549 121 125 136
-80.484268 41.080872 -6.8910241 127 129 141
-80.302002 41.087399 -6.9069757 101 108 118
-80.087738 41.072681 -6.9167709 76 86 99
-79.908005 41.094936 -6.9273186 74 86 99
-79.681175 41.074749 -6.9716167 93 97 115
-79.476334 41.115723 -6.9534025 155 154 171
-79.31517 41.147068 -6.9581351 127 128 142
-79.09626 41.051098 -6.9817591 148 150 173
-77.712486 41.194714 -6.9859114 17 31 49
-84.440651 41.308258 -6.9167695 36 60 34
-84.29512 41.287224 -6.9321938 53 72 64
-84.125526 41.29538 -6.9052529 91 108 107
-83.903603 41.275402 -6.9623523 83 99 102
-83.691963 41.328751 -6.9536772 120 128 134
-83.487701 41.294327 -6.9636035 153 162 162
-83.271538 41.324913 -6.9585609 123 134 135
-83.081505 41.281006 -6.9127975 125 137 138
-82.887421 41.281143 -6.8974977 107 115 105
-82.696823 41.327114 -6.8987775 112 119 92
-82.562325 41.359478 -6.9009147 93 104 78
-82.310608 41.342121 -6.956183 71 82 80
-81.870422 41.349552 -6.8395901 34 59 44
-81.688789 41.260342 -6.9092526 136 144 150
-81.501411 41.283085 -6.9586062 102 112 117
-81.28791 41.326763 -6.9749665 113 119 127
-81.065834 41.287006 -6.9262681 145 143 156
-80.905548 41.311562 -6.9277601 126 131 145
-80.707474 41.296333 -6.8963909 96 100 111
-80.497238 41.306667 -6.9267402 90 99 114
-80.3069 41.291039 -6.9536343 80 89 101
-80.127693 41.285637 -6.9403753 68 80 91
-79.938484 41.324715 -6.9538722 64 77 90
-79.684631 41.251175 -6.9795604 56 67 78
-79.581146 41.294559 -6.9409981 41 65 69
-79.34259 41.283913 -6.9840784 164 163 180
-78.915466 41.334709 -6.9511166 181 182 195
-78.513893 41.35527 -6.9631877 131 141 165
-78.295105 41.302975 -6.9450989 234 230 255
-77.658813 41.344891 -6.8736229 105 109 146
-75.761063 41.237549 -6.9399247 135 133 128
-75.547668 41.265205 -6.9887428 108 123 104
-75.349365 41.355686 -6.9945498 111 127 101
-84.418663 41.515327 -6.8300276 45 67 26
-84.291367 41.495506 -6.8872013 47 67 37
-84.098724 41.522682 -6.8941364 48 66 54
-83.915215 41.461033 -6.9564939 76 93 99
-83.724403 41.51844 -6.9719377 102 112 117
-83.515259 41.492767 -6.9386063 106 114 120
-83.30323 41.526913 -6.9368134 122 133 131
-83.115669 41.476456 -6.870821 100 111 103
-82.930824 41.523586 -6.8488646 101 114 92
-82.655449 41.498405 -6.8515205 102 116 85
-82.473511 41.494507 -6.8783622 82 96 75
-82.307945 41.490772 -6.9373145 71 87 76
-82.155235 41.556133 -6.9013991 77 96 78
-81.664093 41.483547 -6.9455972 80 95 93
-81.405067 41.487938 -6.9536228 93 98 107
-81.286102 41.517311 -6.9313107 133 137 147
-81.087875 41.476162 -6.8969288 149 151 164
-80.93306 41.478386 -6.9027534 80 85 97
-80.718048 41.479179 -6.9226298 107 116 128
-80.52285 41.519772 -6.969214 102 114 132
-80.334068 41.47311 -6.9463449 66 76 89
-80.083778 41.524826 -6.931859 78 86 103
-79.947838 41.563362 -6.9782791 87 89 109
-79.407661 41.455971 -6.9993505 144 146 177
-79.328979 41.485409 -6.9727454 152 160 183
-79.103142 41.511967 -6.9564867 100 105 123
-78.894455 41.512165 -6.9811606 192 184 209
-78.70079 41.529789 -6.9479675 156 157 180
-78.511093 41.523506 -6.9380074 61 69 85
-78.080795 41.548248 -6.9533925 89 95 115
-75.59642 41.405758 -6.9876776 130 140 119
-84.286469 41.634365 -6.8878593 55 74 32
-84.121742 41.695782 -6.9135361 50 67 45
-83.894173 41.729309 -6.9570971 52 67 54
-83.692459 41.713753 -6.934052 78 92 93
-83.482788 41.684067 -6.9141054 94 110 115
-83.309586 41.695847 -6.9008203 128 134 139
-83.10778 41.676544 -6.8602114 103 114 99
-82.910538 41.739525 -6.8461556 110 123 100
-82.696609 41.666542 -6.8429184 113 128 98
-82.52404 41.711872 -6.8793831 88 106 73
-82.299812 41.688992 -6.8748946 75 93 66
-82.084297 41.693901 -6.9136462 71 91 67
-81.876106 41.713894 -6.9443626 66 84 65
-81.662346 41.775936 -6.9724755 75 93 85
-81.413879 41.724766 -6.9804287 113 124 130
-81.304352 41.730831 -6.9576259 131 135 146
-81.085518 41.668289 -6.8996949 134 137 152
-80.912521 41.684639 -6.919034 81 90 102
-80.683838 41.683949 -6.9359899 76 86 102
-80.477295 41.698166 -6.9280009 80 95 108
-80.244095 41.654617 -6.9596376 74 88 104
-80.132332 41.665096 -6.9397707 99 107 125
-79.956284 41.754131 -6.9894338 79 87 110
-79.649429 41.616982 -6.9695921 64 69 82
-79.252777 41.721607 -6.9610496 126 128 146
-79.076752 41.683319 -6.9435453 83 85 106
-78.877838 41.701092 -6.9229264 171 163 191
-78.69532 41.699558 -6.9589863 140 139 162
-78.513794 41.710361 -6.9641008 117 114 133
-78.320435 41.72047 -6.9451299 125 119 140
-78.190666 41.737965 -6.9981484 130 125 150
-77.810577 41.66848 -6.9523911 149 147 184
-75.93177 41.761219 -6.8734117 81 84 65
-84.038895 41.868744 -6.8747458 73 89 51
-83.906807 41.870205 -6.9048977 62 78 50
-83.687294 41.906624 -6.8676925 63 78 57
-83.504814 41.873135 -6.9053073 81 95 98
-83.303284 41.90036 -6.8661089 71 83 83
-83.099693 41.88163 -6.8647442 102 114 105
-82.813217 41.88443 -6.8505516 99 117 84
-82.663445 41.907677 -6.8456507 95 116 78
-82.438644 41.885548 -6.8381147 83 105 69
-82.298119 41.846699 -6.8215261 78 98 69
-82.13166 41.839584 -6.8688927 60 79 55
-81.900482 41.865799 -6.9154286 58 78 55
-81.74411 41.905182 -6.9167781 63 81 70
-81.50605 41.848347 -6.9382796 83 95 98
-81.240829 41.899094 -6.9724555 106 110 118
-81.120354 41.862995 -6.9537277 119 122 133
-80.907349 41.89954 -6.9639874 80 92 105
-80.682808 41.88039 -6.9736924 102 117 135
-80.525208 41.862423 -6.9532094 71 85 98
-80.319901 41.886124 -6.8959446 32 53 47
-80.091492 41.874123 -6.9152155 47 67 68
-79.935585 41.950089 -6.8769164 77 94 91
-79.654495 41.868195 -6.9429812 154 156 175
-79.485268 41.886562 -6.9639068 119 124 137
-79.342499 41.899475 -6.929678 148 150 171
-79.099319 41.878338 -6.9626489 123 122 144
-78.904907 41.910786 -6.9660997 157 151 175
-78.71312 41.972553 -6.9115748 94 97 117
-78.498581 41.929729 -6.9566445 103 105 123
-78.312584 41.869099 -6.9715276 120 118 133
-78.111694 41.904293 -6.9427376 191 187 214
-77.838097 41.939842 -6.942512 148 144 176
-76.45269 41.931377 -6.8764133 116 120 95
-76.305984 41.915527 -6.9674492 93 94 84
-76.081825 41.882523 -6.9467864 97 102 86
-75.907341 41.915047 -6.9436049 95 103 85
-75.717766 41.898495 -6.9755654 104 111 93
-83.610367 42.019482 -6.8855658 57 76 53
-83.472824 42.110546 -6.8708901 62 80 53
-83.271454 42.086948 -6.8607726 70 85 61
-83.083008 42.12077 -6.8402643 73 90 64
-82.935173 42.044983 -6.8272281 77 100 63
-82.786835 42.021271 -6.8448815 93 111 75
-82.010284 42.100533 -6.8763075 62 84 56
-81.901901 42.122444 -6.87815 56 76 53
-81.691338 42.101303 -6.9385867 69 85 67
-81.511322 42.135571 -6.9424629 74 88 70
-81.288506 42.098038 -6.9452972 91 99 92
-81.08744 42.121376 -6.9513335 97 107 96
-80.870796 42.108501 -6.9365792 74 88 83
-80.735893 42.117939 -6.949019 76 95 80
-80.492638 42.115677 -6.9720345 97 117 100
-80.344833 42.180397 -6.9726853 62 89 54
-79.931129 42.031921 -6.9026327 65 81 81
-79.710976 42.076946 -6.8940215 125 131 144
-79.507744 42.062717 -6.9047484 115 116 137
-79.27861 42.082253 -6.9593859 122 121 154
-79.095924 42.138649 -6.9388161 124 123 149
-78.891014 42.064911 -6.930326 155 154 177
-78.695572 42.071552 -6.9511766 106 109 130
-78.51886 42.102669 -6.9385557 104 106 127
-78.314194 42.058075 -6.9573479 159 153 182
-78.105919 42.091599 -6.9666119 139 138 167
-77.889893 42.062294 -6.9566154 171 161 195
-77.753517 42.162415 -6.9450808 58 55 62
-77.473549 42.071724 -6.9679728 99 91 117
-77.315475 42.167099 -6.8920527 115 106 135
-76.497978 42.04158 -6.9562287 110 116 90
-76.324265 42.040974 -6.9253774 114 113 89
-76.12542 42.090233 -6.9650269 101 104 86
-75.943588 42.09856 -6.992733 102 106 90
-75.746605 42.073803 -6.9549484 95 94 80
-83.306305 42.215218 -6.8354239 83 95 59
-83.082161 42.261871 -6.8601241 70 88 56
-82.863846 42.282043 -6.8460817 73 92 64
-82.04969 42.252583 -6.8785343 66 86 55
-81.898132 42.321865 -6.8744121 65 85 57
-81.695335 42.292728 -6.9068599 79 96 68
-81.505577 42.306427 -6.9139009 86 99 74
-81.288681 42.314774 -6.9331341 99 113 86
-81.085342 42.301342 -6.9253941 84 101 73
-80.896317 42.314087 -6.9293551 67 86 61
-80.708252 42.321678 -6.923943 83 105 72
-80.495872 42.30965 -6.9322729 76 97 66
-80.31514 42.322842 -6.9427571 53 72 51
-79.488144 42.23774 -6.8657084 67 75 79
-79.286049 42.293186 -6.9538178 133 131 155
-79.070793 42.347534 -6.8446994 98 103 106
-78.924171 42.298092 -6.9070644 140 135 155
-78.706635 42.300282 -6.8757691 126 129 139
-78.447701 42.271679 -6.958065 67 73 86
-78.263115 42.276875 -6.9782338 91 96 115
-78.10881 42.306278 -6.9625711 113 110 132
-77.925529 42.268211 -6.9649024 102 99 125
-77.72683 42.316772 -6.9387574 118 110 134
-77.501915 42.292969 -6.9434719 167 154 184
-77.381721 42.302124 -6.9447551 110 101 119
-76.515572 42.303249 -6.9481497 110 121 104
-76.144669 42.232422 -6.9430799 116 120 91
-75.827736 42.2169 -6.9732924 102 108 93
-82.076904 42.461208 -6.8411717 79 100 65
-81.900574 42.502579 -6.8515139 69 84 61
-81.685295 42.488251 -6.9094315 72 89 61
-81.48185 42.512146 -6.9055619 84 95 72
-81.301659 42.493938 -6.8764935 100 117 83
-81.103577 42.483334 -6.8696952 89 107 71
-80.906158 42.470497 -6.8815103 74 92 63
-80.705589 42.498901 -6.8568525 78 103 66
-80.469162 42.465458 -6.8769999 62 84 54
-80.309341 42.477768 -6.9087057 52 73 50
-80.134567 42.496475 -6.9607573 43 67 47
-79.836937 42.541428 -6.976315 76 99 70
-79.781952 42.573204 -6.985271 87 113 78
-79.263855 42.409264 -6.9214907 64 64 82
-78.839661 42.454136 -6.8046451 108 101 125
-78.685394 42.554424 -6.8896523 127 145 137
-78.313324 42.429153 -6.9157953 101 95 121
-78.115044 42.496998 -6.9246368 94 95 113
-77.923683 42.497597 -6.893681 71 76 81
-77.652092 42.460831 -6.9788313 108 102 123
-77.475945 42.439941 -6.9041615 89 85 101
-77.325966 42.460251 -6.9762082 81 72 84
-76.736526 42.503342 -6.9687443 101 115 93
-75.159424 42.42733 -6.9394112 116 111 117
-82.200111 42.699226 -6.811202 92 113 73
-82.065094 42.763622 -6.8225074 91 112 73
-81.985451 42.797291 -6.8554983 89 108 79
-81.695084 42.690281 -6.8698568 77 95 64
-81.505013 42.670094 -6.8475738 87 107 71
-81.296288 42.692589 -6.8397837 90 111 74
-81.080399 42.705799 -6.8502264 84 108 63
-80.914116 42.726898 -6.8327217 74 102 60
-80.723373 42.660408 -6.8477936 78 103 66
-80.530655 42.69574 -6.8477182 70 97 56
-80.28923 42.674633 -6.8587308 59 83 52
-80.10099 42.707397 -6.9112086 55 75 53
-79.907227 42.733006 -6.9173822 81 99 69
-79.705376 42.726749 -6.9494176 74 94 66
-79.512718 42.686016 -6.9573264 54 73 67
-79.374481 42.755348 -6.972106 85 100 100
-79.062592 42.677139 -6.945426 92 106 107
-78.68364 42.632359 -6.9206872 136 153 133
-78.458755 42.775265 -6.872364 126 146 121
-78.392303 42.728085 -6.9166889 105 122 102
-78.067894 42.654709 -6.9851389 69 88 103
-76.898712 42.793476 -6.9418659 95 107 87
-76.595688 42.732265 -6.9325809 112 118 102
-76.235176 42.787178 -6.9525447 122 127 105
-76.003616 42.746372 -6.974247 106 111 96
-82.20108 42.886333 -6.8126335 94 114 77
-82.076271 42.961884 -6.8287601 93 110 76
-81.894249 42.899395 -6.8293972 91 109 75
-81.671852 42.911884 -6.8762102 87 107 68
-81.517517 42.879536 -6.869472 89 107 70
-81.349854 42.927784 -6.8307714 103 128 80
-81.066139 42.837967 -6.8544021 100 130 79
-80.802284 42.802589 -6.8336544 67 88 57
-80.740761 42.834858 -6.8244572 74 97 59
-80.512222 42.896111 -6.8597851 73 97 58
-80.264961 42.876373 -6.8552985 65 87 59
-80.091644 42.928013 -6.8921947 87 102 73
-79.916191 42.868092 -6.9118071 91 110 74
-79.736847 42.921055 -6.9113684 81 100 69
-79.47345 42.924004 -6.9387789 84 104 80
-79.328506 42.91272 -6.9646311 68 90 70
-79.060402 42.903397 -6.9678783 113 126 115
-78.865402 42.90416 -6.918786 83 93 83
-78.634102 42.943871 -6.8903942 90 104 87
-78.495796 42.886597 -6.8678226 131 149 114
-78.370583 42.850231 -6.951159 95 106 90
-78.051933 42.848759 -6.8613224 78 75 82
-77.667778 42.916588 -6.9890308 109 117 106
-77.514244 42.906742 -6.9673309 109 111 107
-77.333168 42.954029 -6.9150553 106 114 102
-77.08403 42.927925 -6.8822174 102 109 98
-76.938385 42.907227 -6.9206719 99 106 93
-76.70536 42.918758 -6.974308 103 112 93
-76.092117 42.891247 -6.9810457 118 122 105
-75.901245 42.929398 -6.9809051 120 120 107
-75.645012 42.976513 -6.9710956 111 108 100
-82.114655 43.117088 -6.8149514 80 98 70
-81.902184 43.064148 -6.8141384 94 111 80
-81.686401 43.114464 -6.8461146 82 101 70
-81.483833 43.086388 -6.8731122 90 108 74
-81.368721 43.139664 -6.8393278 87 105 71
-80.870094 43.104027 -6.8507433 61 86 46
-80.698814 43.088558 -6.8265719 78 106 66
-80.508423 43.125946 -6.8604074 96 118 78
-80.286751 43.086201 -6.8698883 79 96 68
-80.106102 43.115108 -6.8812346 92 107 77
-79.911896 43.092461 -6.8943996 90 111 74
-79.707146 43.138859 -6.8696737 81 103 65
-79.502739 43.066414 -6.8778033 104 126 89
-79.352615 43.095661 -6.8867211 80 102 72
-79.070236 43.12077 -6.9540548 87 105 83
-78.878601 43.091618 -6.8859053 131 150 113
-78.714989 43.113213 -6.9009938 110 126 94
-78.512245 43.108093 -6.8964634 97 110 89
-78.290344 43.155529 -6.9508982 96 107 99
-78.075958 43.101318 -6.9356389 89 99 88
-77.943459 43.123562 -6.9223399 122 119 109
-77.735397 43.16473 -6.9313741 121 126 117
-77.562965 43.169434 -6.8834157 139 141 128
-77.274399 43.084 -6.9296317 102 110 94
-77.08651 43.116463 -6.9076324 111 116 106
-76.929184 43.077816 -6.91328 112 113 100
-76.656204 43.106846 -6.9557028 123 127 112
-76.364075 43.197487 -6.9512768 119 108 104
-75.942833 43.172653 -6.9293814 143 128 128
-75.735435 43.108593 -6.9821167 115 112 106
-82.225975 43.336945 -6.8095102 82 95 69
-81.886887 43.313194 -6.8178015 103 120 88
-81.689064 43.266052 -6.8240724 95 113 85
-81.486443 43.30196 -6.8560166 99 114 84
-81.314667 43.25568 -6.9002385 88 106 72
-81.123505 43.300644 -6.8581076 94 115 73
-80.882286 43.260422 -6.8466616 79 101 65
-80.720039 43.313545 -6.8662276 103 117 81
-80.494835 43.299515 -6.8501329 105 126 82
-80.309792 43.302002 -6.8595076 98 120 75
-80.099701 43.300308 -6.8545604 86 107 71
-79.918533 43.317657 -6.8955026 73 94 61
-79.70591 43.268482 -6.8867025 90 109 73
-79.486931 43.330898 -6.9057002 90 107 73
-79.315781 43.278923 -6.901535 79 93 70
-79.106216 43.291821 -6.9635429 106 117 95
-78.878242 43.209274 -6.8425841 126 147 112
-78.701599 43.306126 -6.8561854 132 144 110
-78.510986 43.262077 -6.9099646 102 111 88
-78.344925 43.322487 -6.945756 88 100 88
-78.094673 43.271675 -6.9566388 122 125 119
-77.892662 43.289349 -6.9371986 143 138 135
-77.71109 43.274006 -6.9052892 136 133 130
-77.487511 43.306671 -6.8821707 142 146 127
-77.297356 43.3116 -6.8890281 136 142 121
-77.117538 43.274788 -6.931778 126 126 118
-76.925346 43.253181 -6.9608002 120 116 107
-76.755981 43.320541 -6.9325304 109 109 98
-76.495247 43.287388 -6.9482336 120 114 107
-76.256912 43.305405 -6.9502769 120 114 106
-76.055595 43.284626 -6.9979944 122 113 115
-75.96608 43.349369 -6.9494762 117 109 100
-81.67157 43.452354 -6.8211498 97 112 87
-81.526207 43.51041 -6.8250566 104 116 91
-81.326225 43.484077 -6.8488188 97 109 80
-81.12606 43.51936 -6.8526063 99 116 78
-80.880936 43.479561 -6.9009414 88 104 72
-80.676872 43.51886 -6.8672585 100 116 84
-80.481743 43.475758 -6.8539276 112 124 92
-80.281181 43.550152 -6.8567252 114 124 91
-80.075806 43.44521 -6.8645816 95 113 73
-79.895386 43.48793 -6.859488 97 115 80
-79.698776 43.465893 -6.9096084 86 102 70
-79.498695 43.528076 -6.9132986 99 112 82
-79.32563 43.466625 -6.9408054 99 104 82
-79.136009 43.48579 -6.9607887 104 112 94
-78.909599 43.484726 -6.9333029 110 119 102
-78.676598 43.499416 -6.8975668 117 122 102
-78.500763 43.442062 -6.940989 115 119 102
-78.298775 43.494209 -6.9726658 112 118 104
-78.127556 43.49107 -6.9534035 119 121 113
-77.882362 43.497734 -6.9473329 146 137 148
-77.666725 43.496975 -6.9305916 136 133 131
-77.493446 43.488228 -6.8727188 116 121 110
-77.30835 43.506451 -6.9477487 140 138 131
-76.714798 43.430878 -6.9709058 114 114 104
-76.489571 43.479401 -6.9567227 111 108 101
-76.301788 43.503006 -6.9083076 113 105 100
-76.146088 43.452408 -6.9496703 121 113 108
-81.628128 43.636562 -6.8078637 99 111 82
-81.470161 43.736782 -6.8070345 107 119 92
-81.266006 43.702637 -6.8331423 109 120 96
-81.070129 43.750698 -6.824172 108 119 90
-80.885773 43.66246 -6.8669362 112 125 93
-80.713203 43.707371 -6.8718619 102 113 86
-80.50312 43.700905 -6.8845553 114 121 96
-80.332306 43.755791 -6.8980408 111 118 92
-80.069519 43.694263 -6.9084764 116 124 95
-79.886238 43.69957 -6.8919988 118 122 103
-79.684288 43.671127 -6.8966255 112 119 101
-79.504181 43.726391 -6.930831 122 123 109
-79.292877 43.697117 -6.9343815 116 120 102
-79.103378 43.730965 -6.9547834 111 116 102
-78.925888 43.706059 -6.9604702 118 123 105
-78.70871 43.693996 -6.9478106 113 117 108
-78.491158 43.724091 -6.9673367 116 118 109
-78.342979 43.691257 -6.9773536 107 112 100
-78.111252 43.664307 -6.9582419 121 121 115
-77.908012 43.682281 -6.9387536 113 113 108
-77.723785 43.745724 -6.948781 114 116 106
-77.456032 43.638783 -6.9316649 115 116 109
-77.297623 43.733768 -6.9304194 137 129 127
-77.127007 43.736195 -6.9526701 116 111 112
-76.983536 43.75581 -6.9699135 148 140 141
-76.292953 43.678978 -6.9582939 110 105 102
-81.289658 43.848553 -6.8152742 103 112 90
-81.131912 43.958977 -6.8186493 114 123 102
-80.898338 43.883503 -6.8309951 104 115 89
-80.675804 43.842773 -6.8314285 104 119 81
-80.487709 43.890717 -6.8436503 98 112 78
-80.257416 43.833858 -6.8556123 100 106 85
-80.112488 43.891232 -6.8777742 109 115 97
-79.901909 43.898571 -6.8668046 118 120 107
-79.700737 43.894001 -6.9000239 117 118 106
-79.490173 43.868679 -6.9139509 130 132 117
-79.296707 43.921242 -6.9269972 121 126 108
-79.111031 43.868702 -6.9191856 107 113 96
-78.915771 43.90799 -6.9344687 116 120 106
-78.710594 43.925579 -6.934525 117 118 106
-78.507004 43.903488 -6.9428682 115 119 107
-78.330841 43.87093 -6.9292769 116 120 108
-78.11673 43.901703 -6.9321661 118 124 111
-77.898972 43.922512 -6.9745798 128 127 118
-77.647926 43.899887 -6.9623814 136 131 124
-77.515442 43.890202 -6.9464083 117 119 108
-77.342514 43.869953 -6.9710913 131 127 121
-77.093803 43.849098 -6.9208016 117 116 110
-76.91684 43.896877 -6.9352694 130 121 121
-76.748009 43.894928 -6.9695945 130 120 123
-76.469139 43.994068 -6.9764547 118 114 114
-80.927277 44.064053 -6.8124461 122 127 112
-80.7873 44.023655 -6.811718 127 129 116
-80.496925 44.064579 -6.835464 107 120 94
-80.294571 44.073193 -6.8582764 113 122 98
-80.116562 44.125793 -6.8624907 112 116 98
-79.868782 44.085052 -6.8806872 114 119 103
-79.697472 44.122059 -6.8699574 114 115 100
-79.474937 44.071156 -6.8697062 108 116 96
-79.301704 44.114651 -6.8957276 107 116 96
-79.092926 44.069767 -6.8993564 110 118 95
-78.93969 44.103699 -6.915585 118 122 107
-78.703087 44.070568 -6.9304323 116 122 104
-78.500587 44.137833 -6.9370656 123 126 109
-78.310272 44.069786 -6.9498796 116 118 105
-78.063919 44.122952 -6.9605541 120 119 112
-77.925117 44.061954 -6.9550529 113 112 107
-77.754585 44.142506 -6.9647789 125 118 115
-77.484344 44.091698 -6.9629464 136 129 125
-77.286812 44.085083 -6.9417229 137 130 132
-77.115005 44.123417 -6.9507093 101 95 92
-76.948868 44.112415 -6.9575415 125 116 113
-76.686974 44.09977 -6.9080982 119 114 113
-76.558449 44.110809 -6.8960156 111 106 106
-80.349335 44.227112 -6.8065324 117 122 102
-80.130974 44.26244 -6.8436365 121 126 108
-79.889488 44.267651 -6.8405566 114 118 102
-79.739838 44.325428 -6.851923 118 120 100
-79.484337 44.285442 -6.8730798 110 117 97
-79.306961 44.321716 -6.8661752 111 117 98
-79.101509 44.272198 -6.8910298 118 121 104
-78.890152 44.266491 -6.8933182 123 126 114
-78.667313 44.307667 -6.8953476 120 124 113
-78.512917 44.368069 -6.9288754 113 115 106
-78.33773 44.290997 -6.9375472 122 121 112
-78.160995 44.303875 -6.9437017 111 108 104
-77.943184 44.246346 -6.970768 122 119 115
-77.734779 44.334057 -6.9557076 124 118 116
-77.479958 44.308941 -6.9375982 132 124 120
-77.330063 44.313366 -6.9536886 135 127 127
-77.069031 44.285511 -6.933485 126 119 114
-76.851158 44.203831 -6.8985157 110 107 104
-79.892815 44.455231 -6.8486676 115 121 102
-79.492828 44.475121 -6.8413229 126 129 110
-79.281876 44.532074 -6.8328772 123 125 110
-79.08905 44.491989 -6.8652864 122 123 108
-78.897263 44.471813 -6.8905301 120 122 111
-78.712601 44.511787 -6.8865843 124 123 115
-78.479362 44.500412 -6.9186044 124 123 113
-78.280266 44.548573 -6.9274788 125 124 116
-78.109261 44.503803 -6.9449992 115 114 105
-77.926682 44.488697 -6.9518266 126 124 118
-77.523407 44.495609 -6.9516854 132 123 122
-77.36174 44.467567 -6.9428554 140 126 134
-79.910378 44.610981 -6.8177643 153 151 136
-79.69986 44.688023 -6.8335814 123 125 111
-79.488899 44.719242 -6.8431177 135 135 123
-79.204948 44.642929 -6.8447661 117 120 107
-79.053085 44.741493 -6.8328705 131 127 117
-78.892273 44.62878 -6.8667288 130 127 117
-78.74054 44.723465 -6.8602805 131 128 117
-78.52639 44.672188 -6.9256792 127 127 112
-78.334198 44.726948 -6.894207 115 115 103
-78.072548 44.666939 -6.9144015 103 104 94
-77.955574 44.697491 -6.9022088 118 117 105
-77.709137 44.681591 -6.9055305 122 118 115
-77.425598 44.6106 -6.9066634 123 115 115
-77.262512 44.666771 -6.8678398 134 125 125
-79.321915 44.823166 -6.8018708 114 117 104
-79.148521 44.938946 -6.8115916 124 128 114
-78.885681 44.856789 -6.8223314 132 132 117
-78.665527 44.937798 -6.8448744 112 112 98
-78.482605 44.901718 -6.8611498 119 120 104
-78.237381 44.984253 -6.897212 131 133 114
-78.106621 44.879536 -6.9115491 122 124 109
-77.989052 44.966763 -6.9632225 137 136 114
-77.400116 44.812119 -6.998157 142 139 120
-78.967659 45.038773 -6.805625 125 127 116
-78.506027 45.080921 -6.8380508 136 137 120
-78.304527 45.132679 -6.8589702 123 122 112
-78.039085 45.104786 -6.9122076 124 123 103
-77.800323 45.070938 -6.9596052 129 124 110
-77.703636 45.179935 -6.9560213 142 133 118
-77.451462 45.084179 -6.9369268 185 180 160
-77.390007 45.029415 -6.9916248 140 128 117
-78.47522 45.352432 -6.8029442 104 104 95
-78.322205 45.348362 -6.8627572 117 115 106
-78.167511 45.288536 -6.914546 129 125 113
-77.939743 45.299686 -6.9138365 129 124 113
-77.73494 45.320229 -6.9445114 146 138 128
-77.495117 45.211811 -6.986433 157 142 131
-78.054451 45.517323 -6.8547421 102 96 91
-77.90387 45.539642 -6.8550138 117 111 106
-76.319199 30.453369 -6.7533655 107 111 77
-76.457253 30.676378 -6.7030911 97 103 65
-76.297722 30.725735 -6.6926069 99 112 82
-76.429146 30.959503 -6.7133284 107 121 88
-76.300568 30.89686 -6.6902213 131 141 110
-76.176689 30.891939 -6.6884804 100 115 83
-75.886162 30.919304 -6.733408 122 133 100
-76.446915 31.110508 -6.7355881 79 94 61
-76.272926 31.093266 -6.6980753 96 110 78
-76.137115 31.073927 -6.7047672 104 119 88
-75.898338 31.062933 -6.7158079 106 117 85
-75.661713 31.124802 -6.7271824 130 145 108
-75.582817 31.153145 -6.7005291 121 135 103
-75.336807 31.080795 -6.791832 117 136 101
-74.825043 31.130611 -6.7612925 104 106 91
-74.65992 31.167349 -6.7984314 108 118 90
-76.418533 31.240513 -6.7347794 97 112 79
-76.318916 31.289473 -6.6879921 107 125 95
-76.145813 31.372868 -6.7883611 86 107 76
-75.942207 31.369465 -6.7790775 98 107 73
-75.655846 31.287947 -6.6798081 130 149 112
-75.263206 31.300409 -6.7694616 131 140 109
-74.898697 31.228565 -6.7868614 102 112 85
-74.731125 31.27636 -6.6920924 103 109 78
-73.924553 31.324509 -6.7953553 104 104 84
-79.131706 31.57089 -6.7650776 77 96 50
-78.359695 31.468107 -6.7602692 85 103 55
-75.29705 31.519926 -6.7039118 109 123 91
-75.081291 31.45962 -6.7629113 107 115 82
-74.865044 31.43268 -6.7532816 98 106 80
-74.73938 31.402796 -6.7928171 95 105 78
-74.550179 31.569262 -6.7614031 124 119 117
-74.290916 31.542429 -6.7607522 105 114 93
-74.053764 31.488493 -6.6878719 114 115 95
-79.146072 31.769295 -6.6991568 75 95 47
-78.272438 31.618044 -6.7984314 84 102 55
-77.424225 31.674988 -6.7924881 66 90 38
-77.368813 31.744822 -6.7621121 78 102 54
-75.318962 31.686312 -6.6748986 111 125 95
-75.105667 31.722031 -6.6662841 122 137 106
-74.924446 31.708694 -6.7450891 87 98 71
-74.698326 31.725529 -6.6639071 100 110 88
-74.495163 31.696106 -6.6897149 107 110 93
-74.291748 31.678968 -6.7214136 131 136 115
-74.064453 31.70293 -6.7258654 127 128 112
-73.914383 31.746038 -6.7286615 111 115 97
-73.754478 31.700138 -6.7530975 90 96 78
-78.078484 31.927509 -6.7039814 81 102 56
-77.900284 31.904963 -6.7581873 103 125 78
-76.431686 31.961193 -6.7573633 127 135 96
-75.92852 31.990107 -6.7705717 128 136 99
-75.648079 31.856068 -6.7194061 106 120 88
-75.452377 31.9293 -6.7397194 105 117 83
-75.269478 31.925211 -6.686923 101 116 88
-75.141357 31.944162 -6.7448993 82 98 70
-74.94873 31.899137 -6.7065802 100 112 84
-74.724243 31.94869 -6.7133226 125 126 103
-74.486946 31.928692 -6.7079372 122 131 109
-74.306396 31.874702 -6.6746531 128 136 114
-74.100723 31.893362 -6.6918845 115 114 100
-73.95517 31.890314 -6.6245561 61 50 48
-79.207184 32.063492 -6.7597208 77 103 56
-79.045517 32.071766 -6.7124176 87 111 58
-78.496117 32.137512 -6.7713375 69 91 51
-78.105911 32.052994 -6.6748877 101 124 75
-77.936333 32.079628 -6.7445054 92 121 77
-77.475845 32.10762 -6.7672853 101 121 71
-77.345558 32.119522 -6.7886162 78 104 57
-75.706894 32.104122 -6.671731 104 118 81
-75.510925 32.141678 -6.7415371 99 115 85
-75.340752 32.119896 -6.6964078 105 120 90
-75.134102 32.107872 -6.7289367 112 129 103
-74.886215 32.079926 -6.710598 112 116 93
-74.729088 32.105515 -6.6754351 135 139 115
-74.500244 32.094315 -6.6691074 112 120 98
-74.311165 32.069294 -6.7073016 114 120 99
-74.161415 32.024433 -6.6176171 146 148 134
-73.403816 32.107948 -6.6663189 91 95 72
-73.278954 32.099026 -6.7444906 57 71 50
-73.192871 32.133389 -6.6617894 57 72 49
-79.256058 32.291138 -6.7237511 90 113 66
-79.10276 32.278938 -6.6591973 79 103 57
-78.906693 32.351501 -6.7705879 89 110 62
-78.654427 32.291348 -6.7233615 60 81 39
-78.486191 32.265945 -6.698514 78 96 56
-78.142395 32.356869 -6.7098689 100 124 76
-77.97271 32.374184 -6.7264643 90 121 75
-77.458733 32.318428 -6.7054543 93 115 64
-76.463737 32.351284 -6.7192917 83 98 63
-76.303734 32.314014 -6.624959 118 139 96
-75.924149 32.395935 -6.7908621 100 110 81
-75.656418 32.316612 -6.7474799 109 119 91
-75.549255 32.323734 -6.7435679 103 114 87
-75.284744 32.304741 -6.6999598 92 110 79
-75.121178 32.316498 -6.7543006 120 129 107
-74.68647 32.296848 -6.6438746 117 122 102
-74.525787 32.292294 -6.7220135 111 117 98
-74.342308 32.263893 -6.6752772 112 118 98
-73.636627 32.34174 -6.7098198 108 123 98
-73.485069 32.243912 -6.67203 82 93 72
-73.234619 32.204636 -6.6241322 98 114 88
-73.056 32.348148 -6.6018744 60 74 51
-72.931824 32.287563 -6.7150855 104 114 93
-72.796738 32.341618 -6.7151113 49 62 45
-79.317093 32.510464 -6.7695327 97 123 70
-79.106758 32.50301 -6.7901435 81 107 60
-78.967377 32.477112 -6.6513176 66 87 39
-78.056091 32.500828 -6.71384 85 116 65
-77.926338 32.443691 -6.6661634 90 117 67
-77.473999 32.555954 -6.6832147 96 124 73
-75.821228 32.469032 -6.681006 130 141 112
-75.695595 32.477383 -6.7065206 95 111 84
-75.479736 32.482872 -6.7002397 106 121 90
-75.313591 32.530216 -6.6883101 111 123 95
-75.126404 32.505714 -6.7094307 109 115 90
-74.913727 32.488857 -6.6985908 101 111 86
-74.707474 32.458057 -6.6964884 130 132 111
-74.529312 32.456535 -6.7157145 99 104 82
-74.157593 32.410816 -6.617444 83 100 74
-73.681519 32.530304 -6.6103859 80 93 71
-73.495552 32.528904 -6.6858048 63 73 53
-72.826973 32.463192 -6.7120929 89 97 76
-72.760262 32.539543 -6.6287394 108 110 97
-72.574051 32.487335 -6.7748299 101 114 97
-79.593285 32.683212 -6.6497817 83 104 56
-79.104622 32.646984 -6.6110854 87 105 57
-78.146423 32.72551 -6.7675066 104 126 77
-77.932274 32.650227 -6.7353792 95 122 74
-77.713173 32.709602 -6.7107949 103 123 70
-77.515236 32.719486 -6.6976962 89 114 65
-77.381233 32.666744 -6.6865625 87 114 60
-76.130493 32.738926 -6.6983194 126 130 98
-75.856651 32.69273 -6.7156181 124 135 108
-75.660843 32.661243 -6.6918912 115 131 101
-75.491081 32.695034 -6.6983318 97 115 83
-75.314835 32.708454 -6.6903062 106 119 90
-75.11705 32.696053 -6.7178521 105 113 88
-74.894539 32.687164 -6.6937618 113 122 100
-74.33152 32.731792 -6.714467 95 102 78
-73.934105 32.718945 -6.7158008 73 89 73
-73.777794 32.707558 -6.6503448 88 98 79
-73.465851 32.748272 -6.6996865 80 92 77
-73.307571 32.691566 -6.7021761 71 81 61
-72.947395 32.73481 -6.7885771 104 102 78
-72.638939 32.706154 -6.7204952 77 87 68
-77.835052 32.890526 -6.7731094 86 115 64
-77.715706 32.903915 -6.6991425 93 116 68
-77.489967 32.915001 -6.7905831 73 99 54
-77.235687 32.979233 -6.7510715 82 109 63
-76.068619 32.889633 -6.6860833 115 123 94
-75.946045 32.884132 -6.7157702 124 132 105
-75.741127 32.902996 -6.722362 115 134 97
-75.521767 32.91766 -6.6720767 105 124 91
-75.26799 32.884342 -6.682652 91 109 77
-75.089279 32.914005 -6.7070503 106 115 89
-74.900887 32.878017 -6.6574664 112 120 98
-74.681435 32.999374 -6.6005392 109 118 95
-74.341118 32.890652 -6.6430607 73 82 64
-74.029968 32.906113 -6.6499577 89 101 85
-73.975266 32.918427 -6.6817808 76 89 73
-73.705666 32.908978 -6.7031627 62 84 64
-73.510788 32.901695 -6.6701789 69 80 64
-73.327362 32.913616 -6.7279654 83 98 74
-73.0793 32.90918 -6.7009792 90 105 80
-72.854973 32.948128 -6.7403545 89 87 68
-72.421417 32.993874 -6.7668786 73 83 56
-72.281006 32.903141 -6.7078743 129 121 106
-72.164688 32.825806 -6.7372475 167 157 146
-71.837334 32.983761 -6.7487822 141 156 125
-77.816284 33.042744 -6.6752305 111 134 88
-77.750702 33.135036 -6.7081285 87 114 65
-77.482185 33.096531 -6.7469378 92 117 77
-77.337227 33.103836 -6.7688484 93 118 73
-76.013474 33.035034 -6.6987443 105 121 93
-75.899933 33.090782 -6.7072587 96 108 79
-75.694023 33.113495 -6.6477771 112 130 100
-75.478798 33.148914 -6.6783991 111 129 99
-75.269638 33.097843 -6.6975636 122 127 106
-75.107521 33.092056 -6.6826406 105 116 91
-74.903885 33.081646 -6.6717229 102 111 88
-74.698395 33.131966 -6.6194434 72 80 62
-74.5392 33.130363 -6.643796 98 105 89
-74.348541 33.070557 -6.6736512 59 74 56
-74.0802 33.128212 -6.7207499 70 82 66
-73.864052 33.142914 -6.6992249 77 92 73
-73.727829 33.074448 -6.701004 68 81 61
-73.504044 33.07373 -6.7078638 82 93 74
-73.337784 33.122723 -6.7424402 85 98 82
-73.083496 33.094299 -6.6962099 74 89 65
-72.920296 33.069687 -6.6830902 119 119 101
-72.674225 33.123436 -6.7033925 89 103 80
-72.507607 33.098442 -6.7224298 84 99 74
-72.356956 33.140915 -6.739109 100 115 90
-72.092697 33.192127 -6.7513986 122 125 100
-71.895981 33.11433 -6.7152405 106 119 93
-79.286118 33.327713 -6.7221317 77 95 47
-79.169518 33.353786 -6.6751819 72 95 49
-77.487961 33.306934 -6.7232614 85 108 63
-77.352249 33.238815 -6.7160959 77 99 58
-76.290504 33.380699 -6.7371426 101 112 72
-76.027245 33.330963 -6.6684866 119 148 108
-75.882072 33.312405 -6.6848898 76 96 63
-75.71666 33.283264 -6.6824641 92 112 79
-75.485306 33.31303 -6.712976 119 132 104
-75.313171 33.28157 -6.6988759 107 119 95
-75.124214 33.297195 -6.7220254 100 106 87
-74.951088 33.286819 -6.6938891 101 109 86
-74.675491 33.322132 -6.6517439 118 127 109
-74.476883 33.356102 -6.6494713 112 118 106
-74.27198 33.339622 -6.7013535 82 98 79
-74.121933 33.29731 -6.683115 83 93 78
-73.892044 33.351475 -6.7106814 72 86 71
-73.721558 33.303768 -6.7285376 59 74 56
-73.472008 33.300327 -6.7222271 82 98 77
-73.307655 33.275818 -6.7110391 94 111 88
-73.096115 33.282326 -6.7019281 57 79 54
-72.856895 33.310368 -6.6858983 66 86 60
-72.67968 33.305485 -6.7041626 86 95 74
-72.565063 33.265068 -6.6839647 81 89 67
-72.322189 33.31356 -6.6968265 106 117 92
-72.124237 33.3405 -6.7185469 125 137 110
-71.995193 33.238319 -6.6441383 93 111 83
-71.641579 33.394505 -6.7753696 112 137 108
-79.812073 33.494293 -6.6488428 98 125 84
-79.797768 33.434849 -6.7689352 80 104 52
-79.230835 33.52692 -6.6620622 86 102 62
-79.187775 33.462025 -6.7139244 102 123 73
-78.440063 33.507378 -6.7774544 64 83 44
-77.35247 33.592937 -6.7870598 114 128 73
-76.742912 33.482067 -6.7346454 93 110 71
-76.517982 33.502254 -6.7567687 117 139 89
-76.258194 33.534615 -6.6843863 109 119 87
-76.089203 33.462894 -6.7538061 121 136 95
-75.891068 33.48661 -6.6838684 107 125 96
-75.699791 33.495979 -6.704072 97 116 82
-75.485069 33.489296 -6.6970849 102 115 87
-75.302727 33.52364 -6.6951232 97 106 83
-75.114243 33.467514 -6.6999073 102 113 88
-74.907875 33.542393 -6.6602983 107 114 98
-74.658638 33.482315 -6.6463208 103 109 93
-74.515701 33.486858 -6.7125878 78 86 72
-74.280365 33.504025 -6.6684771 83 93 78
-74.120163 33.478153 -6.6770368 93 98 84
-73.910484 33.504147 -6.7130179 68 79 65
-73.707336 33.487831 -6.6818504 52 71 53
-73.48185 33.502243 -6.7215548 76 95 77
-73.313652 33.467419 -6.7103677 92 107 87
-73.147293 33.442604 -6.7794604 69 88 61
-72.939888 33.506092 -6.7386699 70 84 62
-72.7332 33.500031 -6.696135 101 105 87
-72.495392 33.539986 -6.7069287 92 112 89
-72.28582 33.476902 -6.7100892 113 127 98
-72.10685 33.496422 -6.7162647 109 121 92
-71.809708 33.569469 -6.7657285 91 100 80
-71.71788 33.55278 -6.7318935 87 106 79
-79.715614 33.693268 -6.6215482 97 126 78
-79.196053 33.652012 -6.7595863 79 102 56
-77.40799 33.79681 -6.7946806 131 155 103
-77.347603 33.657291 -6.6346512 99 115 70
-77.082825 33.639362 -6.7970133 93 108 65
-76.612915 33.728878 -6.786984 110 138 89
-76.473839 33.749752 -6.7277131 129 157 112
-76.330978 33.710026 -6.6965051 110 126 84
-76.076973 33.736118 -6.6973977 134 146 114
-75.882584 33.691185 -6.6638179 107 122 89
-75.7099 33.702984 -6.720685 105 122 90
-75.522728 33.696575 -6.7046132 96 116 82
-75.303238 33.701981 -6.7106886 109 122 97
-75.070778 33.707687 -6.7050395 96 104 84
-74.897667 33.714725 -6.7039452 102 107 91
-74.677895 33.699673 -6.6821561 91 94 80
-74.464981 33.673672 -6.6743512 76 85 69
-74.292007 33.708199 -6.6882024 72 83 70
-74.128616 33.69733 -6.7212005 61 79 62
-73.895233 33.660519 -6.7164583 63 76 63
-73.728844 33.671787 -6.6818357 55 73 55
-73.523079 33.708294 -6.7055001 74 95 78
-73.31398 33.671688 -6.6981049 87 111 88
-73.078194 33.679634 -6.7172799 80 97 75
-72.925446 33.681503 -6.7146559 98 114 91
-72.675812 33.719872 -6.7278304 100 117 94
-72.469948 33.720905 -6.741375 103 116 90
-72.285988 33.700687 -6.7604923 88 109 88
-72.079163 33.702576 -6.7219253 93 100 75
-71.89299 33.711292 -6.6993098 101 113 92
-71.758003 33.696026 -6.6721859 85 105 76
-71.439255 33.661404 -6.6822705 120 148 114
-71.135513 33.673977 -6.7157803 69 86 56
-78.699959 33.964081 -6.6464572 121 131 94
-77.498802 33.99498 -6.7205 117 139 93
-77.264183 33.96904 -6.7100039 113 142 84
-77.052551 33.831642 -6.7710953 132 150 98
-76.687309 33.801178 -6.7684398 87 107 56
-76.47184 33.902306 -6.7314215 103 128 82
-76.281769 33.924862 -6.7073135 107 117 83
-76.093315 33.915398 -6.7269936 106 121 88
-75.884949 33.920502 -6.7000556 107 119 90
-75.685669 33.919064 -6.6963654 105 120 93
-75.495529 33.900215 -6.702704 111 123 101
-75.296005 33.928635 -6.7079167 107 116 93
-75.094116 33.900597 -6.6972351 102 111 90
-74.90847 33.897373 -6.6626039 84 95 79
-74.668694 33.92514 -6.6684308 77 90 77
-74.514694 33.916557 -6.6631546 76 92 73
-74.303345 33.921124 -6.6785846 75 90 71
-74.099495 33.877964 -6.7152305 53 69 55
-73.925941 33.89938 -6.7191515 61 80 65
-73.708427 33.910854 -6.7142677 66 86 69
-73.513794 33.861641 -6.7205706 71 92 70
-73.338371 33.869373 -6.6961927 63 88 65
-72.885841 33.891998 -6.6788254 80 102 71
-72.723015 33.884026 -6.7191973 96 112 86
-72.483231 33.878086 -6.6782584 85 104 83
-72.292946 33.913868 -6.7542634 78 99 80
-72.108772 33.892017 -6.6631536 100 114 89
-71.879524 33.950043 -6.7479835 85 110 85
-71.691292 33.932388 -6.7177935 96 117 93
-71.488838 33.865685 -6.71805 97 118 88
-71.256401 33.815243 -6.6645956 76 93 64
-70.967422 33.936161 -6.673604 85 101 67
-70.783768 33.865719 -6.6962295 102 117 78
-79.134598 34.158947 -6.7262483 77 99 60
-78.938385 34.147415 -6.6904616 72 84 43
-78.744316 34.05476 -6.7128248 76 84 48
-77.71891 34.082779 -6.7408056 91 102 66
-77.432236 34.074661 -6.735384 111 134 90
-77.297272 34.154804 -6.6738949 122 145 92
-77.026451 34.172569 -6.7538972 136 142 96
-76.939758 34.095509 -6.7838516 106 115 76
-76.720291 34.122051 -6.6815338 103 123 72
-76.463867 34.133698 -6.6834455 88 114 72
-76.262115 34.070457 -6.7237864 105 119 85
-76.116104 34.080399 -6.713131 107 125 90
-75.915344 34.087025 -6.707922 104 119 91
-75.698906 34.102791 -6.7093101 104 118 93
-75.503517 34.098686 -6.6811929 104 115 90
-75.316406 34.088905 -6.6798272 103 112 89
-75.09227 34.096519 -6.6836395 111 119 98
-74.876724 34.093456 -6.6736336 89 102 79
-74.702454 34.107628 -6.6968765 83 98 77
-74.51371 34.088593 -6.6784573 74 92 72
-74.33493 34.087143 -6.6972661 68 85 69
-74.078575 34.093067 -6.6889405 64 85 62
-73.918335 34.116722 -6.6882987 58 79 62
-73.645668 34.110718 -6.6912107 74 95 76
-73.527832 34.094013 -6.6997819 74 99 71
-73.341675 34.096977 -6.7387333 57 84 54
-72.91037 34.066452 -6.7334151 98 117 89
-72.726616 34.06131 -6.7386289 97 118 91
-72.312172 34.113556 -6.7616386 97 116 91
-72.172279 34.084709 -6.684823 94 115 86
-71.912926 34.114857 -6.7033782 101 118 93
-71.735634 34.108578 -6.7253299 107 120 93
-71.502403 34.060493 -6.7189374 101 122 90
-71.369545 34.160004 -6.7495093 123 141 103
-71.156281 34.01268 -6.7084351 94 105 80
-79.017075 34.316006 -6.7360129 65 82 44
-78.881142 34.29731 -6.7243705 89 105 65
-78.71904 34.328712 -6.6715188 78 92 53
-77.64537 34.264645 -6.7402792 93 111 68
-77.483559 34.297131 -6.7107182 110 127 82
-77.253372 34.295681 -6.7566614 91 106 66
-77.11438 34.358795 -6.67628 90 118 72
-76.963333 34.313652 -6.7299628 102 117 72
-76.695473 34.315338 -6.6729817 87 107 57
-76.476875 34.27692 -6.7440901 100 124 85
-76.276886 34.312164 -6.6946054 89 106 75
-76.123833 34.309307 -6.7152262 100 121 89
-75.915039 34.295021 -6.7030988 104 115 93
-75.704445 34.306538 -6.6900926 99 112 89
-75.502235 34.278111 -6.6859832 100 109 87
-75.297005 34.306995 -6.6865711 94 109 85
-75.114616 34.298954 -6.6815586 87 100 78
-74.90506 34.304222 -6.6953321 82 95 73
-74.71814 34.299953 -6.7362995 74 92 68
-74.505539 34.303936 -6.6842275 71 89 72
-74.340744 34.284176 -6.721395 85 101 79
-74.107796 34.333424 -6.7553139 77 107 71
-73.924622 34.317009 -6.6848202 60 85 57
-73.715164 34.30986 -6.7112923 53 77 46
-73.439423 34.316799 -6.7876358 78 101 75
-73.272774 34.301456 -6.6739736 101 120 97
-73.088814 34.292656 -6.7291617 109 125 102
-72.942802 34.256256 -6.7537994 112 126 105
-72.401405 34.314526 -6.726553 78 99 61
-72.297218 34.250511 -6.7598305 100 122 84
-72.069817 34.316387 -6.7161484 92 112 86
-71.925743 34.280499 -6.7145057 102 121 90
-71.766701 34.238026 -6.7498751 87 97 72
-70.676056 34.36454 -6.7662759 97 108 79
-70.501244 34.32436 -6.7699823 134 142 103
-78.921265 34.473869 -6.6753492 84 105 67
-78.695885 34.498638 -6.6876588 94 117 73
-77.672546 34.443542 -6.7936473 103 101 63
-77.456993 34.478573 -6.7633157 103 127 80
-77.225578 34.567963 -6.7102494 93 119 73
-77.125015 34.49493 -6.7120013 91 116 73
-76.931602 34.485672 -6.7377858 84 104 63
-76.711739 34.494213 -6.7247176 99 115 76
-76.520699 34.527943 -6.6963687 102 116 83
-76.284843 34.501877 -6.6794968 91 111 78
-76.099503 34.517113 -6.6894827 98 118 89
-75.884331 34.497372 -6.6981263 92 108 82
-75.681946 34.49601 -6.7003803 91 106 81
-75.49839 34.507793 -6.6874652 91 103 78
-75.300583 34.492519 -6.6947765 93 104 83
-75.098465 34.502438 -6.6821532 89 100 79
-74.902473 34.522964 -6.6922226 91 100 79
-74.701736 34.490963 -6.7026124 73 92 69
-74.5103 34.511002 -6.6836944 75 93 69
-74.315926 34.492489 -6.6955657 69 89 61
-74.096252 34.515442 -6.7594481 80 103 68
-73.911835 34.447273 -6.6982875 58 84 54
-73.722656 34.487427 -6.7734289 76 104 76
-73.456421 34.436852 -6.7288542 90 110 79
-73.258614 34.502129 -6.7402635 107 129 101
-73.085922 34.496681 -6.7471437 102 115 92
-72.929581 34.439846 -6.7048888 80 93 75
-72.789192 34.409641 -6.7228689 67 78 62
-72.063744 34.458134 -6.7123194 108 130 99
-71.88324 34.51915 -6.6918831 114 136 109
-71.304428 34.578262 -6.7113767 123 146 120
-70.892288 34.487617 -6.6833134 89 101 72
-70.675133 34.446239 -6.726335 101 112 73
-70.519371 34.405315 -6.7852211 127 143 111
-78.848862 34.619862 -6.7220745 91 120 74
-78.760307 34.663338 -6.7133632 77 101 56
-77.694862 34.779991 -6.7280998 111 122 80
-77.541374 34.665932 -6.7534642 132 153 114
-77.328232 34.730976 -6.7544432 89 108 69
-77.104698 34.689762 -6.7484708 103 113 83
-76.886749 34.698566 -6.7440543 77 99 59
-76.674606 34.677059 -6.7260032 95 109 77
-76.507622 34.706577 -6.73669 97 108 80
-76.29435 34.695469 -6.703825 100 116 86
-76.093201 34.707592 -6.7169633 95 103 83
-75.906021 34.706558 -6.703083 100 112 89
-75.692322 34.674 -6.7171111 92 104 82
-75.480171 34.715088 -6.6961436 98 104 88
-75.302292 34.701958 -6.7095804 89 96 78
-75.105141 34.713203 -6.702076 88 98 79
-74.906105 34.706547 -6.6937413 79 95 74
-74.694878 34.695274 -6.6981878 87 108 79
-74.548889 34.682121 -6.7079544 72 89 68
