ply
format ascii 1.0
comment PCL generated
element vertex 1105
property float x
property float y
property float z
property uchar red
property uchar green
property uchar blue
element face 0
element camera 0
property float view_px
property float view_py
property float view_pz
property float x_axisx
property float x_axisy
property float x_axisz
property float y_axisx
property float y_axisy
property float y_axisz
property float z_axisx
property float z_axisy
property float z_axisz
property float focal
property float scalex
property float scaley
property float centerx
property float centery
property int viewportx
property int viewporty
property float k1
property float k2
end_header
-103.28201 -52.909737 25.521223 84 90 83
-103.08644 -52.842636 25.49087 131 128 119
-101.04585 -52.923084 25.516167 124 121 119
-100.8849 -52.880966 25.512499 127 127 122
-100.68757 -52.908745 25.497643 112 113 109
-100.50937 -52.8848 25.486767 132 130 128
-100.28456 -52.876694 25.474674 150 146 145
-100.11714 -52.883644 25.457264 150 145 147
-99.923698 -52.882534 25.431471 148 142 146
-99.761292 -52.931255 25.447838 142 143 139
-96.721695 -52.926208 25.45574 165 171 167
-95.45887 -52.834496 25.441339 158 152 153
-95.247353 -52.855698 25.48057 122 127 128
-95.167526 -52.918774 25.468422 140 142 144
-108.51473 -52.770756 25.425152 113 116 105
-108.2794 -52.663383 25.503294 172 170 166
-108.01503 -52.719498 25.506521 79 88 79
-107.86959 -52.720737 25.46911 130 132 129
-107.7699 -52.772343 25.496731 125 127 123
-107.47105 -52.769806 25.483564 128 123 118
-107.29553 -52.730675 25.481205 149 140 134
-107.05551 -52.730186 25.458061 137 126 131
-105.40527 -52.60141 25.492357 49 56 48
-105.27502 -52.758461 25.547516 56 60 59
-105.16479 -52.644638 25.592161 81 83 83
-104.81689 -52.673203 25.522198 71 76 68
-104.67359 -52.705967 25.510321 69 73 68
-104.47084 -52.713856 25.487564 67 76 68
-104.3195 -52.70998 25.525881 64 72 65
-104.07359 -52.652981 25.497713 79 87 82
-103.87407 -52.69516 25.505981 93 86 89
-103.70304 -52.727219 25.500921 102 102 99
-103.52491 -52.746559 25.512487 141 138 135
-103.31661 -52.702686 25.471241 116 118 114
-103.13638 -52.68124 25.514341 111 116 111
-100.86848 -52.731976 25.516203 144 139 136
-100.69188 -52.712631 25.516922 122 120 119
-100.50141 -52.702099 25.501675 126 125 122
-100.30318 -52.723961 25.482351 142 138 137
-100.11641 -52.717628 25.495394 140 137 141
-99.917542 -52.724174 25.48325 138 133 139
-99.791237 -52.758461 25.404228 134 124 123
-96.461357 -52.652927 25.493816 157 157 158
-96.312988 -52.665615 25.506046 158 161 167
-96.128044 -52.670223 25.454334 137 140 148
-95.619949 -52.692329 25.460382 137 138 142
-95.503136 -52.714218 25.46113 136 132 131
-95.313782 -52.716011 25.469494 126 131 130
-108.46621 -52.523441 25.455381 119 125 119
-108.30721 -52.502613 25.500051 137 142 136
-108.08272 -52.523094 25.518503 124 131 121
-107.94639 -52.547348 25.51297 130 140 128
-107.29533 -52.497093 25.449287 108 106 100
-107.12926 -52.463455 25.48848 99 101 92
-105.27015 -52.502636 25.543844 57 61 58
-104.89912 -52.567604 25.547688 96 92 87
-104.65259 -52.490612 25.523588 80 84 79
-104.50514 -52.457584 25.480713 86 89 83
-104.29356 -52.518471 25.524317 77 75 71
-104.15561 -52.554855 25.577072 60 71 64
-103.71262 -52.497829 25.428387 149 138 146
-103.48682 -52.548523 25.464054 97 102 98
-103.27162 -52.555252 25.520367 102 109 102
-100.64478 -52.527466 25.494518 121 118 114
-100.48309 -52.510422 25.502048 134 131 128
-100.33843 -52.483608 25.489225 143 139 138
-96.657928 -52.440495 25.488552 138 138 136
-96.480042 -52.509632 25.476274 148 147 146
-96.303947 -52.493294 25.495277 154 153 152
-96.119415 -52.516956 25.478895 154 158 163
-95.919739 -52.466892 25.453478 113 120 124
-95.698265 -52.475002 25.460983 126 127 132
-95.471367 -52.471973 25.480196 114 120 121
-95.317642 -52.524132 25.509363 122 128 126
-107.29181 -52.282288 25.475643 87 94 85
-107.06207 -52.277115 25.531067 87 91 82
-105.47707 -52.299595 25.548693 63 64 59
-105.35423 -52.321369 25.546 68 69 66
-105.03931 -52.310829 25.588099 93 94 91
-104.99495 -52.25069 25.593063 111 111 105
-104.64241 -52.285816 25.538694 114 109 107
-104.50713 -52.327469 25.517773 77 81 75
-104.33117 -52.258781 25.490986 73 78 69
-104.14249 -52.304913 25.516806 56 65 57
-103.80783 -52.34145 25.595333 79 79 69
-103.5772 -52.377541 25.409817 72 81 77
-100.6283 -52.234283 25.500755 110 108 107
-100.4812 -52.277138 25.502705 114 114 111
-100.32939 -52.301826 25.497925 140 137 135
-100.09058 -52.246723 25.526495 124 126 121
-96.805267 -52.242081 25.403013 151 156 155
-96.718681 -52.269608 25.462082 144 147 147
-96.46209 -52.312061 25.47238 135 139 134
-96.290077 -52.304455 25.505367 149 153 151
-96.110695 -52.305889 25.464373 138 142 142
-95.885437 -52.270317 25.468657 128 135 138
-95.745766 -52.305874 25.477718 122 128 133
-95.445724 -52.290344 25.495745 116 118 117
-95.386513 -52.339054 25.524599 136 138 138
-107.28494 -52.153019 25.45763 104 109 99
-107.12801 -52.128735 25.515942 91 95 85
-105.43386 -52.150074 25.530457 105 101 101
-104.86258 -52.098331 25.430752 62 70 63
-104.67168 -52.080322 25.520491 87 91 85
-104.51822 -52.091507 25.494133 85 86 80
-104.31332 -52.05867 25.498201 109 109 102
-104.08998 -52.090473 25.459396 52 63 54
-103.8893 -52.029526 25.507553 135 136 132
-102.93745 -52.063648 25.548805 73 67 74
-101.23073 -52.03236 25.441887 76 85 82
-101.04732 -52.009407 25.484783 66 71 64
-100.6587 -52.069363 25.482336 104 106 104
-100.51472 -52.093098 25.486813 116 115 111
-100.31493 -52.120556 25.498093 130 127 127
-100.09705 -52.093613 25.526264 127 130 131
-99.974548 -52.063572 25.455448 133 134 140
-96.864754 -52.109737 25.48036 148 151 156
-96.72879 -52.112621 25.456999 124 130 131
-96.485817 -52.108452 25.504223 141 149 146
-96.303612 -52.119595 25.492014 151 155 154
-96.10141 -52.12468 25.497292 148 149 151
-95.904968 -52.117161 25.502979 134 140 146
-95.756813 -52.092773 25.467865 115 122 126
-95.455093 -52.108742 25.506098 103 110 109
-95.378212 -52.170429 25.443752 165 172 174
-108.76652 -51.842876 25.589863 123 131 115
-107.25581 -51.876381 25.483532 95 100 91
-107.13569 -51.91758 25.482277 83 92 82
-106.98021 -51.950817 25.562704 59 69 61
-105.5077 -51.869541 25.533379 98 100 96
-105.29208 -51.836906 25.506504 64 71 65
-105.10116 -51.870483 25.503384 84 90 84
-104.93981 -51.879646 25.474033 82 89 83
-104.70097 -51.901108 25.488863 89 91 86
-104.48693 -51.894524 25.50692 104 102 96
-104.28235 -51.912971 25.51543 107 108 101
-104.16647 -51.893967 25.509556 103 105 97
-103.91653 -51.898888 25.487 130 129 129
-103.601 -51.976856 25.43915 61 71 63
-100.84187 -51.874985 25.576359 75 72 72
-100.6918 -51.940514 25.519278 105 105 104
-100.50158 -51.924892 25.524118 119 118 116
-100.30991 -51.898659 25.523874 139 134 133
-100.12804 -51.874718 25.476744 147 145 146
-99.953224 -51.873501 25.53957 110 115 108
-97.527679 -51.800777 25.517128 141 154 160
-97.018341 -51.896873 25.558294 137 145 147
-96.91864 -51.930012 25.496059 148 151 151
-96.695229 -51.929192 25.5305 117 125 121
-96.479805 -51.90741 25.498917 128 135 132
-96.311432 -51.92049 25.457191 117 126 123
-96.106964 -51.899124 25.492023 127 132 134
-95.903557 -51.918392 25.494493 116 126 128
-95.720154 -51.918362 25.429924 94 101 103
-95.431694 -51.937046 25.556284 97 108 105
-95.324471 -51.892189 25.477827 95 105 103
-95.194649 -51.820992 25.468119 105 117 115
-109.00842 -51.668777 25.486282 146 152 140
-108.9254 -51.72612 25.445929 128 132 117
-108.06055 -51.645737 25.427519 102 98 87
-107.85052 -51.685532 25.591309 66 78 68
-107.67489 -51.646427 25.502516 90 97 89
-107.51447 -51.735687 25.506384 98 102 95
-107.27402 -51.720905 25.502756 85 93 86
-107.13316 -51.705009 25.478012 91 100 92
-106.97766 -51.648312 25.499407 97 93 90
-106.65242 -51.675468 25.435291 96 100 94
-106.51314 -51.672264 25.49058 106 109 102
-106.33005 -51.642933 25.460121 88 91 84
-106.11039 -51.633778 25.490463 77 76 74
-105.8897 -51.690197 25.496157 104 97 94
-105.68224 -51.673401 25.488745 70 76 71
-105.56594 -51.664276 25.484568 86 82 78
-105.31616 -51.739857 25.500601 81 84 83
-105.11514 -51.710686 25.473001 77 84 81
-104.91151 -51.72855 25.48756 93 97 97
-104.69116 -51.688026 25.485353 117 116 111
-104.54521 -51.747852 25.475952 132 126 121
-104.23569 -51.707397 25.481249 88 91 86
-104.09467 -51.702923 25.492298 81 83 78
-103.96916 -51.617924 25.533537 160 152 150
-103.28757 -51.634445 25.458225 65 69 63
-102.6631 -51.681187 25.550529 86 94 83
-102.49544 -51.716507 25.538464 91 95 88
-102.33904 -51.703941 25.498236 70 72 68
-102.17422 -51.710495 25.471947 88 86 85
-101.85538 -51.720345 25.459787 51 56 59
-101.03609 -51.775921 25.48905 90 89 84
-100.82548 -51.739517 25.527649 80 86 76
-100.48358 -51.785389 25.569096 119 117 118
-100.25878 -51.711407 25.489538 155 150 153
-100.13492 -51.712891 25.525543 147 143 145
-99.886192 -51.64893 25.412201 155 154 149
-97.448586 -51.786354 25.430542 151 162 166
-96.964699 -51.602669 25.468172 141 150 149
-96.621368 -51.659927 25.543234 131 142 138
-96.516251 -51.684246 25.478815 98 113 107
-96.302498 -51.719215 25.530508 100 114 110
-96.124329 -51.715626 25.488012 94 107 108
-95.94783 -51.730446 25.49297 92 104 105
-95.737518 -51.753822 25.461176 81 88 89
-95.410271 -51.750946 25.550846 78 90 85
-95.300941 -51.705811 25.487391 88 101 97
-95.108063 -51.689758 25.509243 114 113 113
-108.06461 -51.515076 25.464115 126 125 113
-107.92351 -51.486172 25.500607 95 103 90
-107.71058 -51.516438 25.511969 91 100 91
-107.42035 -51.54924 25.574799 71 80 75
-107.2748 -51.489803 25.488798 94 102 95
-107.11488 -51.47493 25.493158 106 112 104
-106.81844 -51.42635 25.449711 86 96 83
-106.68545 -51.522686 25.481836 101 95 92
-106.52678 -51.501598 25.467047 107 108 101
-106.27911 -51.463093 25.475697 114 115 107
-106.10645 -51.506599 25.508572 105 103 98
-105.91083 -51.531322 25.491011 102 102 95
-105.71115 -51.526413 25.54995 72 81 75
-105.48901 -51.52475 25.507601 84 94 91
-105.29265 -51.540607 25.556339 163 155 154
-105.11655 -51.474483 25.496056 124 120 118
-104.90125 -51.46978 25.500143 96 102 96
-104.70008 -51.511208 25.496515 92 96 89
-104.50248 -51.445133 25.510683 99 99 95
-104.28567 -51.500519 25.471771 97 102 97
-104.1159 -51.491714 25.494812 85 86 82
-103.90452 -51.525921 25.550379 69 73 69
-102.11053 -51.41256 25.51107 110 115 109
-101.92916 -51.424938 25.504744 55 64 55
-100.21921 -51.564159 25.514694 135 135 136
-100.11786 -51.497635 25.525589 150 145 150
-99.970909 -51.548416 25.425827 151 155 158
-96.336296 -51.423233 25.540369 117 133 130
-96.110855 -51.500725 25.470488 98 112 111
-95.887451 -51.481361 25.454813 102 110 111
-95.754395 -51.57708 25.43148 95 104 104
-95.067368 -51.506786 25.491602 118 124 125
-94.922386 -51.438972 25.562168 119 124 126
-94.783424 -51.540943 25.566502 169 170 164
-108.82216 -51.204098 25.54944 76 88 76
-108.6764 -51.30891 25.561424 82 92 84
-108.53714 -51.292816 25.599989 88 96 85
-108.06937 -51.252121 25.497776 101 108 99
-107.89064 -51.303295 25.470755 107 115 103
-107.68692 -51.242672 25.476877 102 110 94
-107.50287 -51.310238 25.493134 90 100 91
-107.32407 -51.329044 25.512047 111 116 112
-107.15598 -51.326935 25.495972 143 142 138
-106.82845 -51.324112 25.504921 108 114 103
-106.71745 -51.273544 25.472691 91 96 86
-106.48251 -51.312805 25.470987 98 104 95
-106.31421 -51.31905 25.518494 88 97 89
-106.1011 -51.296326 25.527374 102 105 99
-105.96115 -51.294514 25.497169 124 125 121
-105.52599 -51.312832 25.511848 72 86 80
-105.30495 -51.26841 25.516209 141 138 137
-105.08727 -51.309349 25.5007 108 114 105
-104.89873 -51.30727 25.514566 98 105 95
-104.72035 -51.29884 25.502125 88 93 84
-104.51276 -51.358513 25.530981 94 96 96
-104.29234 -51.326775 25.523026 104 106 102
-104.15414 -51.346275 25.5193 82 83 79
-102.89207 -51.26078 25.484703 94 88 88
-102.74025 -51.236198 25.507114 62 65 63
-102.15334 -51.324535 25.476961 69 69 69
-100.46448 -51.25288 25.466793 91 96 95
-100.30954 -51.262688 25.505262 116 118 121
-100.08949 -51.307846 25.508055 156 153 156
-99.98333 -51.389076 25.475698 108 110 106
-96.884109 -51.380051 25.476131 133 141 143
-96.798416 -51.355167 25.443579 90 96 94
-96.064072 -51.316971 25.490627 77 85 86
-95.951508 -51.288017 25.499683 113 121 126
-95.55407 -51.209064 25.473164 84 101 95
-95.288338 -51.322918 25.516558 87 94 92
-95.098969 -51.360775 25.422224 99 108 107
-94.902802 -51.31876 25.492363 114 119 120
-94.718445 -51.295513 25.48715 125 123 118
-94.417023 -51.262672 25.555218 71 70 66
-108.89196 -51.133736 25.548878 81 91 82
-108.71611 -51.146286 25.501974 167 163 158
-108.24548 -51.124027 25.442337 92 98 91
-108.08936 -51.130314 25.495708 98 105 97
-107.88544 -51.127884 25.486734 96 105 94
-107.68639 -51.116688 25.469683 94 104 93
-107.54558 -51.106258 25.503174 98 108 99
-107.36628 -51.135109 25.453423 56 67 61
-106.66424 -51.153378 25.534977 102 108 98
-106.52652 -51.092308 25.493011 83 93 80
-106.30553 -51.113285 25.473862 95 98 90
-106.1534 -51.0867 25.480631 99 106 97
-105.98125 -51.064861 25.565151 92 104 104
-105.70959 -51.062923 25.534218 117 118 114
-105.4575 -51.048485 25.503235 85 88 87
-105.32905 -51.098454 25.543102 123 123 123
-105.13265 -51.147011 25.526255 92 101 95
-104.88962 -51.1446 25.483839 96 104 95
-104.74146 -51.115974 25.558228 103 107 100
-104.4546 -51.111774 25.455627 74 72 73
-104.33223 -51.129734 25.49209 79 85 77
-104.13058 -51.138092 25.537426 54 58 52
-102.84061 -51.199844 25.473164 109 110 104
-102.52782 -51.00539 25.486202 48 60 50
-102.24873 -51.031937 25.472326 79 76 71
-101.91172 -51.066952 25.547905 65 67 64
-100.86491 -51.080219 25.489828 69 77 74
-100.65429 -51.069561 25.502411 100 103 101
-100.50008 -51.095848 25.507215 109 110 109
-100.29532 -51.066788 25.499807 130 128 129
-100.14995 -51.078369 25.51989 133 131 129
-99.946533 -51.116032 25.451828 126 130 125
-96.297523 -51.134266 25.459108 126 117 119
-96.118408 -51.192642 25.495935 88 84 85
-95.296356 -51.078293 25.414703 111 117 118
-95.074005 -51.1661 25.498032 116 127 129
-94.594475 -51.198616 25.533232 148 146 148
-108.23963 -50.896149 25.520611 87 96 86
-108.17924 -50.963776 25.514229 86 98 87
-107.87594 -50.935753 25.443821 86 99 93
-107.70279 -50.908669 25.486452 105 112 103
-107.57738 -50.959263 25.437784 86 95 87
-106.67489 -50.968491 25.403183 96 106 96
-106.49696 -50.914127 25.480453 108 116 106
-106.3034 -50.875019 25.492115 114 121 113
-106.09058 -50.899849 25.478954 128 130 123
-105.93048 -50.92347 25.464666 87 99 90
-105.78738 -50.954884 25.50437 84 101 91
-105.46075 -50.910114 25.501966 96 98 96
-105.32138 -50.879272 25.531706 124 123 122
-105.15328 -50.877289 25.535076 106 108 110
-104.94077 -50.968895 25.402409 128 137 132
-104.73794 -50.904121 25.560272 89 95 87
-104.4698 -50.875095 25.467697 76 76 75
-104.28328 -50.862793 25.500959 86 91 86
-104.11179 -50.894588 25.521362 78 85 78
-103.99817 -50.86293 25.570189 72 81 78
-102.51926 -50.87215 25.563046 70 81 73
-102.34109 -50.895496 25.526339 74 72 65
-102.07877 -50.88726 25.447962 62 68 63
-101.94739 -50.93684 25.529016 67 73 66
-100.91755 -50.893745 25.4965 80 86 82
-100.67889 -50.897293 25.501551 100 104 101
-100.50343 -50.89473 25.516106 116 117 113
-100.28802 -50.897144 25.513235 131 129 128
-100.15099 -50.87888 25.496145 150 145 142
-99.978317 -50.855995 25.483902 114 113 108
-95.446732 -50.849216 25.456013 138 132 133
-95.377998 -50.855965 25.446947 139 129 130
-110.05548 -50.655144 25.550474 128 134 123
-108.02104 -50.75872 25.40135 83 94 86
-107.87881 -50.703209 25.457956 114 124 116
-107.78024 -50.762825 25.554535 106 114 108
-107.50709 -50.70425 25.575565 90 96 94
-106.50823 -50.732708 25.47908 93 104 93
-106.25757 -50.696823 25.514185 110 116 107
-106.10204 -50.705189 25.499645 95 102 94
-105.75723 -50.768349 25.531916 66 81 74
-105.46124 -50.688923 25.531706 115 117 118
-105.30596 -50.697742 25.518005 127 125 125
-104.63599 -50.752029 25.537413 96 93 90
-104.51001 -50.697914 25.487942 101 100 100
-104.27859 -50.700451 25.506399 102 106 102
-104.09655 -50.713329 25.523518 87 94 89
-103.96792 -50.788589 25.541357 69 80 72
-103.48967 -50.678535 25.543596 56 65 62
-102.91391 -50.656967 25.586081 63 70 66
-102.62524 -50.643127 25.519165 71 80 85
-102.08265 -50.715591 25.47331 74 84 74
-101.95719 -50.652802 25.444117 52 57 49
-101.075 -50.68018 25.497269 103 107 104
-100.90977 -50.690376 25.478405 89 96 92
-100.6795 -50.713711 25.462622 103 106 100
-100.48808 -50.695793 25.505224 132 128 122
-100.291 -50.709579 25.511896 140 136 131
-100.11786 -50.699722 25.497971 155 147 143
-96.240112 -50.69117 25.487534 160 141 146
-96.087494 -50.66074 25.447115 150 137 136
-95.871902 -50.688232 25.473749 144 137 136
-95.687248 -50.737232 25.443434 139 130 133
-95.526321 -50.769802 25.466566 144 141 144
-95.327385 -50.758175 25.434093 120 111 114
-110.25497 -50.454334 25.507921 140 142 133
-110.1395 -50.446426 25.54929 146 149 141
-109.86493 -50.486267 25.559767 140 143 132
-108.45568 -50.422592 25.562981 95 107 97
-108.33044 -50.480167 25.462406 113 125 115
-108.15431 -50.469723 25.575966 79 89 80
-106.26083 -50.50227 25.520666 111 116 109
-106.14325 -50.540092 25.516882 93 101 95
-105.90007 -50.405857 25.468588 89 99 98
-105.68998 -50.468513 25.442249 77 85 84
-105.4578 -50.503281 25.509623 111 105 109
-105.32536 -50.496288 25.510702 133 134 135
-104.76169 -50.548401 25.46394 90 88 83
-104.48578 -50.490452 25.508453 97 98 98
-104.30125 -50.477596 25.490057 110 112 112
-104.14929 -50.506187 25.506496 112 116 113
-103.63847 -50.467049 25.508884 88 90 77
-103.06451 -50.492229 25.546089 72 74 71
-102.88557 -50.478573 25.520634 73 84 74
-102.73859 -50.510925 25.520599 73 83 72
-102.59355 -50.592369 25.559559 89 95 95
-102.14472 -50.424694 25.430309 112 114 103
-101.8681 -50.480286 25.463478 84 86 80
-101.65032 -50.46019 25.493965 88 90 84
-101.5907 -50.460163 25.58757 85 91 84
-101.25195 -50.450928 25.514107 99 99 97
-101.06357 -50.497559 25.507774 114 114 115
-100.93298 -50.49379 25.498594 104 107 105
-100.67257 -50.534237 25.479448 98 100 96
-100.48412 -50.513676 25.486315 123 120 116
-100.28777 -50.51812 25.48222 128 125 121
-100.11948 -50.523487 25.474081 128 125 123
-99.986801 -50.542953 25.496243 82 89 90
-96.6968 -50.451511 25.403061 144 139 135
-96.528458 -50.451843 25.423023 148 138 136
-96.274414 -50.480789 25.480379 149 137 135
-96.13002 -50.499989 25.45373 146 132 129
-95.902214 -50.530468 25.503948 152 137 136
-95.746521 -50.574005 25.447668 137 123 124
-110.41422 -50.333939 25.414988 114 120 106
-108.53011 -50.294605 25.500019 107 115 104
-108.06394 -50.266571 25.462961 85 97 88
-107.91187 -50.297729 25.500502 89 100 90
-107.68375 -50.264542 25.519365 101 110 109
-106.48952 -50.26688 25.503965 106 113 104
-106.29166 -50.31094 25.465635 115 119 115
-106.14194 -50.37849 25.408556 178 164 164
-105.66746 -50.284698 25.533377 82 93 87
-105.45559 -50.309216 25.507856 101 103 104
-105.35435 -50.319118 25.522123 128 129 131
-104.68172 -50.304619 25.466827 112 106 107
-104.50216 -50.2854 25.512655 107 104 106
-104.28465 -50.341 25.496588 96 101 97
-103.1171 -50.340984 25.554598 71 79 72
-102.87793 -50.327473 25.450279 62 70 64
-102.6394 -50.32729 25.474112 60 72 61
-102.03752 -50.268517 25.523939 104 108 100
-101.87769 -50.240955 25.513611 90 93 86
-101.70126 -50.306484 25.462509 82 85 79
-101.48768 -50.273331 25.491474 75 79 74
-101.30199 -50.311947 25.489084 90 93 87
-101.12923 -50.362938 25.492666 80 84 78
-100.86873 -50.281734 25.464287 111 110 107
-100.71072 -50.246563 25.439768 137 130 126
-100.57239 -50.267582 25.435175 135 129 126
-100.23103 -50.309383 25.519127 121 121 121
-100.16323 -50.219864 25.527109 159 154 149
-99.921967 -50.349396 25.425798 70 76 66
-96.644516 -50.338257 25.492102 149 138 136
-96.513741 -50.32906 25.490597 142 133 129
-96.298477 -50.308723 25.490616 153 140 136
-96.08287 -50.277168 25.427864 150 127 122
-95.916092 -50.306419 25.420837 165 142 140
-95.71344 -50.307022 25.43013 141 129 127
-108.42607 -50.126976 25.529728 113 119 106
-108.30441 -50.12627 25.519402 106 115 103
-108.09191 -50.139351 25.49931 100 114 103
-107.90945 -50.098053 25.49144 105 117 107
-107.65567 -50.063965 25.485975 111 120 117
-106.86679 -50.081951 25.53727 106 115 106
-106.66232 -50.054012 25.499857 103 114 104
-106.5192 -50.103245 25.499472 102 111 102
-106.31834 -50.09396 25.504423 108 113 109
-105.6116 -50.112625 25.450117 51 65 52
-105.47539 -50.111904 25.486563 51 62 53
-105.31884 -50.081436 25.515112 116 118 119
-104.93816 -50.045406 25.530212 154 144 147
-104.71543 -50.112061 25.472769 98 97 97
-104.49831 -50.063736 25.462183 104 102 102
-102.0638 -50.124165 25.448679 111 112 106
-101.85718 -50.138878 25.465876 94 94 89
-101.70756 -50.095905 25.450235 103 101 96
-101.50623 -50.132427 25.459076 73 79 72
-101.37611 -50.153305 25.556458 86 98 94
-101.08661 -50.050331 25.471357 99 101 97
-100.88522 -50.120838 25.469578 113 112 108
-100.70033 -50.112442 25.461601 127 126 121
-100.48699 -50.079617 25.443138 121 124 118
-100.27824 -50.051666 25.455732 141 140 136
-100.09346 -50.069725 25.458282 146 142 139
-99.973053 -50.067467 25.446987 161 157 156
-96.468033 -50.150429 25.449934 135 126 120
-96.354027 -50.14587 25.477526 120 110 100
-96.143326 -50.150394 25.478638 161 136 132
-95.877045 -50.079147 25.419031 147 141 137
-95.714996 -50.046925 25.448326 162 155 151
-108.91624 -49.927887 25.458965 114 125 117
-108.46222 -49.910194 25.450869 108 118 109
-108.35258 -49.838852 25.492008 116 123 113
-108.08366 -49.883495 25.50556 134 137 130
-107.90738 -49.963696 25.48534 102 109 106
-107.68679 -49.883053 25.497969 123 131 130
-107.56261 -49.873672 25.564905 130 130 130
-107.21407 -49.855728 25.564886 101 109 102
-106.81896 -49.840332 25.473883 104 114 105
-106.6917 -49.887184 25.485296 111 120 111
-106.48047 -49.902534 25.481226 128 130 128
-106.33532 -49.890701 25.493279 112 115 113
-105.64878 -49.993652 25.432436 91 101 102
-105.43131 -49.969696 25.485031 70 82 79
-105.27724 -49.928982 25.483009 107 109 109
-105.0854 -49.878746 25.503389 135 133 137
-104.90955 -49.890823 25.520889 138 136 138
-104.70675 -49.830399 25.541594 137 134 134
-104.47663 -49.8638 25.49991 109 111 107
-104.37317 -49.855408 25.518875 157 157 153
-102.25694 -49.838802 25.517952 117 117 109
-102.10867 -49.845989 25.526419 83 88 82
-101.85571 -49.854389 25.538559 100 103 98
-101.66624 -49.846325 25.502377 98 101 96
-101.49889 -49.85091 25.4916 105 108 103
-101.30542 -49.860142 25.511492 117 119 114
-101.10281 -49.905224 25.454922 108 109 105
-100.89152 -49.870224 25.42996 105 107 101
-100.68933 -49.900864 25.493036 117 121 115
-100.4792 -49.906796 25.465145 126 127 121
-100.30365 -49.907867 25.460527 126 125 120
-100.12126 -49.913746 25.455545 135 135 131
-99.963531 -49.918205 25.45282 129 132 128
-99.608681 -49.811745 25.431862 106 117 119
-99.531883 -49.830929 25.542732 120 124 121
-98.68882 -49.811405 25.439789 121 124 129
-98.576286 -49.824875 25.494694 60 53 60
-97.3993 -49.968548 25.401203 116 122 120
-96.297455 -49.852829 25.469788 136 140 141
-96.101723 -49.908802 25.431618 149 152 149
-95.916695 -49.924397 25.424604 149 153 148
-95.712502 -49.932152 25.48772 163 159 155
-95.485611 -49.857452 25.507032 193 179 181
-109.20197 -49.755444 25.490021 242 229 221
-109.00014 -49.739902 25.518738 141 143 135
-108.93182 -49.678364 25.575911 144 147 138
-108.47299 -49.720451 25.488808 130 136 127
-108.27137 -49.687874 25.49021 119 127 115
-108.14046 -49.743176 25.471054 124 133 126
-107.88773 -49.70116 25.480194 141 146 143
-107.69029 -49.705631 25.511961 107 111 109
-107.47069 -49.651638 25.52635 152 147 142
-107.2913 -49.717072 25.514183 114 115 111
-106.82897 -49.694378 25.502602 122 128 121
-106.7027 -49.705845 25.481485 119 127 120
-106.52744 -49.684277 25.480541 121 123 120
-106.33457 -49.677547 25.482723 109 110 110
-106.16319 -49.626041 25.459402 111 120 116
-105.25835 -49.71386 25.454124 86 93 86
-105.08323 -49.740757 25.468664 109 112 111
-104.88348 -49.703259 25.503649 148 143 142
-104.68544 -49.688931 25.511869 140 136 135
-104.53739 -49.695511 25.530874 138 136 134
-104.36375 -49.660297 25.560196 133 134 131
-102.45664 -49.693237 25.50174 85 87 80
-102.30911 -49.688896 25.49584 100 100 92
-102.07268 -49.692387 25.485872 88 92 87
-101.8845 -49.725517 25.512398 98 103 98
-101.70467 -49.694984 25.531748 93 98 94
-101.50652 -49.741646 25.520573 112 115 110
-101.27567 -49.744797 25.514746 122 123 117
-101.09957 -49.700615 25.512135 107 106 103
-100.91982 -49.681519 25.499397 119 119 117
-100.68426 -49.704857 25.457031 103 106 100
-100.49274 -49.726265 25.469213 121 121 115
-100.288 -49.694462 25.447052 118 121 115
-100.10859 -49.678799 25.467062 126 128 123
-99.893044 -49.671555 25.496824 123 127 122
-99.673256 -49.693939 25.479662 135 139 135
-99.550781 -49.718613 25.465975 129 133 127
-99.021294 -49.618591 25.497826 167 161 162
-98.870895 -49.664455 25.520933 165 162 164
-98.694008 -49.688946 25.496328 162 162 170
-98.542198 -49.765144 25.446348 103 108 111
-96.475494 -49.712215 25.488787 125 132 129
-96.305573 -49.710815 25.436171 129 136 131
-96.099258 -49.657372 25.427073 118 125 123
-95.869164 -49.644062 25.49852 158 159 154
-95.752441 -49.767143 25.477877 175 166 164
-109.26334 -49.478607 25.483458 148 145 136
-109.10123 -49.537487 25.492485 144 142 135
-108.96518 -49.49091 25.561668 155 158 146
-108.64747 -49.428116 25.556189 131 137 131
-108.4511 -49.493347 25.52763 148 146 140
-108.29352 -49.503914 25.48111 138 140 130
-108.19221 -49.462692 25.570436 131 142 134
-107.71547 -49.490086 25.51318 102 108 102
-107.49388 -49.51725 25.512308 150 145 144
-107.29827 -49.473461 25.534515 114 115 114
-106.88522 -49.469147 25.490482 135 137 133
-106.71386 -49.517475 25.492443 132 136 132
-106.51978 -49.524078 25.457785 114 118 115
-106.29499 -49.505722 25.462681 89 94 89
-106.15743 -49.512138 25.457378 80 89 80
-105.28463 -49.57766 25.437315 93 98 94
-105.10484 -49.550697 25.443693 78 84 80
-104.88433 -49.485645 25.520878 139 136 138
-104.69922 -49.505249 25.496082 139 137 137
-104.50375 -49.497921 25.525576 143 141 140
-104.35927 -49.480003 25.557972 134 136 135
-102.45816 -49.531994 25.511793 101 101 96
-102.30396 -49.50386 25.477652 106 107 103
-102.11854 -49.516903 25.527111 98 102 99
-101.90206 -49.525059 25.48896 109 113 106
-101.7143 -49.529922 25.516672 98 102 97
-101.50517 -49.430485 25.572763 95 102 92
-101.23016 -49.482265 25.540644 104 109 101
-101.10652 -49.524113 25.499456 87 92 89
-100.90103 -49.512329 25.494537 100 104 100
-100.68954 -49.45953 25.470589 110 114 108
-100.51614 -49.485146 25.488016 102 104 98
-100.28887 -49.519577 25.49329 119 122 117
-100.09528 -49.508839 25.466995 117 121 115
-99.898552 -49.481739 25.47588 116 124 116
-99.687607 -49.494343 25.466461 123 126 120
-99.50087 -49.491791 25.488098 125 130 125
-99.265541 -49.460194 25.489523 135 139 133
-99.115654 -49.493916 25.492622 147 147 142
-98.889847 -49.510365 25.507509 166 157 157
-98.743042 -49.480724 25.481424 150 144 144
-96.823318 -49.440887 25.554058 149 153 147
-96.679764 -49.479797 25.4956 141 147 143
-96.549309 -49.530548 25.441479 135 143 137
-96.259941 -49.517399 25.429129 143 148 149
-96.089813 -49.497078 25.438322 144 146 148
-95.900459 -49.534916 25.466282 154 153 151
-95.710129 -49.466404 25.559607 152 152 150
-109.27504 -49.26815 25.542603 157 155 142
-109.1217 -49.304527 25.513443 153 156 146
-108.89462 -49.280495 25.515776 134 139 128
-108.72449 -49.284943 25.519085 133 136 131
-108.4824 -49.291981 25.456202 152 150 143
-108.33243 -49.337433 25.53121 148 145 136
-107.65021 -49.336048 25.531851 82 91 85
-107.49728 -49.354393 25.494259 50 58 54
-107.26922 -49.281601 25.530317 124 127 124
-107.13589 -49.340202 25.537045 141 138 135
-106.86259 -49.277538 25.50708 141 143 139
-106.72247 -49.311707 25.51049 127 124 126
-106.32381 -49.338226 25.448431 74 80 77
-105.02903 -49.291595 25.464386 47 57 51
-104.89024 -49.350037 25.514765 90 94 91
-104.68921 -49.342724 25.488945 116 118 117
-104.49099 -49.299946 25.501804 151 146 147
-104.33675 -49.284531 25.533995 144 141 140
-104.14266 -49.250164 25.566803 143 145 147
-103.9865 -49.256702 25.584827 109 125 122
-102.45966 -49.306873 25.539686 107 109 105
-102.29118 -49.320892 25.506029 100 104 99
-102.12844 -49.335766 25.53404 90 95 88
-101.91663 -49.348698 25.469793 98 97 94
-101.71822 -49.359634 25.538345 115 117 109
-101.50242 -49.32452 25.571283 91 98 89
-101.25536 -49.35638 25.488962 112 114 105
-101.10822 -49.302078 25.508219 117 119 113
-100.89523 -49.28545 25.506159 107 109 105
-100.71863 -49.313213 25.47331 107 112 106
-100.5283 -49.304417 25.505714 88 98 91
-100.23895 -49.311954 25.480408 97 103 97
-100.07726 -49.299294 25.499063 117 122 117
-99.90213 -49.30769 25.482296 125 127 121
-99.709335 -49.344025 25.47105 131 131 126
-99.487053 -49.331959 25.480253 136 135 129
-99.31424 -49.323948 25.495008 130 133 124
-99.170746 -49.369053 25.576777 139 135 133
-98.873306 -49.283237 25.500069 149 145 145
-98.728462 -49.293045 25.466902 132 130 126
-98.571167 -49.214474 25.42835 131 136 133
-96.736267 -49.339962 25.49966 114 127 120
-95.863609 -49.341034 25.477488 158 152 148
-95.739594 -49.397381 25.527525 143 135 133
-109.70801 -49.100075 25.43281 165 161 152
-109.02585 -49.044998 25.50724 141 144 136
-108.89539 -49.118202 25.527058 131 134 125
-108.72464 -49.126324 25.548702 139 135 132
-108.48085 -49.078209 25.501657 131 133 126
-108.37135 -49.05069 25.537922 72 78 72
-107.46977 -49.116226 25.499376 131 136 127
-107.27496 -49.098976 25.505434 114 119 115
-107.11504 -49.124199 25.51362 126 127 125
-106.9067 -49.106499 25.504051 121 120 117
-104.9222 -49.186752 25.540985 47 63 52
-104.65575 -49.133842 25.456156 74 81 75
-104.48703 -49.118618 25.491463 109 109 108
-104.3143 -49.101017 25.48855 124 124 124
-104.12187 -49.136623 25.47159 134 138 140
-103.87619 -49.122616 25.490232 97 104 102
-102.80772 -49.109695 25.547239 98 103 99
-102.67599 -49.088047 25.488293 105 107 103
-102.49131 -49.110806 25.502361 109 112 111
-102.30958 -49.123768 25.510618 107 111 107
-102.12116 -49.094227 25.496433 129 133 131
-101.93731 -49.098774 25.522207 82 87 85
-101.21838 -49.165447 25.411036 131 128 122
-101.08811 -49.117485 25.506216 114 113 109
-100.90028 -49.091675 25.512508 106 110 104
-100.73243 -49.111889 25.484165 94 101 94
-100.51996 -49.075939 25.492085 85 93 87
-100.22646 -49.095066 25.441479 94 95 92
-100.1032 -49.093273 25.48848 94 99 93
-99.922989 -49.085693 25.528214 119 118 114
-99.743752 -49.09042 25.516424 117 118 117
-99.484901 -49.075993 25.534756 127 129 125
-99.33194 -49.068619 25.56023 138 139 135
-98.854561 -49.129082 25.52363 137 137 132
-98.706131 -49.096123 25.474192 125 127 123
-98.571953 -49.088783 25.420057 126 128 125
-109.82983 -48.807629 25.565823 167 162 156
-109.2505 -48.904682 25.58353 102 113 99
-109.03898 -48.879108 25.542336 114 119 111
-108.92368 -48.895977 25.545258 134 136 130
-108.69019 -48.897083 25.514774 118 124 117
-108.55392 -48.912994 25.509542 83 92 84
-107.26352 -48.979092 25.509499 100 106 102
-107.078 -48.922989 25.451639 54 63 56
-106.94128 -48.947033 25.463205 51 55 50
-104.49415 -48.987282 25.454878 51 60 51
-104.3314 -48.985851 25.451361 137 136 135
-103.83472 -48.906483 25.513086 137 136 134
-103.7558 -48.918388 25.413 157 162 154
-102.88132 -48.905704 25.47751 118 120 118
-102.6842 -48.869076 25.503075 132 130 127
-102.48351 -48.925186 25.475714 116 119 117
-102.30694 -48.876682 25.485668 94 99 95
-102.18496 -48.913795 25.499947 107 108 110
-101.80534 -48.843922 25.542625 108 102 105
-101.74246 -48.809654 25.466772 90 90 89
-101.04867 -48.948547 25.524195 88 92 85
-100.87614 -48.914124 25.520737 94 98 92
-100.7013 -48.889427 25.499256 94 101 92
-100.49295 -48.893993 25.499308 106 112 105
-100.30905 -48.909908 25.51223 123 125 119
-100.10585 -48.925728 25.484125 123 125 120
-99.89386 -48.895477 25.541777 108 109 103
-99.712509 -48.867004 25.524479 107 110 105
-99.473793 -48.898773 25.513449 99 105 97
-99.297165 -48.883636 25.507315 106 112 101
-99.16362 -48.924946 25.481524 106 111 103
-98.850166 -48.912788 25.544441 129 129 121
-98.707611 -48.925552 25.47287 116 119 115
-98.515656 -48.90144 25.459948 136 143 142
-98.333923 -48.849503 25.46349 146 141 144
-98.053322 -48.827602 25.513815 127 143 137
-97.85881 -48.84491 25.509295 153 159 164
-97.737442 -48.834087 25.528028 137 141 143
-97.061226 -48.827492 25.523716 145 152 159
-96.911224 -48.856606 25.523014 146 150 153
-96.720345 -48.849876 25.532389 177 178 185
-109.45777 -48.798382 25.492126 118 124 110
-109.28001 -48.703896 25.447989 129 135 129
-109.11071 -48.750835 25.499998 114 122 116
-108.91843 -48.762756 25.522179 89 97 90
-104.68282 -48.735992 25.475277 61 73 63
-104.46178 -48.674053 25.40134 194 183 187
-104.29258 -48.675179 25.474586 139 138 137
-104.08945 -48.695042 25.461731 141 136 139
-103.86857 -48.741257 25.458176 149 146 147
-103.78975 -48.751907 25.439137 156 157 153
-103.41121 -48.667427 25.57073 137 141 142
-103.2864 -48.702374 25.530722 113 116 117
-103.13885 -48.706055 25.488964 139 138 140
-102.87385 -48.672367 25.495096 103 103 103
-102.71858 -48.710327 25.506123 130 129 129
-102.49908 -48.696957 25.475178 121 123 121
-102.32352 -48.71368 25.512045 126 128 126
-101.67624 -48.713711 25.500546 103 102 99
-101.55658 -48.701046 25.519896 126 124 128
-101.37784 -48.685574 25.527781 89 88 94
-101.04987 -48.642231 25.553717 120 123 111
-100.88416 -48.692173 25.52187 100 106 97
-100.70213 -48.717213 25.543678 94 100 90
-100.55038 -48.728867 25.557119 88 98 87
-100.34029 -48.740112 25.411209 89 101 95
-100.11811 -48.733131 25.44796 150 149 145
-99.871765 -48.715889 25.512976 112 114 109
-99.712852 -48.716129 25.517443 121 119 117
-99.492241 -48.69986 25.502602 122 124 121
-99.329407 -48.694572 25.487907 105 111 101
-99.18074 -48.70047 25.576578 99 102 95
-98.831116 -48.753304 25.502201 131 129 120
-98.710587 -48.692974 25.492216 136 134 129
-98.523804 -48.74641 25.449814 101 104 102
-98.318657 -48.69545 25.480782 155 150 154
-98.051704 -48.68219 25.499271 93 100 102
-97.899384 -48.707504 25.495163 144 149 151
-97.648209 -48.71957 25.519222 130 138 137
-97.567841 -48.68066 25.510349 127 135 135
-97.274696 -48.681351 25.511795 139 148 149
-97.132576 -48.768063 25.502586 157 161 166
-96.863052 -48.713829 25.544928 114 122 121
-96.703972 -48.696594 25.519573 141 146 151
-96.579887 -48.674763 25.410946 111 118 124
-104.27174 -48.533855 25.430147 109 109 109
-104.13912 -48.513073 25.54689 84 88 81
-103.82732 -48.56216 25.470005 112 115 120
-103.63092 -48.559986 25.45854 62 65 56
-103.54175 -48.599998 25.548244 52 62 53
-103.05069 -48.48439 25.469814 45 54 52
-102.86273 -48.521275 25.465321 130 128 132
-102.68217 -48.482307 25.490543 149 149 151
-102.49693 -48.500435 25.475531 129 131 129
-102.33025 -48.517021 25.511366 116 121 118
-102.11357 -48.44228 25.593559 97 103 99
-101.89072 -48.535709 25.596062 107 111 97
-101.67933 -48.467075 25.509657 101 102 98
-101.51794 -48.507484 25.526587 106 98 105
-101.01788 -48.522427 25.51967 112 117 108
-100.90667 -48.540485 25.525202 106 113 104
-100.68587 -48.488388 25.543728 92 98 87
-100.56108 -48.489029 25.550251 95 98 88
-100.01119 -48.570778 25.441936 167 170 163
-99.919113 -48.507458 25.511158 130 130 128
-99.73336 -48.515667 25.559532 104 104 100
-99.47094 -48.534359 25.486963 112 114 108
-99.343178 -48.53146 25.493576 111 118 111
-98.656189 -48.517658 25.487129 144 141 140
-98.539833 -48.475052 25.500578 117 116 117
-98.30542 -48.475651 25.547867 140 140 141
-98.069038 -48.480949 25.505287 135 138 138
-97.966873 -48.545578 25.494345 130 139 139
-97.633881 -48.549229 25.566376 126 136 142
-97.506149 -48.520565 25.497108 132 141 141
-97.279526 -48.513916 25.500814 128 135 135
-96.828056 -48.51498 25.548813 96 105 105
-96.705643 -48.507011 25.520472 117 124 122
-96.588249 -48.581394 25.514935 108 113 114
-103.48633 -48.348568 25.514427 157 161 160
-103.33731 -48.21682 25.458969 145 149 147
-102.88636 -48.292297 25.483585 134 136 145
-102.71955 -48.266415 25.485443 154 151 155
-102.51295 -48.295757 25.489967 136 140 139
-102.28753 -48.299343 25.50436 118 124 119
-102.08952 -48.248528 25.509464 106 111 106
-101.80973 -48.232937 25.59082 120 130 120
-101.7245 -48.31123 25.571877 104 109 103
-101.51953 -48.385044 25.554699 102 98 112
-101.03237 -48.2952 25.422453 104 112 101
-100.98312 -48.368885 25.432724 125 135 124
-100.66648 -48.314617 25.520578 94 101 89
-100.50461 -48.326965 25.561655 113 116 108
-100.30868 -48.235394 25.572266 109 113 106
-100.02863 -48.242283 25.562086 94 100 91
-99.933426 -48.273495 25.513794 102 109 100
-99.756012 -48.311089 25.542545 113 118 109
-99.502182 -48.386086 25.546352 178 179 173
-99.282967 -48.28017 25.539598 106 112 103
-99.140594 -48.250084 25.591469 116 118 109
-98.998589 -48.265045 25.594919 111 112 107
-98.650749 -48.273724 25.537941 112 112 111
-98.520233 -48.29525 25.487282 113 116 116
-98.305458 -48.308712 25.502913 118 123 123
-98.100121 -48.362873 25.467524 144 143 139
-97.41095 -48.362049 25.421322 140 150 152
-96.720261 -48.343403 25.528587 65 71 69
-96.533974 -48.271301 25.48082 97 105 101
-103.23855 -48.085823 25.50935 148 150 150
-103.11333 -48.135105 25.468306 122 124 124
-102.85986 -48.11198 25.487244 151 152 157
-102.71967 -48.128239 25.489059 155 154 160
-102.49406 -48.119617 25.491489 140 141 145
-102.29044 -48.120441 25.512632 140 141 136
-102.11134 -48.120392 25.546389 118 125 122
-101.75349 -48.072754 25.447756 106 113 105
-100.43437 -48.144768 25.538696 93 99 92
-100.33784 -48.057911 25.476377 66 76 67
-100.05453 -48.136559 25.509912 102 108 99
-99.875748 -48.142395 25.515366 104 110 100
-99.743599 -48.199753 25.427147 82 90 79
-99.31929 -48.129589 25.512245 96 100 91
-99.134232 -48.078087 25.552406 124 125 114
-98.865898 -48.052555 25.524374 108 110 102
-98.719696 -48.090454 25.501095 83 91 86
-98.479469 -48.098286 25.485624 95 100 101
-98.325264 -48.119835 25.506184 101 106 105
-97.622475 -48.09903 25.562435 81 85 84
-97.570465 -48.068115 25.505064 59 70 64
-103.04381 -47.932808 25.478916 88 94 89
-102.89618 -47.901447 25.469927 108 109 111
-102.68866 -47.887501 25.480911 144 146 151
-102.4706 -47.890785 25.48085 151 153 156
-102.33553 -47.896904 25.535505 138 144 142
-100.46743 -47.936581 25.50762 70 79 73
-100.12918 -47.957916 25.552427 157 158 158
-99.864532 -47.865063 25.504538 118 122 118
-99.233139 -47.991333 25.504063 120 122 114
-98.884529 -47.89539 25.502001 131 128 121
-98.687035 -47.997032 25.425526 59 65 61
-98.452721 -47.839844 25.518652 110 113 109
-98.286896 -47.903343 25.499308 91 99 96
-98.149414 -47.844707 25.522924 91 105 103
-97.532242 -47.875042 25.517679 106 121 118
-102.86518 -47.705383 25.472342 92 98 94
-102.69623 -47.706013 25.495148 123 120 121
-102.52441 -47.719055 25.503296 145 140 142
-102.25281 -47.687408 25.516794 127 131 127
-102.08935 -47.652241 25.547327 123 125 122
-100.12065 -47.748341 25.410473 159 162 164
-99.566559 -47.730667 25.55953 111 122 116
-98.869148 -47.722836 25.486464 149 140 138
-98.714066 -47.655991 25.511732 123 122 120
-98.493256 -47.674671 25.49481 88 98 97
-98.275658 -47.699821 25.506542 97 108 110
-98.161499 -47.683151 25.540211 105 117 119
-102.70294 -47.505299 25.42277 153 151 155
-102.25111 -47.499401 25.496552 147 152 150
-102.07822 -47.478382 25.53821 125 128 124
-101.88278 -47.478485 25.517916 145 145 141
-101.67222 -47.503288 25.461739 137 141 139
-101.58368 -47.595394 25.487148 80 83 84
-99.277626 -47.529079 25.512022 119 127 123
-98.846016 -47.516888 25.522638 153 140 140
-98.703827 -47.536808 25.487129 98 100 99
-98.480286 -47.512794 25.499823 110 119 121
-98.300179 -47.503475 25.498974 108 117 122
-98.168388 -47.515152 25.517508 106 118 122
-97.979431 -47.499496 25.517075 99 109 110
-102.2766 -47.30415 25.453259 97 106 103
-102.09211 -47.3013 25.493797 157 155 155
-101.94443 -47.324463 25.560349 141 137 137
-101.70397 -47.39875 25.506611 153 153 151
-99.849243 -47.205853 25.522907 87 88 82
-99.75843 -47.294979 25.593334 184 181 176
-98.729622 -47.336178 25.486589 96 96 95
-98.495728 -47.290421 25.498562 109 120 120
-98.297501 -47.295937 25.488815 95 106 108
-98.127975 -47.278454 25.521946 98 110 110
-97.594429 -47.32066 25.563711 95 105 106
-102.25289 -47.078362 25.470577 72 73 72
-102.18574 -47.090721 25.443115 143 141 144
-101.08013 -47.07428 25.590879 108 107 102
-99.901398 -47.156036 25.469128 101 99 93
-98.838112 -47.041332 25.539953 163 153 154
-98.722137 -47.132362 25.455942 97 98 99
-98.509621 -47.146889 25.482805 90 101 103
-98.320541 -47.126621 25.443924 79 90 86
-98.101212 -47.111107 25.494591 107 116 116
-97.629929 -47.161098 25.444811 75 86 82
-97.553001 -47.018394 25.40243 146 154 156
-102.06323 -46.866215 25.500675 134 132 135
-101.27737 -46.953766 25.541025 113 108 107
-101.09547 -46.890152 25.48028 104 104 99
-98.844246 -46.898407 25.503542 141 134 135
-98.766617 -46.875507 25.516909 129 124 125
-98.401611 -46.85075 25.516491 156 165 164
-98.300209 -46.877708 25.525846 112 119 122
-98.1157 -46.964115 25.436083 115 125 128
-102.26588 -46.747112 25.502855 104 101 102
-102.16225 -46.748596 25.450155 143 134 136
-101.93472 -46.643738 25.478399 149 151 148
-101.08456 -46.739132 25.453327 132 134 128
-100.93991 -46.717484 25.475113 119 123 113
-100.34795 -46.744022 25.595161 72 82 74
-99.311806 -46.655228 25.555676 95 103 103
-99.148438 -46.612373 25.553604 116 124 123
-98.870743 -46.70631 25.509642 113 113 111
-98.746925 -46.700462 25.467041 112 115 114
-98.48098 -46.714951 25.533207 121 129 133
-98.333572 -46.744633 25.458353 103 109 110
-102.0745 -46.599453 25.568432 65 59 59
-101.92294 -46.45253 25.459068 142 143 137
-101.62689 -46.437214 25.524141 156 147 148
-101.50408 -46.459595 25.546082 148 148 145
-101.33867 -46.502243 25.538931 141 142 135
-99.695992 -46.511837 25.548042 127 134 127
-99.505463 -46.465416 25.499695 106 114 112
-99.318237 -46.483894 25.516882 100 106 105
-99.081299 -46.499153 25.498213 82 92 87
-98.931755 -46.49509 25.485771 114 114 114
-98.649101 -46.49968 25.462774 109 120 122
-98.510635 -46.519871 25.488958 106 114 116
-102.21712 -46.305988 25.597734 70 82 82
-101.85195 -46.240517 25.539047 89 88 88
-101.68282 -46.257763 25.506584 134 133 129
-101.51107 -46.30505 25.513147 151 148 143
-101.28651 -46.317879 25.540392 123 127 119
-101.16087 -46.243111 25.546837 131 126 120
-100.05132 -46.261585 25.594391 129 134 128
-99.658234 -46.323624 25.52787 125 130 124
-99.482124 -46.30014 25.491528 109 117 113
-99.269173 -46.322922 25.496778 112 117 116
-99.069527 -46.295666 25.495955 103 108 110
-98.956528 -46.322891 25.453548 112 115 116
-98.539772 -46.301014 25.452398 134 142 148
-102.00092 -46.119877 25.410707 57 57 55
-101.82143 -46.152069 25.463497 80 87 86
-101.68512 -46.100994 25.499434 146 145 144
-101.50409 -46.095245 25.506506 143 144 140
-101.33367 -46.116276 25.519329 123 128 121
-100.45025 -46.07349 25.518929 120 124 118
-100.32806 -46.082611 25.54306 131 138 129
-100.09186 -46.085144 25.545397 129 130 124
-99.932701 -46.037693 25.556852 170 168 164
-99.706215 -46.096478 25.563097 129 131 123
-99.515297 -46.107037 25.494207 138 140 135
-99.292381 -46.137527 25.445724 114 120 121
-99.130791 -46.088959 25.442738 95 100 106
-98.904289 -46.196831 25.485802 118 123 127
-98.630341 -46.089203 25.475201 171 180 189
-102.12435 -45.91375 25.461538 96 102 102
-101.85226 -45.878361 25.504221 120 120 122
-101.69261 -45.910378 25.514889 139 137 138
-101.49194 -45.873554 25.51433 131 135 131
-101.29073 -45.976959 25.54525 171 169 167
-100.49241 -45.896404 25.5124 113 122 113
-100.30032 -45.880856 25.530794 130 135 129
-100.10143 -45.888554 25.507376 127 131 127
-99.954231 -45.912636 25.499104 134 135 130
-99.648491 -45.915131 25.526367 134 132 129
-99.538345 -45.910202 25.503628 140 137 134
-99.378456 -45.864349 25.512388 141 142 142
-98.625626 -45.920132 25.593218 163 167 178
-101.8512 -45.77776 25.480677 63 72 66
-101.68356 -45.721138 25.470076 131 133 134
-101.54881 -45.764179 25.561859 144 139 145
-101.31545 -45.654865 25.512802 137 138 133
-101.09618 -45.655739 25.488237 131 135 126
-100.99072 -45.647194 25.558601 211 212 204
-100.63679 -45.700306 25.534286 143 136 136
-100.52318 -45.723705 25.482546 143 146 140
-100.3129 -45.72311 25.517046 129 133 124
-100.09418 -45.706345 25.491884 129 133 126
-99.97052 -45.723164 25.538424 156 154 147
-99.671021 -45.724476 25.475971 154 147 145
-99.500801 -45.709553 25.484041 141 137 138
-99.278168 -45.755466 25.460476 103 108 104
-98.631683 -45.694981 25.50523 143 144 156
-101.81528 -45.569324 25.400139 195 199 202
-101.71571 -45.588913 25.436989 138 141 148
-101.27744 -45.504604 25.500124 157 158 155
-101.11592 -45.531616 25.482882 158 157 154
-100.89944 -45.417187 25.551374 155 156 147
-100.66662 -45.484634 25.544109 148 150 139
-100.49725 -45.477493 25.509577 135 139 132
-100.31897 -45.512234 25.526228 147 143 139
-100.14033 -45.507545 25.491188 174 173 167
-99.843277 -45.45401 25.561142 201 193 193
-99.701225 -45.496239 25.543633 129 134 127
-99.518303 -45.511723 25.490755 138 137 135
-99.365631 -45.591541 25.446352 76 82 78
-98.646332 -45.515945 25.455086 142 149 156
-101.79599 -45.340504 25.497967 60 66 62
-101.4642 -45.324722 25.478519 99 101 101
-101.29345 -45.296936 25.514666 150 148 151
-101.09022 -45.263153 25.540539 139 139 137
-100.88821 -45.26429 25.537729 161 162 159
-100.71696 -45.303577 25.523319 154 151 145
-100.53661 -45.279945 25.513166 140 143 132
-100.35783 -45.2864 25.551838 144 145 137
-100.05141 -45.289696 25.515324 151 154 147
-99.915871 -45.289795 25.520681 142 145 138
-99.691475 -45.308994 25.508804 160 160 156
-99.569099 -45.322449 25.477674 157 157 152
-101.27513 -45.11208 25.467209 98 101 99
-101.1265 -45.113991 25.515512 79 84 81
-100.88858 -45.102921 25.497639 103 109 107
-100.71742 -45.099747 25.548639 110 115 113
-100.50104 -45.105034 25.537178 158 158 152
-100.29763 -45.080673 25.552216 164 159 155
-100.08237 -45.092648 25.493509 172 169 165
-99.890884 -45.105808 25.468857 150 149 146
-99.704834 -45.165203 25.461222 136 136 136
-99.54882 -45.106018 25.427402 139 133 135
-101.30125 -44.98106 25.44018 100 106 109
-101.10988 -44.93708 25.486073 60 67 67
-100.88751 -44.928959 25.452621 70 79 74
-100.63438 -44.925148 25.477116 108 111 112
-100.53106 -44.92194 25.502001 133 132 131
-100.09558 -44.925629 25.476101 164 159 158
-99.505463 -44.833725 25.537611 182 165 173
-100.62985 -44.78511 25.41115 66 75 75
-100.52423 -44.736458 25.523214 159 156 156
-100.27734 -44.618923 25.495834 162 158 158
-100.12294 -44.711609 25.476284 155 152 155
-99.622948 -44.639545 25.519024 73 72 77
-99.593872 -44.636044 25.462238 140 128 138
-100.45847 -44.513268 25.425026 148 147 145
-100.30543 -44.567142 25.508118 93 97 95
-100.1312 -44.492386 25.467165 104 108 112
-99.614639 -44.497307 25.405111 87 80 88
-99.557404 -44.514351 25.457699 115 119 120
-100.42722 -44.18784 25.469862 85 91 89
-101.88471 -60.054031 25.695187 76 83 94
-101.66624 -60.105492 25.698803 114 115 131
-101.85242 -59.878307 25.774256 97 103 111
-101.70597 -59.882484 25.705837 110 115 127
-101.59603 -59.821892 25.672012 154 156 169
-102.06432 -59.744144 25.753485 79 86 94
-101.84323 -59.767502 25.729458 95 98 112
-101.69087 -59.719776 25.744274 107 108 121
-101.80683 -59.430248 25.635872 132 138 154
-101.76263 -59.476818 25.672235 128 131 145
-101.83538 -59.299549 25.695812 103 109 121
-101.78972 -59.383465 25.616806 115 119 130
-103.07731 -59.031525 25.686544 59 69 71
-102.83382 -59.0079 25.627865 63 72 78
-102.68161 -59.056854 25.684376 73 80 86
-102.46679 -59.036366 25.638 96 105 110
-101.9102 -59.129208 25.706722 105 109 122
-103.28963 -58.909264 25.658813 50 59 63
-103.0828 -58.84898 25.660753 60 69 74
-102.89109 -58.918762 25.712706 67 76 80
-102.63059 -58.93169 25.734415 67 77 79
-102.48945 -58.934391 25.752302 77 87 90
-102.29468 -58.928204 25.686846 79 88 93
-102.11992 -58.84367 25.662235 86 93 102
-101.92392 -58.891052 25.677828 113 117 131
-103.51375 -58.622524 25.656218 109 112 121
-103.2927 -58.692673 25.733612 63 74 79
-103.09679 -58.689758 25.700939 72 83 87
