ply
format ascii 1.0
comment PCL generated
element vertex 1062
property float x
property float y
property float z
property uchar red
property uchar green
property uchar blue
element face 0
element camera 0
property float view_px
property float view_py
property float view_pz
property float x_axisx
property float x_axisy
property float x_axisz
property float y_axisx
property float y_axisy
property float y_axisz
property float z_axisx
property float z_axisy
property float z_axisz
property float focal
property float scalex
property float scaley
property float centerx
property float centery
property int viewportx
property int viewporty
property float k1
property float k2
end_header
-29.260414 -17.326277 -1.1252853 99 115 79
-29.14785 -17.246269 -1.1414117 113 132 93
-28.927195 -17.207869 -1.1826913 139 166 115
-35.286896 -17.154987 -1.0185894 99 105 87
-35.100601 -17.122597 -1.0436404 91 98 94
-34.881477 -17.150972 -1.0326011 110 110 115
-34.689621 -17.094681 -1.0317283 112 111 116
-34.266258 -17.05122 -1.0583652 121 121 131
-34.110336 -17.07618 -1.0581903 125 124 134
-33.884144 -17.097797 -1.0787153 112 111 122
-33.688908 -17.09342 -1.0973245 106 107 117
-33.496731 -17.089462 -1.1020619 127 127 140
-33.314133 -17.11392 -1.1199387 110 115 124
-33.095646 -17.116768 -1.1312944 84 90 97
-32.884926 -17.085709 -1.1307369 123 130 143
-32.71032 -17.097109 -1.1123691 141 149 164
-32.470871 -17.106512 -1.1118298 124 130 144
-32.299995 -17.091755 -1.0937946 182 185 203
-32.103111 -17.093292 -1.1021689 141 149 166
-31.897263 -17.087049 -1.1162813 121 128 144
-31.70385 -17.103188 -1.1287696 116 124 141
-31.518457 -17.115938 -1.1433222 134 139 160
-31.330248 -17.105339 -1.138888 137 138 159
-31.092899 -17.097662 -1.1593498 140 144 162
-30.730423 -17.060408 -1.1997044 83 85 92
-30.499889 -17.040028 -1.1745403 164 164 178
-30.349102 -17.144936 -1.1673582 155 156 172
-30.016499 -17.134148 -1.1858013 83 83 93
-29.507912 -17.062706 -1.1132935 87 99 65
-29.25581 -17.039337 -1.1167012 112 126 85
-29.097376 -17.116526 -1.1858476 108 132 91
-28.881653 -17.114967 -1.1771632 116 136 91
-35.090416 -16.945454 -1.045392 147 153 149
-34.884308 -16.852104 -1.0362246 129 127 131
-34.712643 -16.90839 -1.0200822 118 118 123
-34.474686 -16.911985 -1.0367095 109 110 118
-34.27647 -16.891323 -1.0405465 117 116 124
-34.080883 -16.908709 -1.0594671 117 118 129
-33.910336 -16.892437 -1.1089002 108 109 119
-33.699013 -16.918959 -1.0872823 100 103 110
-33.499172 -16.888474 -1.0808352 109 116 121
-33.30378 -16.901558 -1.1266693 103 112 119
-33.08099 -16.895054 -1.1392475 104 111 119
-32.894833 -16.895565 -1.1319163 111 118 129
-32.696449 -16.913788 -1.1054904 107 114 126
-32.510723 -16.898708 -1.1044822 104 111 122
-32.2952 -16.903366 -1.1098654 150 151 170
-32.113693 -16.910309 -1.1061414 149 154 173
-31.878155 -16.889359 -1.1069027 128 132 145
-31.697161 -16.905373 -1.1275334 133 137 154
-31.493988 -16.888792 -1.1481943 111 117 129
-31.271181 -16.872669 -1.1586407 134 140 156
-31.102264 -16.928408 -1.1538135 145 149 168
-30.960335 -16.933128 -1.1542169 134 138 160
-30.104986 -16.983696 -1.1988819 124 123 139
-29.927814 -16.806103 -1.1886957 118 118 120
-29.700886 -16.81661 -1.1576841 115 118 98
-29.491522 -16.889387 -1.1714383 106 119 87
-29.301916 -16.903717 -1.1575687 107 122 81
-29.130817 -16.897987 -1.1422586 103 120 76
-28.921814 -16.916355 -1.169181 115 129 86
-28.76927 -16.862335 -1.1765444 109 119 75
-34.90266 -16.744644 -1.0519326 117 115 110
-34.683033 -16.735023 -1.0091401 118 117 115
-34.502598 -16.7526 -1.0216051 111 110 115
-34.260372 -16.701725 -1.0417516 127 125 127
-34.097237 -16.686266 -1.0521573 131 129 134
-33.886303 -16.698481 -1.1004143 118 121 122
-33.708847 -16.696192 -1.0867784 100 111 106
-33.491196 -16.688484 -1.1041623 118 127 132
-33.293335 -16.702486 -1.1055158 126 136 143
-33.091331 -16.685822 -1.1071258 125 130 140
-32.892769 -16.693087 -1.092501 102 111 119
-32.680309 -16.702826 -1.1071037 103 112 125
-32.485088 -16.690348 -1.0987731 119 125 137
-32.310017 -16.691437 -1.1157365 133 138 152
-32.088554 -16.700558 -1.1289061 112 119 134
-31.926054 -16.68107 -1.1097144 128 133 149
-31.689323 -16.711781 -1.1221045 133 132 143
-31.50386 -16.693701 -1.137719 133 138 154
-31.303137 -16.691132 -1.1441572 134 141 160
-31.107479 -16.719254 -1.1504619 123 130 151
-30.901911 -16.665091 -1.1506652 154 161 181
-30.729656 -16.643791 -1.1764048 130 135 152
-29.885849 -16.683863 -1.0913272 107 113 97
-29.662703 -16.738586 -1.0895667 92 101 75
-29.496237 -16.687523 -1.1160338 90 104 69
-29.260305 -16.669008 -1.167662 93 110 68
-29.037903 -16.677238 -1.1631869 102 117 72
-28.897047 -16.663837 -1.1820065 102 114 72
-28.79723 -16.761717 -1.1651773 107 119 73
-34.426781 -16.470776 -1.0278524 121 122 109
-34.216293 -16.544735 -1.0385782 132 135 125
-34.079407 -16.497452 -1.0683352 115 121 102
-33.89769 -16.516714 -1.0704054 87 106 76
-33.714058 -16.505796 -1.1104765 91 108 81
-33.518543 -16.475712 -1.1043836 111 123 114
-33.310932 -16.510532 -1.0990443 113 123 125
-33.103104 -16.503548 -1.0978688 120 128 131
-32.892941 -16.502306 -1.1039336 138 144 157
-32.700253 -16.503006 -1.0998179 151 159 178
-32.497356 -16.496477 -1.0923057 122 129 142
-32.294285 -16.496565 -1.1032757 147 155 169
-32.093967 -16.498642 -1.1119497 109 119 132
-31.901785 -16.499563 -1.1026491 126 132 148
-31.699739 -16.500753 -1.1215532 140 144 160
-31.493668 -16.495258 -1.1304797 159 165 183
-31.312479 -16.502028 -1.1509354 137 143 163
-31.102449 -16.490711 -1.1503801 109 114 130
-30.913799 -16.498701 -1.123461 138 144 159
-30.713861 -16.493441 -1.1463809 147 150 170
-30.542547 -16.518473 -1.1710106 163 169 192
-30.054419 -16.488325 -1.1375533 108 116 100
-29.906412 -16.497442 -1.1338786 103 111 91
-29.691568 -16.484468 -1.1184636 97 112 75
-29.505344 -16.479748 -1.1319101 94 111 71
-29.30905 -16.502314 -1.1457762 98 116 73
-29.121847 -16.523869 -1.1441774 101 119 70
-28.872726 -16.528601 -1.1458666 107 116 77
-28.756657 -16.516338 -1.1745164 115 121 85
-34.336586 -16.369896 -1.0482841 127 132 104
-34.096825 -16.356428 -1.0672929 99 111 80
-33.881912 -16.366962 -1.0594482 82 107 70
-33.679726 -16.297909 -1.0739555 102 113 89
-33.508278 -16.309139 -1.0752355 109 122 104
-33.295753 -16.311178 -1.0968777 117 128 119
-33.115402 -16.311136 -1.1052999 115 122 116
-32.897182 -16.314732 -1.1105647 132 135 143
-32.687908 -16.306253 -1.0997889 124 129 144
-32.488609 -16.287935 -1.1001667 138 142 153
-32.307388 -16.317085 -1.0903482 133 139 150
-32.109936 -16.301399 -1.0893582 107 118 126
-31.906679 -16.292059 -1.1074252 100 106 114
-31.691092 -16.29155 -1.1052644 118 125 141
-31.497694 -16.291079 -1.1316592 122 128 145
-31.303133 -16.292461 -1.1391151 129 135 155
-31.089779 -16.308586 -1.1446819 127 130 147
-30.898687 -16.303444 -1.1292306 115 118 132
-30.710728 -16.285154 -1.159148 115 117 133
-30.502911 -16.29299 -1.1555765 124 127 145
-30.267551 -16.241467 -1.0850086 82 102 71
-30.079922 -16.283827 -1.0960679 94 113 83
-29.897432 -16.301537 -1.1060323 97 114 80
-29.711281 -16.307199 -1.1032811 103 119 81
-29.51923 -16.298433 -1.1108452 100 117 75
-29.32251 -16.287851 -1.1532294 105 120 77
-29.130613 -16.309557 -1.1749134 105 116 78
-28.9277 -16.325132 -1.192476 108 113 82
-28.674091 -16.350399 -1.1281246 104 106 75
-28.592484 -16.314976 -1.1899505 97 101 66
-33.649578 -16.111805 -1.036037 90 99 68
-33.478729 -16.138699 -1.0416137 113 118 100
-33.319813 -16.115923 -1.0440302 100 117 88
-33.081238 -16.124708 -1.0650477 108 120 97
-32.90815 -16.109909 -1.1089114 126 126 122
-32.697933 -16.105297 -1.0975114 140 140 151
-32.493027 -16.113707 -1.097595 127 132 132
-32.278919 -16.109152 -1.1013206 135 136 148
-32.107792 -16.106956 -1.0852691 115 123 125
-31.894184 -16.097467 -1.0895746 105 114 120
-31.699919 -16.099709 -1.0886059 114 119 132
-31.515217 -16.112938 -1.0980848 100 106 115
-31.313738 -16.097136 -1.0963054 115 119 127
-31.115995 -16.09264 -1.122858 105 108 120
-30.915691 -16.083656 -1.1378905 114 117 125
-30.689726 -16.076981 -1.1361011 122 122 130
-30.490341 -16.06275 -1.1319788 97 107 94
-30.297522 -16.102602 -1.0996991 90 111 75
-30.092287 -16.090534 -1.0976754 91 112 76
-29.89308 -16.109171 -1.0999283 95 113 76
-29.698961 -16.096401 -1.113978 95 112 74
-29.496532 -16.076536 -1.1296364 92 108 68
-29.283424 -16.125204 -1.1331115 105 115 79
-29.099575 -16.092609 -1.1293598 110 120 83
-28.809679 -16.176199 -1.194737 105 114 78
-28.704645 -16.042608 -1.1632358 125 134 95
-33.413548 -15.996902 -1.0280075 99 102 79
-33.252277 -15.893909 -1.051168 88 106 76
-33.078411 -15.915966 -1.0306625 124 130 128
-32.865284 -15.89899 -1.0395137 124 125 122
-32.709049 -15.896877 -1.0818034 129 129 121
-32.482006 -15.929061 -1.101459 126 128 128
-32.308437 -15.907436 -1.1215603 127 126 135
-32.107262 -15.891114 -1.0994828 138 138 144
-31.883701 -15.911538 -1.0783395 119 129 123
-31.699158 -15.916795 -1.097082 122 125 133
-31.495295 -15.915271 -1.0891758 112 121 116
-31.293753 -15.913081 -1.0951141 104 110 102
-31.101715 -15.887008 -1.0906844 114 114 113
-30.902483 -15.897993 -1.0985373 111 113 109
-30.707037 -15.900309 -1.1064621 102 112 100
-30.504309 -15.901473 -1.0976493 93 108 83
-30.301033 -15.914945 -1.0852083 100 117 83
-30.092163 -15.896533 -1.0852396 98 113 79
-29.90073 -15.914388 -1.0994951 99 117 77
-29.711384 -15.901882 -1.1007503 95 113 73
-29.496077 -15.894264 -1.1109294 98 116 73
-29.302732 -15.89042 -1.121076 100 112 74
-29.090467 -15.903431 -1.1388584 99 109 72
-28.90468 -15.872066 -1.1449479 112 119 86
-28.66507 -15.947721 -1.1697621 110 118 81
-28.489027 -15.835794 -1.1936288 106 105 83
-27.886616 -15.944492 -1.1781012 101 96 72
-33.110455 -15.780211 -1.0155036 133 129 128
-32.85458 -15.776415 -1.0209944 105 120 94
-32.6702 -15.748514 -1.0394551 121 123 110
-32.508926 -15.751674 -1.0563244 130 128 120
-32.285225 -15.731039 -1.0620862 127 121 120
-32.076302 -15.728273 -1.0721976 138 132 130
-31.908146 -15.713891 -1.10557 124 128 118
-31.696753 -15.68791 -1.1085014 131 133 131
-31.505596 -15.713241 -1.1039351 133 135 128
-31.310898 -15.71685 -1.1030203 120 125 105
-31.091408 -15.705231 -1.1108398 132 126 119
-30.900539 -15.719197 -1.1065444 123 121 110
-30.702354 -15.705103 -1.0862316 112 124 99
-30.498514 -15.704449 -1.0837847 114 126 96
-30.294662 -15.701103 -1.1028223 105 116 86
-30.099005 -15.699898 -1.0907272 110 118 93
-29.905565 -15.716775 -1.1028763 102 114 81
-29.711376 -15.703822 -1.1006858 105 122 81
-29.506788 -15.704525 -1.1048337 99 117 75
-29.297308 -15.690514 -1.1020477 100 113 78
-29.089823 -15.700897 -1.1375773 109 115 86
-28.957993 -15.655807 -1.1269186 113 115 91
-28.720367 -15.715381 -1.1810334 108 114 82
-28.503727 -15.694151 -1.1686727 110 110 89
-28.324202 -15.754006 -1.1671631 134 129 114
-28.104622 -15.698167 -1.1795869 115 115 89
-27.923004 -15.655075 -1.1947932 97 99 72
-32.610332 -15.590512 -1.011667 127 133 111
-32.532524 -15.554551 -1.0074263 121 128 101
-32.357182 -15.417882 -1.0039957 159 156 152
-32.021107 -15.483853 -1.0078578 114 120 95
-31.901037 -15.534342 -1.0530323 119 127 105
-31.715588 -15.493937 -1.0885807 134 137 119
-31.512098 -15.525605 -1.0880841 136 129 120
-31.305054 -15.503863 -1.0555632 142 135 123
-31.125162 -15.498253 -1.0781312 142 136 119
-30.912367 -15.54905 -1.0267177 131 135 113
-30.660383 -15.482071 -1.077479 126 128 117
-30.503153 -15.492404 -1.0889772 126 129 114
-30.313038 -15.512898 -1.0684049 114 126 92
-30.092791 -15.49491 -1.0843128 117 126 97
-29.912712 -15.514818 -1.0954353 106 115 88
-29.700441 -15.482589 -1.0979415 109 118 89
-29.497917 -15.491895 -1.1064134 108 122 87
-29.297379 -15.485566 -1.0892293 107 117 87
-29.128168 -15.497408 -1.1061498 112 115 93
-28.912138 -15.5084 -1.1427724 110 111 92
-28.703617 -15.467087 -1.1724538 124 126 101
-28.514269 -15.470325 -1.1537845 124 126 103
-28.306671 -15.498232 -1.1813651 112 108 85
-28.122421 -15.538602 -1.1928047 108 107 85
-27.70676 -15.476112 -1.1759741 97 88 79
-32.417755 -15.33815 -1.0128024 145 137 131
-32.309711 -15.273206 -1.0124469 163 146 153
-31.891556 -15.30469 -1.022536 134 134 115
-31.694115 -15.299842 -1.0462366 135 136 118
-31.472794 -15.3231 -1.0515569 150 142 127
-31.299259 -15.290109 -1.0616635 184 168 165
-31.107937 -15.285852 -1.0692141 161 153 138
-30.948246 -15.288607 -1.0182397 141 147 120
-30.656965 -15.302131 -1.0334145 133 137 119
-30.481668 -15.305555 -1.073315 126 127 112
-30.299614 -15.304914 -1.0958229 123 126 106
-30.105892 -15.303741 -1.1015046 119 123 101
-29.896463 -15.305692 -1.1063664 112 117 91
-29.691109 -15.282992 -1.0855136 119 120 104
-29.483038 -15.312958 -1.1031681 116 119 99
-29.285442 -15.27865 -1.0758013 112 113 102
-29.10738 -15.314504 -1.1198856 123 122 106
-28.889549 -15.292672 -1.1165233 113 113 94
-28.670597 -15.318798 -1.1407114 114 116 92
-28.490557 -15.267153 -1.1098156 119 117 101
-28.381117 -15.326118 -1.1138194 113 108 103
-28.179548 -15.26976 -1.1578393 114 108 92
-27.790768 -15.365576 -1.1961875 101 100 81
-27.56498 -15.310854 -1.1752205 135 128 117
-31.70499 -15.117763 -1.0229292 141 136 116
-31.491562 -15.126111 -1.0288466 167 150 147
-31.276949 -15.10627 -1.0715998 190 167 174
-31.092245 -15.12192 -1.0913696 161 148 143
-30.908743 -15.098967 -1.0887977 151 144 133
-30.69511 -15.113061 -1.0679302 148 143 134
-30.49958 -15.103292 -1.0998855 144 140 130
-30.297886 -15.104517 -1.1041423 130 128 114
-30.089537 -15.096297 -1.1128764 130 130 113
-29.896519 -15.101091 -1.1183169 121 123 102
-29.685518 -15.091084 -1.0931505 121 121 103
-29.490191 -15.114469 -1.0902812 117 118 98
-29.305912 -15.095514 -1.1170163 117 117 99
-29.124281 -15.096154 -1.1270877 120 116 103
-28.907986 -15.088966 -1.0913066 115 113 92
-28.709358 -15.117986 -1.1283398 114 115 94
-28.500633 -15.10704 -1.1122755 113 113 90
-28.318106 -15.101013 -1.1313237 116 112 94
-28.122007 -15.122924 -1.110429 135 130 118
-27.893803 -15.096161 -1.1255294 116 115 96
-27.683439 -15.019632 -1.1531881 118 113 104
-27.564285 -15.069905 -1.1296815 123 117 109
-31.45793 -14.927711 -1.0163679 163 146 137
-31.288397 -14.905103 -1.0396268 146 137 127
-31.076859 -14.932173 -1.0529822 135 131 115
-30.887888 -14.905523 -1.0770578 151 142 132
-30.681366 -14.913405 -1.0984498 150 140 135
-30.500383 -14.896557 -1.103629 148 138 129
-30.287569 -14.90343 -1.0966389 136 131 117
-30.087643 -14.907735 -1.1073724 132 130 118
-29.913256 -14.902241 -1.1053776 130 129 118
-29.715294 -14.907228 -1.1074232 125 124 110
-29.506245 -14.90074 -1.0691932 126 130 115
-29.307423 -14.897099 -1.0926703 122 123 107
-29.124031 -14.896804 -1.1061568 127 122 112
-28.905188 -14.867498 -1.1402215 118 117 105
-28.730133 -14.903029 -1.1194104 110 110 93
-28.489391 -14.895616 -1.09267 110 110 91
-28.278971 -14.910652 -1.1279747 122 116 104
-28.130344 -14.972092 -1.1925387 134 128 124
-27.76339 -14.810493 -1.1817949 105 104 93
-27.262922 -14.988914 -1.1914783 119 120 89
-31.414427 -14.785634 -1.0007846 141 134 118
-31.30335 -14.720857 -1.0187402 142 134 120
-31.089979 -14.736663 -1.0264896 141 138 118
-30.883051 -14.691237 -1.0283328 139 134 122
-30.711697 -14.713489 -1.0844957 138 129 120
-30.489527 -14.714095 -1.0931565 148 139 129
-30.296274 -14.700969 -1.1112651 146 138 127
-30.111221 -14.691777 -1.1098698 144 138 127
-29.899014 -14.699668 -1.1052902 140 138 127
-29.699415 -14.701651 -1.0974389 132 130 118
-29.509192 -14.693062 -1.1035572 132 128 118
-29.310745 -14.692107 -1.0976019 128 124 115
-29.080223 -14.722517 -1.1105613 123 121 109
-28.871992 -14.67138 -1.1036763 123 121 108
-28.698704 -14.676507 -1.1113101 112 114 97
-28.49585 -14.682302 -1.0960691 109 110 97
-28.274124 -14.660895 -1.0926249 122 120 109
-28.176994 -14.71652 -1.1860192 120 116 104
-27.996061 -14.66375 -1.1647129 117 114 101
-27.522747 -14.683708 -1.1965182 115 117 98
-31.184746 -14.58693 -1.0247452 152 142 128
-30.869396 -14.498709 -1.0478302 153 141 130
-30.719366 -14.488569 -1.0707448 140 130 121
-30.515188 -14.506202 -1.1096145 147 137 123
-30.289888 -14.486581 -1.0961899 143 136 124
-30.101988 -14.494781 -1.0913157 145 137 130
-29.916943 -14.504958 -1.1000382 152 143 137
-29.695358 -14.507541 -1.088936 138 134 124
-29.479298 -14.500176 -1.097677 131 127 117
-29.274063 -14.482165 -1.0966449 130 123 115
-29.115511 -14.511048 -1.1164008 125 120 111
-28.901955 -14.484439 -1.0991346 134 128 122
-28.735037 -14.474182 -1.1041135 123 121 109
-28.500719 -14.504013 -1.0886706 112 114 100
-28.291391 -14.508427 -1.089798 118 120 107
-28.124851 -14.478032 -1.1182725 116 113 102
-27.928995 -14.424441 -1.1388588 113 112 98
-31.069674 -14.300063 -1.0039358 144 137 118
-30.870703 -14.294678 -1.0103762 157 147 135
-30.673956 -14.322955 -1.0560526 143 132 119
-30.492109 -14.313479 -1.0658023 133 130 114
-30.270548 -14.300744 -1.049206 138 135 122
-30.083742 -14.359959 -1.1245573 148 141 131
-29.90316 -14.309066 -1.0979533 147 140 132
-29.704302 -14.307337 -1.103732 152 148 144
-29.506754 -14.316788 -1.0660882 136 133 125
-29.302441 -14.300769 -1.0926093 129 126 116
-29.098217 -14.304364 -1.0928082 135 130 122
-28.907049 -14.28966 -1.0989774 134 126 122
-28.699358 -14.305623 -1.0867496 133 128 123
-28.505198 -14.281526 -1.0669187 125 120 111
-28.000727 -14.347821 -1.0395651 116 109 101
-27.974108 -14.356361 -1.0779824 118 111 103
-31.302654 -14.18059 -1.0038114 154 144 133
-30.813568 -14.130178 -1.0066285 157 146 133
-30.681175 -14.167965 -1.0129315 145 140 126
-30.514002 -14.101143 -1.0216819 143 136 124
-30.322647 -14.093738 -1.0407913 138 134 120
-30.095129 -14.12767 -1.0701942 138 137 123
-29.860815 -14.099736 -1.0489447 131 131 116
-29.675507 -14.057072 -1.028721 129 130 116
-29.478292 -14.125989 -1.078076 146 143 135
-29.314947 -14.135503 -1.0476035 128 126 118
-29.109043 -14.165802 -1.0779257 132 127 122
-28.889101 -14.083598 -1.0666907 134 128 124
-28.683184 -14.149645 -1.0757245 138 130 126
-28.515266 -14.101434 -1.0698324 133 125 122
-28.360044 -14.147885 -1.092521 113 109 102
-30.338276 -13.982833 -1.0262947 144 137 125
-30.124775 -13.938305 -1.032944 137 132 119
-29.910418 -13.924522 -1.0536745 128 125 115
-29.798225 -13.865357 -1.0607145 126 125 112
-29.510029 -13.926641 -1.0593281 133 132 123
-29.262596 -13.905952 -1.0292506 127 125 118
-29.190039 -13.930563 -1.0008075 128 126 118
-28.874651 -13.973006 -1.076745 143 133 141
-28.68742 -13.96209 -1.0553057 134 127 130
-28.571278 -13.992458 -1.0672803 130 119 127
-29.624197 -13.766498 -1.0495467 128 126 115
-32.336708 -25.941296 -0.97678638 83 114 68
-32.605747 -25.463703 -0.8877635 71 101 49
-32.557243 -25.354773 -0.87852836 91 123 73
-28.140656 -25.253525 -0.9493742 76 100 55
-27.627329 -25.234976 -0.98438954 90 102 71
-33.140102 -25.091755 -0.99823904 100 128 79
-28.507647 -25.035583 -0.9892242 70 90 48
-28.29661 -25.109434 -0.99279356 81 99 60
-28.117743 -25.086126 -0.98694372 96 114 74
-27.858152 -25.126337 -0.99034905 84 102 66
-27.709064 -25.07156 -0.83235097 106 115 86
-27.472685 -25.081244 -0.88670141 90 103 73
-27.251791 -25.061903 -0.96678638 80 100 63
-28.825529 -24.854252 -0.95379543 81 102 57
-28.674929 -24.899303 -0.8873055 70 92 50
-28.471918 -24.876215 -0.93837565 90 107 66
-28.234503 -24.956018 -0.86408281 76 101 59
-28.048973 -24.855646 -0.87703896 84 104 67
-27.902822 -24.894022 -0.95836526 83 100 64
-27.701874 -24.903433 -0.91086656 93 107 74
-27.534409 -24.868031 -0.90306896 101 113 83
-27.325483 -24.911633 -0.90952253 83 100 63
-29.271833 -24.69162 -0.98299193 134 151 106
-28.837513 -24.646244 -0.95532024 114 136 102
-28.701559 -24.713181 -0.87525654 85 108 72
-28.507668 -24.698193 -0.93719959 92 113 79
-28.215212 -24.69409 -0.82095027 65 84 48
-28.086243 -24.711544 -0.92704493 79 98 61
-27.897125 -24.691277 -0.93119639 102 111 82
-27.750868 -24.728951 -0.97258759 85 96 64
-27.561522 -24.611814 -0.95429134 65 80 56
-27.325706 -24.728348 -0.90556467 81 93 60
-32.410679 -24.444166 -0.88184643 62 88 41
-32.296295 -24.440674 -0.96640551 89 110 66
-32.086136 -24.429922 -0.93248224 75 91 59
-31.2356 -24.451208 -0.9108367 92 111 75
-29.355934 -24.528004 -0.97931385 85 105 59
-29.12042 -24.423193 -0.96383953 98 118 78
-28.914547 -24.493729 -0.94044948 77 100 62
-28.758011 -24.492167 -0.91450071 82 105 66
-28.527794 -24.501638 -0.93946266 90 105 78
-28.292917 -24.479761 -0.93663079 89 109 79
-28.105768 -24.47954 -0.90454525 77 96 61
-27.891087 -24.494221 -0.89217776 87 97 73
-27.66791 -24.493645 -0.91507274 77 89 62
-27.29884 -24.523964 -0.94669366 85 96 75
-26.998947 -24.406778 -0.9382031 87 90 73
-32.306828 -24.395809 -0.87456179 122 147 105
-32.09539 -24.301529 -0.92788255 104 117 84
-31.923185 -24.328543 -0.9679566 87 103 65
-31.242308 -24.321375 -0.93765807 76 95 58
-31.1838 -24.270107 -0.96515369 77 100 57
-30.812929 -24.24003 -0.96997112 80 102 58
-30.723524 -24.260849 -0.97367549 87 111 63
-30.526819 -24.359549 -0.98902249 74 98 50
-29.41662 -24.331905 -0.97374392 104 128 78
-29.321747 -24.246433 -0.9010759 87 114 66
-29.092283 -24.29104 -0.89180762 92 104 67
-28.906164 -24.305456 -0.91947633 94 109 72
-28.691139 -24.298435 -0.91333252 77 98 62
-28.500896 -24.305285 -0.87936538 95 110 79
-28.317905 -24.309338 -0.92865878 86 102 71
-28.157166 -24.294205 -0.90502709 91 103 72
-27.929966 -24.302481 -0.92485118 77 93 68
-27.703587 -24.273439 -0.97941685 89 97 72
-27.527201 -24.319893 -0.90311956 80 85 63
-27.293686 -24.297773 -0.96899521 60 71 43
-27.005419 -24.296156 -0.92766714 80 91 74
-32.221718 -24.094767 -0.92830503 94 109 81
-32.095428 -24.089628 -0.88405436 93 112 74
-31.916998 -24.124617 -0.92043638 81 100 58
-31.218035 -24.196701 -0.83700633 94 116 78
-30.841591 -24.107185 -0.93181717 79 101 55
-30.678301 -24.091017 -0.90914565 83 110 67
-30.032021 -24.091307 -0.96824431 113 130 75
-29.928432 -24.129879 -0.94838595 92 114 62
-29.531359 -24.007271 -0.99116993 78 95 59
-29.328814 -24.103662 -0.94440877 88 113 67
-29.089882 -24.108349 -0.93799341 88 109 72
-28.881338 -24.091745 -0.91873479 83 101 66
-28.702742 -24.105593 -0.93582839 75 95 60
-28.497438 -24.120903 -0.9346295 77 97 70
-28.278046 -24.091778 -0.89246196 90 105 73
-28.093071 -24.071203 -0.93765658 91 101 74
-27.880257 -24.112123 -0.88546288 85 100 72
-27.7204 -24.102621 -0.92655104 89 101 73
-32.074329 -23.907562 -0.90943593 96 119 80
-31.966936 -23.940619 -0.89876533 81 105 61
-30.698536 -23.93969 -0.93967974 92 118 72
-30.498344 -23.918606 -0.97833145 83 106 70
-30.112534 -23.899332 -0.99447006 82 110 61
-29.810024 -23.893471 -0.85741484 92 118 60
-29.504925 -23.888901 -0.93940032 72 96 56
-29.266758 -23.874451 -0.89869034 87 108 68
-29.117815 -23.897497 -0.89286762 86 108 73
-28.911104 -23.908358 -0.92091733 85 104 71
-28.700962 -23.902308 -0.88154125 86 103 72
-28.507999 -23.914551 -0.88954896 78 98 67
-28.294743 -23.914148 -0.9032672 82 102 72
-28.094654 -23.880327 -0.89233607 103 113 84
-27.897774 -23.894196 -0.96851379 87 101 70
-27.740448 -23.845407 -0.89810115 89 105 79
-26.818272 -23.961868 -0.97960901 73 90 58
-32.05378 -23.743345 -0.94124717 91 118 78
-31.969877 -23.796982 -0.90007591 83 121 70
-30.407078 -23.732302 -0.99648046 84 107 70
-30.366171 -23.671158 -0.92743635 94 114 74
-30.144112 -23.686737 -0.94280678 89 111 68
-29.469566 -23.697641 -0.910079 88 108 70
-29.315928 -23.675308 -0.89938772 86 104 68
-29.11503 -23.685345 -0.91182721 84 105 70
-28.87686 -23.704971 -0.90938908 79 99 67
-28.710157 -23.684435 -0.91579103 82 97 70
-28.500153 -23.693226 -0.8987692 80 98 68
-28.294643 -23.702835 -0.91242087 82 100 70
-28.144131 -23.696423 -0.95562613 86 102 69
-27.908314 -23.663378 -0.92253065 71 76 46
-27.659843 -23.697865 -0.92423022 76 95 67
-27.560476 -23.755114 -0.99818373 98 123 91
-27.11853 -23.642136 -0.96752834 89 103 68
-32.028271 -23.567966 -0.94053584 86 115 74
-31.533535 -23.485453 -0.97737718 80 97 52
-31.085754 -23.485992 -0.95397139 59 76 40
-30.455126 -23.502838 -0.91787362 96 114 79
-30.305853 -23.484034 -0.91074783 91 110 77
-30.118099 -23.42499 -0.95162868 77 86 65
-29.703428 -23.501417 -0.94692326 106 123 90
-29.490042 -23.510838 -0.89672047 89 111 72
-29.284754 -23.502651 -0.91103494 87 107 71
-29.090294 -23.499956 -0.91018277 82 104 72
-28.942257 -23.550076 -0.86000079 89 107 80
-28.707458 -23.530149 -0.91473639 85 99 73
-28.509342 -23.505487 -0.89565378 83 98 70
-28.284164 -23.537371 -0.91290754 81 99 70
-28.109247 -23.46928 -0.89778417 88 100 74
-27.913515 -23.551989 -0.97671622 80 99 72
-27.662163 -23.592703 -0.91115338 98 120 87
-30.497068 -23.35223 -0.99434471 93 119 79
-30.308203 -23.317114 -0.90538502 96 116 80
-30.111954 -23.285379 -0.91997761 103 122 87
-29.843033 -23.280085 -0.92153913 111 125 107
-29.676859 -23.304632 -0.91617441 82 94 70
-29.483038 -23.30629 -0.92157304 91 108 75
-29.276316 -23.289331 -0.90806752 84 104 71
-29.101328 -23.295177 -0.89997083 82 106 73
-28.922953 -23.259424 -0.91357619 89 108 78
-28.700836 -23.333014 -0.95060176 83 105 78
-28.469023 -23.307436 -0.91206294 83 95 72
-28.35107 -23.312063 -0.97091633 77 90 69
-28.109941 -23.292356 -0.89824641 87 100 74
-27.943657 -23.319193 -0.97738564 90 106 83
-30.450003 -23.093622 -0.88364989 93 120 76
-30.277374 -23.135748 -0.89378136 100 124 86
-30.120615 -23.103855 -0.92218912 101 128 82
-29.901295 -23.0825 -0.90998363 88 111 82
-29.698229 -23.087519 -0.93554813 89 105 78
-29.4806 -23.115028 -0.91647732 94 108 77
-29.307419 -23.117353 -0.90580398 83 101 70
-29.109566 -23.080303 -0.90740454 79 98 68
-28.903597 -23.09627 -0.91984093 84 100 71
-28.696083 -23.076145 -0.92852813 81 96 69
-28.517748 -23.074663 -0.92869097 83 96 72
-28.334969 -23.072664 -0.92172742 80 97 65
-28.118647 -23.107195 -0.93697882 94 105 83
-30.526447 -22.991188 -0.91092706 101 130 86
-30.28767 -22.95199 -0.86531389 98 125 88
-30.114914 -22.896751 -0.92499381 95 121 77
-29.897081 -22.886961 -0.93037772 88 108 76
-29.689188 -22.90074 -0.92660588 97 115 83
-29.5149 -22.896421 -0.91493672 91 105 75
-29.305277 -22.905218 -0.90391189 84 101 73
-29.087967 -22.887356 -0.89817655 80 99 68
-28.9028 -22.897758 -0.8857674 82 101 69
-28.686821 -22.889124 -0.9171713 84 99 70
-28.493156 -22.900013 -0.90142709 85 101 71
-28.305506 -22.884226 -0.9500432 82 96 71
-28.093706 -22.918833 -0.91840714 86 100 78
-27.891727 -22.972923 -0.95521164 107 121 102
-30.068005 -22.677189 -0.89423275 88 115 76
-29.8731 -22.704006 -0.92620182 102 122 83
-29.701344 -22.699802 -0.94695753 95 111 78
-29.490093 -22.694574 -0.88824403 92 109 79
-29.296034 -22.696657 -0.90493625 87 104 76
-29.096165 -22.723888 -0.90212971 87 106 76
-28.89399 -22.693541 -0.89143836 91 109 77
-28.70735 -22.696281 -0.90798074 89 106 76
-28.526247 -22.714598 -0.91893518 83 100 71
-28.294571 -22.753223 -0.92255986 73 89 63
-28.127468 -22.798098 -0.97885871 87 100 76
-30.474024 -22.450361 -0.99726295 120 133 103
-30.073008 -22.498522 -0.9537133 82 109 73
-29.900366 -22.512611 -0.88454306 91 116 76
-29.693275 -22.500772 -0.90834779 89 108 79
-29.487209 -22.511383 -0.90629965 92 109 80
-29.305969 -22.497879 -0.91155738 90 107 78
-29.090609 -22.500565 -0.9046756 88 108 78
-28.88953 -22.499315 -0.90909511 90 110 79
-28.718639 -22.514374 -0.92480111 88 107 80
-28.526949 -22.559921 -0.93766016 84 103 82
-24.844889 -22.431566 -0.93708634 92 107 68
-30.866566 -22.22509 -0.83143091 97 125 85
-30.238234 -22.203247 -0.81970048 106 122 86
-30.111652 -22.288656 -0.91926926 87 110 75
-29.893051 -22.287464 -0.91112375 88 111 79
-29.713074 -22.307716 -0.88954997 88 107 78
-29.488441 -22.315331 -0.88477951 82 102 74
-29.302416 -22.304426 -0.9362154 87 106 80
-29.114719 -22.318413 -0.90267068 87 107 77
-28.947647 -22.327084 -0.87307072 83 106 76
-30.260378 -22.095659 -0.93877751 88 107 73
-30.089054 -22.087429 -0.8938247 95 118 82
-29.887529 -22.071703 -0.92891783 88 111 79
-29.71431 -22.099302 -0.87820935 90 110 82
-29.534054 -22.129202 -0.9289853 85 105 80
-29.243744 -22.18223 -0.88884467 91 108 79
-29.106695 -22.169107 -0.87907922 94 113 87
-28.963619 -22.18465 -0.84751582 72 81 62
-30.271273 -21.939993 -0.88703799 99 118 85
-30.074982 -21.942003 -0.89614034 97 119 83
-29.920538 -21.917261 -0.90280443 87 112 79
-29.717384 -21.898407 -0.93302757 85 107 79
-29.577316 -21.960995 -0.88917518 96 126 100
-29.865088 -21.745399 -0.92418748 78 105 80
-29.679535 -21.729168 -0.94124192 85 106 81
-29.495834 -21.631567 -0.90648764 76 97 72
-29.374147 -21.625864 -0.95867109 113 121 97
-29.011244 -21.709532 -0.94414258 81 105 69
-36.869785 -21.406258 -0.99574542 98 100 61
-32.554092 -21.439787 -0.9949131 85 111 63
-29.898495 -21.578482 -0.95056677 71 100 74
-29.48695 -21.549978 -0.93364072 88 108 80
-29.242334 -21.492071 -0.93204421 62 90 62
-29.196165 -21.505621 -0.96041131 132 149 115
-28.791115 -21.456268 -0.94460106 108 141 112
-37.503494 -21.328409 -0.9651804 103 119 69
-36.829273 -21.37009 -0.98285484 110 117 73
-32.603764 -21.237526 -0.98215246 92 101 74
-32.450409 -21.258484 -0.93391919 115 124 95
-29.202595 -21.395449 -0.81933999 102 133 101
-29.096918 -21.303135 -0.87437844 92 110 90
-28.903927 -21.359762 -0.9474535 93 121 86
-28.646137 -21.395201 -0.87655926 82 101 67
-28.483095 -21.38862 -0.99566436 106 131 84
-37.576424 -21.032383 -0.9349184 102 120 66
-32.966667 -21.003796 -0.86783886 116 125 142
-32.674221 -21.07975 -0.88763171 127 130 126
-32.512302 -21.080595 -0.89938492 156 160 155
-32.318493 -21.093431 -0.91208631 142 154 159
-32.162315 -21.017626 -0.92490536 162 183 196
-31.975237 -21.025381 -0.93435049 126 158 181
-37.531578 -20.873489 -0.94899917 102 119 73
-37.304428 -20.946657 -0.97044492 103 117 82
-32.872967 -20.905859 -0.88865846 119 128 138
-32.70454 -20.88534 -0.89077389 159 159 160
-32.508102 -20.927351 -0.84322846 172 169 169
-32.297413 -20.903887 -0.88582039 156 166 175
-32.106991 -20.879471 -0.87888408 141 168 191
-31.95352 -20.850903 -0.93388861 118 153 188
-37.711124 -20.694769 -0.98816991 92 109 60
-37.550999 -20.633322 -0.95973897 94 109 67
-37.277481 -20.727669 -0.95814538 108 127 86
-37.102844 -20.707336 -0.90234172 107 124 76
-36.928841 -20.671457 -0.89897567 113 128 83
-34.684929 -20.615154 -0.98309374 99 107 125
-33.041183 -20.691917 -0.91098177 105 111 117
-32.885315 -20.680553 -0.89626479 159 159 161
-32.732746 -20.683455 -0.84501123 168 168 171
-32.495113 -20.750202 -0.81692463 170 175 190
-32.277386 -20.687485 -0.82879305 176 174 179
-32.082993 -20.70125 -0.88955158 158 171 181
-31.908831 -20.684376 -0.89447457 141 167 192
-31.723135 -20.644098 -0.94974846 135 171 206
-31.571432 -20.619989 -0.9734447 133 184 229
-37.778053 -20.555719 -0.91337514 107 115 76
-37.591705 -20.476809 -0.88424778 96 113 65
-37.290993 -20.485144 -0.95614743 112 131 86
-37.052273 -20.543783 -0.9022277 118 138 88
-36.890869 -20.539841 -0.89946204 109 133 80
-34.744324 -20.471199 -0.94549036 112 119 138
-34.525524 -20.488367 -0.953242 128 132 148
-34.367374 -20.534889 -0.96966887 76 81 100
-34.061886 -20.443743 -0.95536947 118 119 138
-33.065643 -20.496531 -0.90519929 143 144 148
-32.919918 -20.517031 -0.85068321 169 168 170
-32.716835 -20.484953 -0.84495384 151 169 180
-32.485863 -20.546091 -0.82530457 119 144 165
-32.271542 -20.484497 -0.80851591 139 153 166
-32.073608 -20.525494 -0.83319271 163 175 191
-31.884254 -20.520473 -0.89473706 160 170 182
-31.722748 -20.486851 -0.8848806 148 169 190
-31.533424 -20.459211 -0.92879027 135 172 205
-31.376469 -20.429188 -0.96098518 136 181 222
-37.814262 -20.371073 -0.85867488 85 96 61
-37.623501 -20.298624 -0.87109256 110 135 87
-37.452129 -20.279406 -0.96962881 90 110 66
-37.071308 -20.369682 -0.9717977 107 120 83
-34.669319 -20.272621 -0.89608991 129 139 160
-34.534481 -20.395191 -0.8287816 112 117 137
-34.345165 -20.338314 -0.97682667 142 140 158
-34.164917 -20.283327 -0.99047232 136 138 159
-33.924927 -20.299765 -0.95116758 106 107 126
-33.60088 -20.261002 -0.99503732 156 156 164
-33.480957 -20.218008 -0.97023654 92 91 101
-33.275215 -20.292854 -0.91078472 130 133 137
-33.11861 -20.316706 -0.87065041 162 163 165
-32.927608 -20.305166 -0.82183182 150 169 186
-32.714859 -20.291357 -0.81156737 124 154 175
-32.532825 -20.227148 -0.82262325 127 172 207
-32.290611 -20.298637 -0.82371199 118 150 173
-32.084591 -20.324574 -0.85065913 162 181 201
-31.859735 -20.308088 -0.85056931 164 186 204
-31.68487 -20.336912 -0.91829252 167 179 192
-31.511503 -20.28393 -0.87369889 159 177 198
-31.346069 -20.265835 -0.89229268 135 170 203
-31.170563 -20.212381 -0.92290354 141 179 206
-37.878937 -20.179985 -0.82304788 100 126 76
-37.698139 -20.10639 -0.89658093 83 109 66
-37.571918 -20.0588 -0.95706463 87 106 69
-37.235439 -20.05393 -0.97535515 98 113 72
-34.812637 -20.15255 -0.93550348 132 141 163
-34.664585 -20.085669 -0.90756941 179 188 213
-34.472404 -20.009682 -0.96002769 116 122 141
-34.295391 -20.146122 -0.94601595 116 119 132
-34.0564 -20.035793 -0.95799202 91 97 106
-33.903179 -20.117859 -0.92938513 115 115 120
-33.714046 -20.10511 -0.9553985 103 106 115
-33.455524 -20.066004 -0.92912102 88 91 93
-33.303543 -20.093609 -0.88692468 148 147 150
-33.114487 -20.110622 -0.84089315 161 163 169
-32.899548 -20.120394 -0.82004929 139 163 180
-32.731438 -20.068182 -0.8159079 125 157 180
-32.570934 -20.068634 -0.80556577 130 170 201
-32.385155 -20.067163 -0.81365848 79 100 112
-32.123901 -20.126682 -0.81454605 130 164 191
-31.891718 -20.081934 -0.83109981 113 130 144
-31.721193 -20.096046 -0.83812433 135 152 167
-31.466509 -20.13076 -0.87469423 171 183 199
-31.294674 -20.093727 -0.8781265 162 176 197
-31.114004 -20.072048 -0.89161181 133 168 205
-30.948578 -20.08078 -0.97955102 139 180 218
-37.656998 -19.920364 -0.87556219 84 104 66
-37.424164 -19.886648 -0.94798267 93 105 75
-37.320927 -19.880358 -0.93990541 92 104 72
-35.622993 -19.819067 -0.98517418 141 159 161
-34.929787 -19.929573 -0.86328983 179 190 211
-34.711613 -19.906631 -0.94740438 110 113 127
-34.522369 -19.90468 -0.9668597 148 155 170
-34.315479 -19.891455 -0.943048 126 134 147
-34.090317 -19.869957 -0.91866666 128 131 140
-33.911964 -19.909304 -0.90300035 107 104 107
-33.67284 -19.919012 -0.92187029 112 111 112
-33.476112 -19.885166 -0.89833516 110 111 117
-33.272259 -19.884329 -0.88766384 110 110 114
-33.105648 -19.888884 -0.90206051 144 143 148
-32.934044 -19.898781 -0.82217216 165 167 174
-32.718094 -19.921957 -0.81707054 142 162 178
-32.482666 -19.881346 -0.80884808 130 165 191
-32.247246 -19.822304 -0.80659604 115 138 160
-32.021873 -19.836845 -0.80341458 136 157 172
-31.980152 -19.946596 -0.80079913 132 168 199
-31.717028 -19.917276 -0.81425375 143 181 214
-31.544592 -19.937353 -0.85207236 155 177 198
-31.261059 -19.943295 -0.86114705 176 188 209
-31.100168 -19.901897 -0.87878036 164 175 197
-30.913271 -19.874359 -0.88734406 145 170 203
-30.769316 -19.856466 -0.91224217 156 200 245
-37.962997 -19.651667 -0.84697819 65 83 47
-37.685509 -19.70537 -0.88329268 77 97 53
-37.449261 -19.72427 -0.89761025 92 108 72
-37.312035 -19.66083 -0.93757826 95 113 74
-35.029385 -19.703552 -0.89751387 104 114 135
-34.850712 -19.739611 -0.86745882 114 124 144
-34.695461 -19.675491 -0.92463899 127 134 152
-34.463428 -19.715784 -0.9073264 149 156 172
-34.268097 -19.693907 -0.89253879 129 138 151
-34.094437 -19.681837 -0.90590328 114 116 124
-33.902157 -19.717255 -0.9246788 117 113 117
-33.73278 -19.697021 -0.90998918 115 118 122
-33.500057 -19.686954 -0.90121871 114 118 124
-33.290066 -19.723766 -0.89822084 135 133 138
-33.091602 -19.694143 -0.89888084 113 114 117
-32.914829 -19.680283 -0.87846601 141 139 143
-32.690712 -19.701977 -0.81791174 167 174 185
-32.497261 -19.679802 -0.81607145 153 171 190
-32.361488 -19.664532 -0.81883061 133 153 166
-32.18261 -19.670395 -0.80957937 127 153 171
-31.892754 -19.706152 -0.80968231 122 142 162
-31.683062 -19.695833 -0.80598569 130 160 189
-31.481054 -19.721617 -0.81059074 141 179 213
-31.252216 -19.670614 -0.81580341 118 148 178
-31.067924 -19.767 -0.84679687 170 183 208
-30.883156 -19.707209 -0.8903175 165 171 190
-30.779408 -19.721146 -0.89314795 189 181 190
-37.518085 -19.509604 -0.86696851 79 97 61
-37.328564 -19.525331 -0.89961785 94 117 73
-35.088902 -19.511435 -0.88863087 171 177 195
-34.915337 -19.499071 -0.89777982 101 113 131
-34.69733 -19.451105 -0.91362411 114 122 140
-34.495747 -19.489681 -0.9180159 116 126 141
-34.286552 -19.496363 -0.89856946 130 138 149
-34.084824 -19.466278 -0.89289284 121 126 133
-33.884289 -19.516476 -0.92211062 125 124 130
-33.680645 -19.480232 -0.91771185 120 121 128
-33.4897 -19.488415 -0.93669903 133 132 141
-33.298809 -19.508991 -0.92510074 133 131 138
-33.093903 -19.487246 -0.9125461 105 104 109
-32.914104 -19.497732 -0.8947258 117 118 124
-32.710815 -19.498846 -0.87865216 141 143 151
-32.531738 -19.474258 -0.84060204 159 162 170
-32.303455 -19.506969 -0.838153 155 168 182
-32.112289 -19.479328 -0.81273121 140 159 171
-31.898252 -19.446365 -0.80323792 134 149 160
-31.695332 -19.52935 -0.80967426 128 148 162
-31.470179 -19.497992 -0.81208062 131 159 190
-31.246485 -19.524096 -0.85209846 133 159 195
-31.07225 -19.491167 -0.84932625 169 180 208
-30.914772 -19.523668 -0.90648961 181 178 195
-30.781891 -19.52709 -0.92626339 121 123 131
-37.668362 -19.277023 -0.8794952 80 101 59
-37.464558 -19.338047 -0.88887203 88 106 69
-37.348156 -19.278986 -0.94053298 88 105 67
-37.185638 -19.270548 -0.9102397 85 101 62
-36.812572 -19.36204 -0.9752183 129 135 135
-36.312519 -19.276546 -0.95315123 106 117 119
-35.848797 -19.255383 -0.98960638 107 117 119
-35.736984 -19.37039 -0.94835997 185 194 195
-35.158684 -19.373312 -0.94213057 140 151 174
-34.908962 -19.313875 -0.89514136 109 123 139
-34.763721 -19.295395 -0.83619165 123 135 154
-34.504677 -19.334869 -0.8864029 116 126 134
-34.303318 -19.279623 -0.90253538 103 111 120
-34.095901 -19.278519 -0.9373343 155 154 160
-33.902466 -19.325363 -0.9419567 135 133 141
-33.679474 -19.300009 -0.91910744 103 106 110
-33.492886 -19.30629 -0.90316051 147 147 155
-33.301407 -19.310507 -0.90389991 122 121 128
-33.09901 -19.291714 -0.8853659 130 130 138
-32.908909 -19.307444 -0.89721924 137 140 150
-32.700348 -19.301455 -0.89345092 128 129 140
-32.499577 -19.280922 -0.88574141 134 134 140
-32.299252 -19.258942 -0.87615985 153 156 167
-32.147087 -19.334526 -0.81283617 159 170 179
-31.910849 -19.307348 -0.80943584 144 159 169
-31.72859 -19.22414 -0.80551481 140 158 168
-31.471256 -19.26988 -0.82022828 122 131 149
-31.23097 -19.299574 -0.8485418 163 171 198
-31.108496 -19.295883 -0.9003039 176 175 195
-30.955267 -19.347364 -0.9297865 181 175 189
-37.677742 -19.062845 -0.85127896 68 86 52
-37.497749 -19.106932 -0.87283415 84 100 64
-37.328365 -19.100767 -0.95281667 86 100 64
-37.1535 -19.049934 -0.96985757 92 103 82
-36.928169 -19.023581 -0.96774197 108 121 122
-36.69799 -19.086874 -0.95402193 154 169 168
-36.430679 -19.029814 -0.91161227 112 121 122
-36.339703 -19.037174 -0.99346745 85 97 94
-36.144356 -19.033564 -0.95169818 98 112 110
-35.732208 -19.034172 -0.98702979 102 116 120
-35.289928 -19.041636 -0.93390107 140 152 160
-35.000221 -19.118626 -0.94930887 37 48 66
-34.895241 -19.08148 -0.88323414 110 119 138
-34.686203 -19.147135 -0.94388276 111 124 132
-34.488079 -19.138237 -0.90005243 112 122 132
-34.265289 -19.064251 -0.86961335 119 126 136
-34.120979 -19.097776 -0.93391711 169 168 175
-33.908989 -19.110109 -0.94081581 144 142 149
-33.702682 -19.10919 -0.91530406 122 122 129
-33.510509 -19.087738 -0.91500682 122 119 125
-33.305824 -19.109711 -0.88248062 153 152 161
-33.095665 -19.091984 -0.91158605 144 143 152
-32.90049 -19.095667 -0.89972264 131 130 140
-32.696449 -19.095848 -0.89514834 126 124 132
-32.499878 -19.080317 -0.88003826 108 109 106
-32.315136 -19.101324 -0.90749043 118 115 113
-32.122894 -19.071871 -0.88605827 146 146 154
-31.9398 -19.086338 -0.82610893 154 159 171
-31.728729 -19.088907 -0.81300145 151 169 189
-31.521456 -19.108572 -0.8237198 137 150 167
-31.291689 -19.093317 -0.88977313 166 166 185
-31.136688 -19.109579 -0.93259907 153 147 158
-37.792309 -18.968304 -0.88555765 48 75 38
-37.440845 -18.947962 -0.88132632 86 111 68
-37.29673 -18.869913 -0.91856647 86 107 71
-37.158749 -18.89563 -0.96249849 111 124 109
-36.876034 -18.863455 -0.96137577 117 128 131
-36.73983 -18.938906 -0.9392404 128 142 143
-36.494232 -18.893328 -0.94651812 91 102 98
-36.311371 -18.914656 -0.93012595 97 105 101
-36.118584 -18.865986 -0.9536081 107 116 115
-35.825256 -18.822298 -0.9672966 95 108 108
-35.709015 -18.922897 -0.9565146 121 132 137
-35.530293 -18.95442 -0.9739871 78 94 95
-35.310066 -18.864044 -0.99133432 100 110 111
-35.091362 -18.865404 -0.90858662 113 124 139
-34.904381 -18.874138 -0.91383445 123 134 152
-34.711861 -18.910826 -0.92574716 117 126 140
-34.476467 -18.9307 -0.91349512 104 112 121
-34.275852 -18.896393 -0.91457415 135 138 146
-34.09478 -18.905596 -0.91743976 155 152 159
-33.898506 -18.899534 -0.90726274 121 118 122
-33.696659 -18.899843 -0.91840398 144 144 154
-33.497417 -18.901007 -0.91874665 130 129 138
-33.296459 -18.896664 -0.90024066 144 144 155
-33.089249 -18.886908 -0.90319914 151 149 158
-32.896824 -18.936798 -0.90035826 138 135 141
-32.692726 -18.911266 -0.89326704 122 119 120
-32.507259 -18.90576 -0.8795464 121 122 109
-32.307182 -18.888113 -0.89451867 120 118 117
-32.100216 -18.893095 -0.8899799 123 123 131
-31.902205 -18.889055 -0.87963837 148 147 158
-31.708841 -18.880945 -0.85157061 155 157 172
-31.491405 -18.891602 -0.88246143 152 153 169
-31.34144 -18.908966 -0.90860605 155 152 162
-31.032887 -18.928486 -0.93038416 103 103 111
-37.632179 -18.664076 -0.88430214 121 134 106
-37.4655 -18.697216 -0.86615264 101 121 89
-37.314987 -18.667336 -0.91906458 107 124 104
-37.093655 -18.672071 -0.94260365 102 114 106
-36.871243 -18.702051 -0.95597869 126 138 140
-36.692558 -18.773117 -0.94838548 111 122 122
-36.494141 -18.719007 -0.95071584 111 123 121
-36.329006 -18.726549 -0.97164571 103 111 111
-36.129276 -18.745394 -0.98287302 97 107 105
-35.906254 -18.659163 -0.98287815 103 113 113
-35.751488 -18.610386 -0.96928155 119 128 134
-35.315842 -18.68298 -0.9120782 105 117 125
-35.061321 -18.74543 -0.85272408 162 176 192
-34.860096 -18.689108 -0.89963096 128 137 152
-34.729614 -18.752176 -0.93407744 101 110 113
-34.493965 -18.720016 -0.91156483 112 121 126
-34.295128 -18.666742 -0.89952141 109 117 122
-34.102421 -18.708321 -0.91737884 156 152 160
-33.894241 -18.718845 -0.92040354 131 129 134
-33.708805 -18.685719 -0.92229021 127 124 132
-33.506252 -18.694666 -0.91532129 136 130 139
-33.299377 -18.688997 -0.88876736 132 132 143
-33.111195 -18.691975 -0.90642828 136 134 143
-32.901497 -18.717781 -0.91473103 148 148 158
-32.699165 -18.692299 -0.89025581 144 142 146
-32.489685 -18.704899 -0.86214519 134 131 123
-32.296722 -18.709126 -0.87461609 126 123 124
-32.097675 -18.696909 -0.87029809 117 116 117
-31.905258 -18.696785 -0.90861714 113 111 114
-31.699123 -18.71789 -0.91047329 142 138 143
-31.523848 -18.741331 -0.90093642 155 150 155
-31.373152 -18.755352 -0.95145917 155 150 153
-37.885551 -18.43582 -0.94830298 85 100 68
-37.715313 -18.536627 -0.87979013 102 113 96
-37.515022 -18.514212 -0.89826304 94 102 97
-37.288776 -18.487057 -0.94398403 106 116 114
-37.065033 -18.474873 -0.97087717 93 109 105
-36.911999 -18.532555 -0.96228701 93 108 109
-36.693878 -18.47212 -0.94749099 104 113 113
-36.473839 -18.459518 -0.90875626 130 139 140
-36.0783 -18.459387 -0.97125477 109 123 123
-35.897415 -18.465826 -0.97121066 113 121 117
-35.669685 -18.574183 -0.9882834 117 126 126
-35.296558 -18.495062 -0.96891934 116 122 130
-35.077805 -18.5536 -0.96211493 120 133 134
-34.912682 -18.502573 -0.88327593 135 142 144
-34.715382 -18.500273 -0.9077729 120 127 129
-34.493576 -18.459093 -0.90536523 112 122 126
-34.287395 -18.493624 -0.88558 123 129 133
-34.097912 -18.510315 -0.93981427 170 165 174
-33.885067 -18.510221 -0.91626495 145 142 153
-33.692848 -18.500944 -0.90914488 121 121 129
-33.510963 -18.495882 -0.90839571 131 131 140
-33.302753 -18.480532 -0.89750415 119 117 126
-33.105686 -18.517475 -0.90973347 131 123 130
-32.89846 -18.506742 -0.90093189 125 124 132
-32.702122 -18.481623 -0.88460159 130 129 131
-32.495247 -18.497 -0.87591624 134 134 117
-32.30402 -18.505753 -0.87927949 136 133 120
-32.093277 -18.505297 -0.90075678 120 127 105
-31.911436 -18.514496 -0.91012704 112 119 102
-31.711809 -18.515566 -0.91094959 118 115 107
-31.550425 -18.563129 -0.91899741 105 102 102
-38.02264 -18.24942 -0.89690614 90 101 74
-37.895287 -18.276085 -0.91531408 89 98 79
-37.671974 -18.313957 -0.93137604 98 110 104
-37.493195 -18.295742 -0.95749378 96 103 103
-37.33083 -18.290253 -0.93267047 100 110 110
-37.102131 -18.303198 -0.93915182 124 132 131
-36.897522 -18.295231 -0.93838137 116 126 123
-36.742092 -18.336832 -0.95147973 162 170 176
-36.505749 -18.342699 -0.92675781 144 149 154
-36.043583 -18.310905 -0.94855332 149 161 168
-35.910408 -18.317034 -0.94574714 116 128 129
-35.674793 -18.256874 -0.94803631 97 105 104
-35.593693 -18.241529 -0.98037481 136 136 135
-35.262535 -18.372154 -0.8495574 87 100 111
-35.073605 -18.326885 -0.92224598 129 140 151
-34.884979 -18.28602 -0.90865105 133 139 146
-34.68354 -18.31666 -0.93221456 123 125 130
-34.514019 -18.304951 -0.9178468 136 138 145
-34.307907 -18.297895 -0.93645638 159 158 169
-34.102654 -18.315638 -0.92948389 136 135 143
-33.896114 -18.310282 -0.90328455 139 136 146
-33.68705 -18.310616 -0.8671304 163 158 167
-33.478687 -18.302822 -0.90140283 114 116 125
-33.294788 -18.294243 -0.90090126 126 127 138
-33.098862 -18.299929 -0.89282203 123 122 132
-32.888111 -18.319254 -0.88721299 109 109 117
-32.699928 -18.28227 -0.89260781 107 110 112
-32.486935 -18.277655 -0.88932854 128 130 127
-32.28648 -18.302906 -0.88343382 141 144 131
-32.112286 -18.286152 -0.91175038 130 132 125
-31.905825 -18.303986 -0.92530274 119 125 112
-31.715096 -18.332933 -0.98732883 91 94 89
-38.048351 -18.092928 -0.90213495 84 97 69
-37.892761 -18.049805 -0.94378823 106 116 108
-37.702896 -18.119127 -0.9469099 95 106 102
-37.492626 -18.128622 -0.93946505 98 108 106
-37.291199 -18.104311 -0.90495163 115 125 126
-37.083103 -18.121727 -0.90024751 118 125 121
-36.912949 -18.071041 -0.94165707 102 109 97
-36.718166 -18.092936 -0.92551422 132 140 140
-36.468571 -18.119167 -0.95129907 126 135 141
-36.31916 -18.083086 -0.94602317 127 139 142
-36.071121 -18.125847 -0.9628225 109 120 124
-35.891541 -18.091381 -0.97991478 110 116 120
-35.724545 -18.184864 -0.98870564 114 118 119
-35.510143 -18.088264 -0.96950197 144 145 147
-35.314316 -18.123148 -0.88293219 153 163 174
-35.108231 -18.129913 -0.89120948 140 153 165
-34.86422 -18.120512 -0.91753107 118 123 130
-34.708477 -18.108398 -0.93741274 145 143 150
-34.508854 -18.100166 -0.93894053 150 145 153
-34.284084 -18.073957 -0.92035586 121 127 134
-34.114586 -18.108997 -0.91190243 136 139 149
-33.897064 -18.10014 -0.89897323 127 126 134
-33.699776 -18.079823 -0.91293746 123 118 127
-33.495731 -18.08473 -0.90869677 141 138 148
-33.306881 -18.091061 -0.89935523 133 133 144
-33.110359 -18.104259 -0.88761151 150 147 158
-32.906883 -18.106411 -0.88135642 121 123 131
-32.721958 -18.09737 -0.94177485 127 131 140
-32.477238 -18.107224 -0.92336482 115 116 121
-32.313053 -18.121746 -0.93045574 114 113 118
-32.087875 -18.151884 -0.9383651 110 113 109
-31.973684 -18.190922 -0.95077699 88 89 75
-38.047848 -17.954107 -0.87245113 88 109 66
-37.898125 -17.866114 -0.9368583 91 100 83
-37.668354 -17.901875 -0.90917122 109 119 116
-37.50695 -17.8801 -0.86866856 115 126 127
-37.296028 -17.92757 -0.9078536 111 120 121
-37.129757 -17.921961 -0.88113195 137 144 145
-36.909851 -17.913713 -0.88943273 136 145 141
-36.712608 -17.936249 -0.93287027 129 135 135
-36.531536 -17.913214 -0.95198154 137 145 150
-36.331669 -17.903847 -0.95136261 136 141 140
-36.109684 -17.815662 -0.96175575 142 147 147
-35.854279 -17.880842 -0.97907466 127 133 135
-35.678581 -17.881218 -0.98441911 144 147 152
-35.522751 -17.863205 -0.97835767 142 144 149
-35.267075 -17.932663 -0.80134892 103 116 130
-35.107071 -17.91062 -0.89545089 119 127 136
-34.902378 -17.885504 -0.92744946 115 119 122
-34.695873 -17.901186 -0.94341779 152 148 157
-34.501881 -17.902954 -0.95921034 127 122 130
-34.313053 -17.896105 -0.92944908 112 117 125
-34.121689 -17.894089 -0.93171316 135 136 147
