ply
format ascii 1.0
comment PCL generated
element vertex 1113
property float x
property float y
property float z
property uchar red
property uchar green
property uchar blue
element face 0
element camera 0
property float view_px
property float view_py
property float view_pz
property float x_axisx
property float x_axisy
property float x_axisz
property float y_axisx
property float y_axisy
property float y_axisz
property float z_axisx
property float z_axisy
property float z_axisz
property float focal
property float scalex
property float scaley
property float centerx
property float centery
property int viewportx
property int viewporty
property float k1
property float k2
end_header
-57.753059 -87.819023 21.282787 85 91 87
-56.407688 -87.988022 21.246468 103 105 106
-56.277172 -87.918938 21.267303 99 105 103
-56.068672 -87.903008 21.286051 102 105 103
-55.917324 -87.920975 21.298651 92 97 97
-55.679371 -87.920441 21.274393 96 99 96
-55.542171 -87.936852 21.361101 118 114 110
-55.253628 -87.949303 21.318766 124 119 114
-55.132404 -87.918289 21.288265 123 123 122
-54.982159 -87.978233 21.223366 109 110 115
-58.86972 -87.675987 21.384033 163 161 162
-58.209454 -87.758362 21.220057 103 103 93
-58.048801 -87.737885 21.283546 98 98 90
-57.897785 -87.745934 21.276003 113 113 107
-57.734474 -87.703789 21.29715 131 129 126
-56.258514 -87.703491 21.310734 103 110 108
-56.107056 -87.706711 21.301476 98 103 98
-55.978088 -87.775085 21.394367 131 131 128
-55.226551 -87.691856 21.28273 124 120 116
-55.061939 -87.690628 21.280207 120 119 120
-54.922859 -87.694481 21.281288 134 135 139
-57.67841 -87.51088 21.306938 106 109 105
-57.57119 -87.451515 21.38813 121 115 115
-56.825867 -87.467377 21.312746 108 115 115
-56.666233 -87.482307 21.264303 135 137 134
-56.536026 -87.445862 21.267857 125 126 124
-56.305565 -87.496597 21.288933 102 107 102
-56.079643 -87.540482 21.379684 85 90 83
-55.991802 -87.423912 21.330782 91 102 96
-55.474895 -87.543831 21.305666 84 79 75
-55.317749 -87.471893 21.281958 142 136 129
-55.118618 -87.522583 21.276613 116 114 114
-58.008148 -87.310379 21.267851 103 105 101
-57.881714 -87.274445 21.321217 111 115 110
-57.68922 -87.274178 21.324293 97 101 95
-57.544216 -87.31234 21.305365 97 100 97
-57.066036 -87.275681 21.300468 109 112 112
-56.906609 -87.32769 21.318995 110 112 109
-56.777992 -87.396088 21.244434 110 117 110
-56.464638 -87.320312 21.329378 94 97 94
-56.3451 -87.306473 21.354115 97 100 98
-55.415871 -87.343727 21.367672 147 144 136
-55.250313 -87.259972 21.242992 115 114 112
-55.11655 -87.288536 21.284945 108 110 112
-57.879299 -87.189751 21.246738 110 113 106
-57.694366 -87.089081 21.289921 98 97 89
-57.554691 -87.184013 21.251347 74 78 73
-57.052906 -87.096016 21.300037 106 109 109
-56.951958 -87.169785 21.330532 115 116 114
-56.643478 -87.069351 21.377022 101 106 99
-56.45319 -87.083839 21.353254 104 105 102
-56.337589 -87.120682 21.328171 93 95 92
-55.288635 -87.141869 21.328604 125 124 119
-55.117031 -87.106415 21.279844 108 106 103
-57.616104 -86.934547 21.244017 152 147 143
-57.524971 -86.943062 21.351566 129 126 120
-57.206474 -86.910446 21.327599 87 94 100
-57.081966 -86.911499 21.377146 92 96 98
-56.629597 -86.899284 21.25425 96 100 94
-56.54401 -86.928223 21.311014 100 104 98
-56.280071 -86.836784 21.386904 92 99 94
-56.16851 -86.851471 21.365263 70 77 78
-55.053055 -86.89975 21.293123 117 118 112
-54.945732 -86.888985 21.331951 112 112 109
-57.469292 -86.7397 21.322214 102 104 104
-57.16861 -86.789505 21.307835 80 85 88
-56.414082 -86.604713 21.235657 96 96 94
-56.300602 -86.711266 21.284189 111 111 108
-56.12014 -86.701294 21.355186 93 100 97
-55.458614 -86.714218 21.314596 103 102 97
-55.29451 -86.700836 21.308464 110 110 107
-55.090714 -86.685776 21.30961 112 112 109
-57.25676 -86.503471 21.280491 86 88 87
-56.411129 -86.467613 21.324989 115 114 111
-56.362617 -86.545082 21.322495 110 110 106
-56.07494 -86.499413 21.344769 104 109 104
-55.401939 -86.51841 21.39945 84 94 85
-55.208542 -86.551018 21.304049 111 111 108
-55.092529 -86.518333 21.29612 115 116 114
-54.932438 -86.462494 21.315006 115 115 115
-54.777733 -86.435341 21.382774 102 101 104
-56.751652 -86.323486 21.242096 94 94 88
-56.43224 -86.32859 21.269171 85 90 89
-56.309891 -86.336861 21.305683 75 78 77
-56.13805 -86.269676 21.293837 106 111 106
-55.22361 -86.371857 21.284372 120 117 118
-55.057899 -86.346382 21.293356 113 115 116
-54.900887 -86.3321 21.277016 103 103 105
-54.74279 -86.324142 21.283962 122 122 126
-56.497589 -86.063797 21.249174 115 116 111
-56.179653 -86.188972 21.357853 94 95 91
-55.153488 -85.811249 21.378115 146 145 146
-55.536667 -85.6492 21.324839 157 152 152
-55.268585 -85.66423 21.256374 162 161 159
-55.174568 -85.670753 21.244461 104 102 102
-55.553226 -85.499367 21.202311 150 147 144
-54.702469 -98.222328 21.411375 224 193 178
-54.053188 -98.20047 21.439964 144 127 111
-53.660034 -98.28537 21.519577 80 76 71
-53.573074 -98.322548 21.415529 68 69 63
-54.676929 -98.10955 21.493139 191 152 146
-54.10022 -98.064102 21.469452 183 158 143
-53.905033 -98.086594 21.494658 179 150 139
-53.778034 -98.066643 21.472742 215 180 167
-49.993313 -98.061989 21.45858 59 55 69
-54.936436 -97.883377 21.44169 83 72 80
-54.22966 -97.940331 21.435898 202 172 163
-54.131432 -97.873291 21.464922 214 176 169
-53.966755 -97.962227 21.467979 211 175 158
-50.079643 -97.885071 21.463421 133 127 140
-61.11412 -97.750725 21.430855 187 176 184
-56.617428 -97.666405 21.491722 53 51 56
-56.446358 -97.638443 21.459513 85 83 81
-56.303112 -97.640312 21.521875 84 83 83
-56.094181 -97.658157 21.490376 152 142 153
-55.8834 -97.700317 21.486362 114 104 121
-55.744823 -97.642181 21.502007 85 78 85
-55.406715 -97.614548 21.530022 167 153 166
-53.910511 -97.732178 21.475082 168 142 126
-50.214905 -97.667755 21.450798 122 110 123
-50.082714 -97.692101 21.469513 107 96 111
-49.899357 -97.742065 21.503618 83 78 90
-56.6353 -97.459106 21.460646 81 82 78
-56.497795 -97.515266 21.491577 106 100 102
-56.335815 -97.493782 21.558014 149 141 151
-56.071228 -97.527222 21.491728 146 140 148
-55.996765 -97.455254 21.541533 115 112 116
-55.675423 -97.511932 21.52775 115 109 114
-55.45948 -97.534325 21.510384 135 126 135
-55.338207 -97.468391 21.542442 156 147 156
-55.142452 -97.434593 21.532196 121 104 105
-50.335217 -97.457031 21.490046 105 97 108
-50.115795 -97.472626 21.45402 114 101 114
-49.935776 -97.519524 21.507324 100 93 104
-49.741589 -97.593056 21.487392 59 63 64
-62.452221 -97.278145 21.55761 133 139 127
-61.96188 -97.280357 21.489258 111 106 106
-61.517471 -97.227432 21.476088 135 138 132
-61.094376 -97.251129 21.418991 153 147 142
-60.986839 -97.230148 21.402285 171 161 160
-56.900677 -97.23336 21.440378 74 78 64
-56.668766 -97.268929 21.500854 119 113 119
-56.586102 -97.326332 21.551558 117 113 113
-56.261635 -97.260658 21.584427 138 137 140
-56.076206 -97.321114 21.519047 125 126 129
-55.971947 -97.360031 21.479168 105 100 105
-55.479034 -97.289757 21.486074 152 141 149
-55.283333 -97.308197 21.53129 149 142 147
-55.051064 -97.248451 21.446688 93 88 92
-54.92889 -97.229179 21.449745 104 98 104
-50.623993 -97.253525 21.40007 138 138 142
-50.528904 -97.268486 21.495844 139 137 145
-50.301003 -97.290871 21.501038 126 124 134
-50.124546 -97.311295 21.47356 83 83 93
-62.34483 -97.008224 21.464714 97 98 90
-62.002499 -97.178581 21.424726 126 121 117
-61.879818 -97.05542 21.501091 149 146 144
-61.708603 -97.047012 21.435724 126 127 124
-61.525162 -97.180855 21.537027 128 128 118
-61.293369 -97.042908 21.431328 197 191 195
-61.073917 -97.10025 21.448442 166 158 156
-60.97485 -97.022072 21.438778 125 125 115
-56.854942 -97.103554 21.456514 91 87 87
-56.694443 -97.103455 21.530252 152 145 154
-56.54361 -97.147171 21.524115 141 140 148
-56.351891 -97.105255 21.577627 129 128 133
-56.066967 -97.157455 21.582699 124 127 129
-55.975216 -97.085663 21.563112 132 136 136
-55.231735 -97.149742 21.545061 155 154 157
-55.07365 -97.113968 21.514709 133 127 134
-54.889557 -97.101837 21.504868 106 101 107
-54.75584 -97.071106 21.468666 119 108 118
-50.657757 -97.094963 21.499592 127 120 127
-50.516338 -97.124229 21.487745 139 132 140
-50.315887 -97.089813 21.490746 132 124 136
-50.046394 -97.041748 21.422457 68 76 80
-62.405888 -96.846634 21.433334 103 108 98
-62.315556 -96.88192 21.433439 105 111 102
-62.174919 -96.848885 21.463253 92 97 93
-61.825947 -96.934731 21.458963 133 134 126
-61.722122 -96.901772 21.513128 130 131 128
-61.502781 -96.892189 21.473829 148 144 144
-61.321396 -96.887726 21.452066 141 139 137
-61.088921 -96.904823 21.466335 145 143 140
-60.948277 -96.913445 21.480673 139 135 133
-60.76992 -96.857483 21.434006 119 118 117
-59.656551 -96.879135 21.472172 78 82 68
-56.985458 -96.84024 21.471163 177 155 158
-56.734516 -96.969482 21.457834 99 103 100
-56.551952 -96.975655 21.568684 114 116 120
-56.378593 -96.837402 21.493435 97 106 98
-55.083858 -96.983177 21.55401 135 135 140
-54.873829 -96.932983 21.497671 134 130 136
-54.724342 -96.896797 21.515072 139 133 139
-54.488033 -96.841133 21.449257 140 135 140
-54.312153 -96.847359 21.433491 122 116 121
-54.19141 -96.811531 21.501387 162 150 154
-50.663269 -96.874748 21.489807 126 119 126
-50.501987 -96.899498 21.535038 133 128 134
-50.312351 -96.923912 21.516779 126 118 126
-50.111481 -96.954262 21.567511 65 68 71
-62.466347 -96.71566 21.478638 90 95 89
-62.308098 -96.729744 21.48637 88 95 88
-62.100567 -96.643059 21.519087 109 112 108
-61.825386 -96.667183 21.408649 127 116 120
-61.716503 -96.701027 21.51755 129 131 128
-61.476967 -96.707993 21.478081 134 134 130
-61.302044 -96.708488 21.481236 124 124 121
-61.1343 -96.722137 21.461376 134 132 129
-60.845467 -96.70945 21.473169 162 150 152
-60.663891 -96.702026 21.465754 124 125 118
-60.528549 -96.66967 21.448576 102 98 98
-60.396992 -96.660309 21.482372 60 72 70
-59.801929 -96.619774 21.491556 66 62 61
-59.655937 -96.654625 21.450899 132 125 126
-59.530266 -96.650078 21.470669 155 146 145
-58.587223 -96.623718 21.432331 74 73 68
-57.941402 -96.761703 21.447735 125 121 118
-56.849808 -96.688629 21.51078 171 158 159
-56.72274 -96.659912 21.529264 150 149 153
-56.341408 -96.641235 21.499043 75 85 81
-54.816956 -96.712975 21.459015 70 75 78
-54.684467 -96.718376 21.497505 144 140 142
-54.492985 -96.702545 21.484171 133 130 133
-54.306358 -96.685837 21.487186 143 140 147
-54.162682 -96.692764 21.489473 138 136 143
-50.67244 -96.715683 21.555916 164 154 157
-50.494362 -96.72789 21.471722 139 134 139
-50.345814 -96.740288 21.500269 150 144 146
-62.236012 -96.57325 21.596109 74 80 73
-62.083176 -96.49942 21.505953 117 121 116
-61.922619 -96.463867 21.530611 101 103 96
-61.687443 -96.488358 21.522848 112 117 110
-61.510674 -96.508011 21.519608 111 115 110
-61.28413 -96.499756 21.482611 116 117 113
-61.100128 -96.47155 21.497766 133 131 128
-60.710869 -96.451279 21.430553 76 83 74
-59.830467 -96.514175 21.439791 116 113 118
-59.672173 -96.513214 21.454052 152 144 143
-59.479561 -96.526375 21.489431 163 152 150
-59.349834 -96.475899 21.488167 154 144 139
-58.883125 -96.437851 21.47785 134 130 126
-58.696457 -96.455482 21.487101 142 131 130
-58.556297 -96.463165 21.484093 160 145 143
-58.283695 -96.494347 21.420252 106 100 98
-58.181416 -96.409447 21.424999 120 112 109
-57.10318 -96.593437 21.493427 104 103 108
-56.874409 -96.475853 21.499271 69 59 66
-56.729729 -96.473434 21.514086 117 109 117
-56.515255 -96.463058 21.43762 102 105 98
-56.337349 -96.452705 21.529568 114 118 114
-55.608978 -96.495514 21.487457 74 77 71
-55.481865 -96.494942 21.584095 64 71 64
-55.282608 -96.465546 21.53476 80 84 81
-55.15033 -96.44146 21.551262 63 72 67
-54.832478 -96.443611 21.454891 118 122 123
-54.688046 -96.497704 21.494457 124 126 126
-54.492607 -96.521645 21.468609 122 123 123
-54.283581 -96.504219 21.469496 124 126 126
-54.113232 -96.454887 21.490784 110 116 115
-53.943787 -96.450348 21.425865 163 161 165
-62.306587 -96.285995 21.421797 137 143 141
-62.077942 -96.311676 21.505157 131 133 129
-61.894932 -96.29026 21.501329 95 102 94
-61.718571 -96.307701 21.514465 101 109 101
-61.490913 -96.331093 21.497158 93 101 94
-61.311653 -96.291252 21.495916 127 131 126
-61.121624 -96.356728 21.470682 136 138 133
-60.929054 -96.307106 21.52853 131 126 122
-60.488274 -96.322609 21.486038 172 161 160
-60.304382 -96.28997 21.509144 159 148 148
-59.879669 -96.324318 21.484512 106 102 94
-59.661491 -96.350616 21.517069 157 146 140
-59.46669 -96.330276 21.519251 164 152 149
-59.322029 -96.30069 21.491112 159 150 146
-59.072765 -96.300156 21.440374 132 130 127
-58.902882 -96.284698 21.479176 134 131 127
-58.699078 -96.31678 21.525545 136 126 124
-58.507664 -96.286301 21.516155 155 146 142
-58.297112 -96.273018 21.477749 127 124 118
-57.883015 -96.226547 21.517426 133 126 122
-57.660648 -96.234795 21.47053 61 57 59
-57.499146 -96.248039 21.449966 92 87 85
-57.316895 -96.257675 21.478199 148 145 150
-57.086906 -96.235458 21.489666 143 140 144
-56.946438 -96.265984 21.503201 125 121 124
-56.624523 -96.3685 21.571182 111 113 100
-56.459148 -96.331512 21.507233 127 131 124
-56.214123 -96.209213 21.514812 123 134 130
-55.253784 -96.285774 21.587976 97 103 100
-55.187305 -96.330399 21.586145 91 97 97
-54.812023 -96.285828 21.511768 100 111 105
-54.689457 -96.292427 21.502506 112 117 113
-54.51693 -96.295166 21.485332 119 121 123
-54.292896 -96.308571 21.48571 130 130 134
-54.095119 -96.319809 21.476254 111 115 116
-53.948616 -96.295135 21.504223 127 128 131
-62.71315 -96.108078 21.477798 86 96 88
-62.479416 -96.056305 21.55204 88 96 87
-62.260193 -96.074036 21.502691 120 126 122
-62.071808 -96.106865 21.528406 126 128 122
-61.890244 -96.144524 21.50028 97 103 95
-61.72187 -96.102623 21.495192 91 99 91
-61.505337 -96.069466 21.494326 114 120 113
-61.326794 -96.027527 21.553375 117 122 113
-61.105415 -96.169121 21.50182 81 84 78
-60.869274 -96.105255 21.558039 119 116 116
-60.603878 -96.051147 21.474844 110 99 103
-60.558422 -96.106522 21.485209 173 158 162
-60.339096 -96.098862 21.451605 159 151 147
-60.094147 -96.110588 21.531652 105 102 97
-59.842354 -96.108406 21.442957 144 139 136
-59.694893 -96.069916 21.579416 174 165 164
-59.444702 -96.13588 21.47197 123 125 118
-59.276871 -96.100922 21.49172 140 136 131
-59.061951 -96.103409 21.505463 116 118 111
-58.894001 -96.117264 21.517969 139 133 128
-58.706406 -96.109924 21.531017 157 147 144
-58.477341 -96.090675 21.514013 151 143 137
-58.317959 -96.091187 21.481768 139 135 129
-58.096973 -96.078682 21.478577 131 125 122
-57.914021 -96.099358 21.492361 134 125 123
-57.705761 -96.099571 21.524208 103 97 95
-57.493099 -96.098114 21.515219 116 112 116
-57.320118 -96.097267 21.511711 144 138 145
-57.110977 -96.077805 21.496801 130 130 133
-56.924328 -96.135948 21.488043 114 117 118
-56.744278 -96.017044 21.539272 85 92 89
-56.505184 -96.057945 21.537497 91 93 91
-56.299004 -96.080841 21.574463 127 135 125
-56.011234 -96.051186 21.594337 127 132 125
-55.924995 -96.120193 21.513866 132 138 133
-55.656876 -96.031555 21.572817 88 94 90
-55.474075 -96.060989 21.503258 86 95 92
-55.364742 -96.023888 21.577675 82 90 86
-55.059181 -96.077515 21.459681 115 121 117
-54.908569 -96.087669 21.511341 93 105 97
-54.707592 -96.110283 21.503347 103 112 106
-54.504864 -96.133545 21.550339 112 117 117
-54.30632 -96.118187 21.493631 145 140 148
-54.104958 -96.087898 21.476276 109 112 115
-53.938633 -96.125259 21.477255 130 133 135
-63.191513 -95.866608 21.456057 82 96 88
-62.800045 -95.949532 21.592571 99 106 99
-62.680523 -95.895691 21.494625 108 109 102
-62.53339 -95.887169 21.521914 84 91 81
-62.311989 -95.885231 21.500158 89 96 87
-62.099022 -95.876854 21.505173 98 101 97
-61.863369 -95.894592 21.49161 84 89 84
-61.709381 -95.904831 21.532017 95 98 93
-61.530224 -95.927444 21.529781 116 121 112
-61.377163 -95.888184 21.516106 102 104 102
-61.044601 -95.928551 21.541536 153 144 146
-60.870407 -95.882538 21.439884 176 159 166
-60.728951 -95.83419 21.464577 112 106 104
-60.518158 -95.983734 21.437092 98 86 88
-60.353794 -95.91349 21.472841 122 120 117
-60.081039 -95.902435 21.465797 145 133 134
-59.962246 -95.93792 21.400469 116 113 108
-59.703541 -95.921669 21.474686 116 115 110
-59.4995 -95.888466 21.485022 112 106 105
-59.276714 -95.887726 21.475853 123 121 116
-59.096127 -95.902328 21.51343 117 116 111
-58.919914 -95.906311 21.514324 126 120 113
-58.69376 -95.84729 21.518524 132 126 118
-58.492912 -95.908493 21.514814 132 129 120
-58.311592 -95.913033 21.512844 130 127 120
-58.094318 -95.907463 21.519213 142 132 128
-57.918018 -95.881783 21.50662 135 127 123
-57.688152 -95.876846 21.527843 109 109 103
-57.533325 -95.904419 21.505909 135 134 136
-57.31081 -95.920525 21.508919 141 138 144
-57.103947 -95.904106 21.509808 132 132 136
-56.923153 -95.911812 21.498831 107 112 112
-56.658802 -95.859421 21.468203 97 101 98
-56.584557 -95.851311 21.530819 123 123 122
-56.071606 -95.895782 21.54567 95 103 99
-55.917854 -95.842003 21.499165 115 122 112
-55.627926 -95.949219 21.577423 130 127 129
-55.487152 -95.938797 21.534651 92 96 93
-55.306393 -95.902542 21.493338 87 94 91
-55.079247 -95.880386 21.490185 96 104 98
-54.953941 -95.878685 21.511332 83 94 87
-54.701805 -95.91391 21.590199 116 123 118
-54.591473 -95.93885 21.5742 112 121 120
-54.231056 -95.926285 21.553291 157 154 160
-54.103176 -95.899673 21.508123 138 138 143
-53.963894 -95.919601 21.462997 137 139 146
-63.251934 -95.705597 21.435471 76 87 78
-63.081341 -95.727684 21.514755 86 96 87
-62.960434 -95.685364 21.571768 79 90 82
-62.683311 -95.710251 21.469288 120 119 113
-62.511253 -95.724861 21.488741 93 93 86
-62.29863 -95.699921 21.500664 81 86 79
-62.09808 -95.689339 21.503159 93 96 92
-61.895439 -95.713783 21.509647 84 88 84
-61.695522 -95.696236 21.499123 106 106 103
-61.513069 -95.69841 21.507244 106 109 104
-61.306015 -95.675064 21.589371 102 102 102
-60.637718 -95.769852 21.522469 133 134 129
-60.48922 -95.735954 21.488716 129 121 120
-60.237686 -95.745682 21.507931 81 80 81
-60.087776 -95.723999 21.546585 140 134 137
-59.890221 -95.798401 21.504498 172 166 169
-59.697468 -95.719261 21.47201 83 81 81
-59.473984 -95.70681 21.535112 113 114 109
-59.276211 -95.709564 21.489185 120 116 111
-59.092598 -95.704338 21.498007 117 113 107
-58.89521 -95.728455 21.524376 113 111 106
-58.71188 -95.7024 21.518011 115 116 109
-58.515709 -95.7052 21.511429 125 125 118
-58.289417 -95.691307 21.506195 142 136 129
-58.085434 -95.703629 21.517008 135 129 123
-57.926464 -95.673874 21.507366 133 129 124
-57.66267 -95.699738 21.509613 103 108 101
-57.507633 -95.683693 21.524809 124 128 128
-57.258781 -95.723755 21.504179 108 112 113
-57.091869 -95.680984 21.515997 104 107 108
-56.900257 -95.699089 21.483849 99 106 104
-56.71331 -95.679604 21.497419 88 94 90
-56.5023 -95.684746 21.495594 112 113 112
-56.317966 -95.660461 21.490021 101 103 102
-56.109097 -95.664497 21.517666 95 97 96
-55.892693 -95.792427 21.465275 102 109 102
-55.749256 -95.77195 21.57954 84 84 82
-55.485874 -95.681747 21.492474 102 102 99
-55.294891 -95.680603 21.482 101 103 102
-55.094772 -95.710861 21.489138 104 107 104
-54.89521 -95.710228 21.505779 85 93 87
-54.740658 -95.651955 21.541174 82 87 84
-54.523151 -95.617516 21.543623 88 92 96
-54.228455 -95.653038 21.518068 145 141 141
-54.098568 -95.693214 21.502295 129 129 134
-53.973766 -95.745911 21.535059 115 119 121
-63.523888 -95.521904 21.418098 95 95 89
-63.284023 -95.479958 21.483335 109 109 97
-63.122852 -95.545166 21.538195 98 104 96
-62.908661 -95.466888 21.535055 92 98 92
-62.697613 -95.488258 21.489399 113 111 108
-62.461662 -95.508667 21.502977 110 104 101
-62.251213 -95.498062 21.473598 82 88 81
-62.098755 -95.493507 21.486431 89 96 91
-61.906319 -95.495979 21.495371 110 115 112
-61.680195 -95.527573 21.524578 100 100 96
-61.546986 -95.436996 21.518784 133 131 127
-61.303886 -95.49778 21.496078 115 117 116
-59.669987 -95.483742 21.512074 85 89 85
-59.487751 -95.514565 21.504881 108 110 103
-59.291569 -95.493828 21.497475 117 117 109
-59.122906 -95.521004 21.511301 120 118 112
-58.898964 -95.505852 21.471567 103 103 98
-58.695412 -95.511795 21.493042 99 102 98
-58.489849 -95.487671 21.503578 106 108 103
-58.313068 -95.504707 21.500872 113 117 109
-58.096397 -95.505791 21.511539 117 121 112
-57.929459 -95.532829 21.51745 131 127 123
-57.716824 -95.495323 21.480553 103 107 102
-57.4706 -95.489388 21.513939 93 100 101
-57.338718 -95.472481 21.539745 118 121 122
-57.049915 -95.50901 21.532711 104 108 108
-56.907551 -95.495499 21.485458 102 107 105
-56.693924 -95.503464 21.471043 99 106 104
-56.497566 -95.502922 21.494963 97 102 100
-56.300026 -95.489128 21.513237 99 103 102
-56.109798 -95.482147 21.519444 94 101 101
-55.912891 -95.47097 21.530674 97 101 104
-55.678913 -95.49865 21.586451 106 103 106
-55.491261 -95.506927 21.501827 102 104 102
-55.302921 -95.515152 21.512615 103 103 101
-55.084377 -95.508064 21.465786 88 93 90
-54.912594 -95.500343 21.503063 89 94 92
-54.687691 -95.505699 21.523357 97 100 100
-54.525616 -95.483772 21.519171 98 102 105
-54.316856 -95.496025 21.520977 111 113 118
-54.103436 -95.490303 21.492069 137 134 143
-53.914989 -95.449135 21.461277 125 128 133
-53.754539 -95.437592 21.419209 106 106 109
-63.239182 -95.270409 21.495249 126 119 114
-63.074383 -95.334045 21.512476 105 104 99
-62.908878 -95.335732 21.531862 119 117 114
-62.717503 -95.306099 21.550072 105 107 103
-62.50309 -95.278221 21.489784 112 117 113
-62.349522 -95.322723 21.519392 103 108 102
-62.092957 -95.334236 21.450874 76 88 81
-61.916988 -95.310455 21.488722 86 92 88
-61.709663 -95.337784 21.505852 105 109 105
-61.480709 -95.28788 21.55357 119 121 114
-61.359901 -95.257156 21.557903 126 126 120
-59.685005 -95.335541 21.434879 85 92 88
-59.485073 -95.300522 21.512283 110 114 107
-59.328976 -95.289291 21.500162 108 110 103
-59.107384 -95.327919 21.531216 114 114 112
-58.916016 -95.268463 21.477757 99 99 97
-58.690411 -95.269936 21.451738 91 94 89
-58.479767 -95.31234 21.499151 86 90 85
-58.300308 -95.319016 21.481262 106 109 105
-58.098156 -95.31411 21.509087 107 109 105
-57.937035 -95.330177 21.517624 105 105 99
-57.699368 -95.267525 21.463097 107 110 111
-57.513332 -95.296989 21.502748 104 110 111
-57.324604 -95.301163 21.521441 103 110 112
-57.061104 -95.31797 21.50828 106 110 109
-56.888577 -95.323936 21.526762 106 110 109
-56.685501 -95.308594 21.523264 107 109 109
-56.492123 -95.302193 21.505644 110 114 112
-56.298771 -95.311989 21.520136 100 107 106
-56.099983 -95.308159 21.525484 96 102 103
-55.913776 -95.330437 21.540337 97 102 102
-55.676067 -95.285912 21.517538 112 113 114
-55.513546 -95.318657 21.489368 112 113 114
-55.291222 -95.312073 21.488876 83 86 85
-55.071568 -95.336563 21.48679 98 99 97
-54.907402 -95.306725 21.526287 94 97 96
-54.687622 -95.332329 21.504023 100 103 104
-54.480328 -95.313202 21.50824 101 104 108
-54.305454 -95.29493 21.542835 110 112 118
-54.093605 -95.292908 21.509935 130 126 134
-53.909935 -95.294243 21.467926 125 126 128
-53.722977 -95.291527 21.458849 120 122 125
-53.509563 -95.286377 21.419044 135 131 133
-53.351913 -95.266243 21.415972 123 128 129
-52.869888 -95.298355 21.465193 92 93 102
-52.698017 -95.275124 21.469212 108 106 115
-52.505981 -95.235092 21.508648 100 96 100
-63.457832 -95.055634 21.4725 105 111 102
-63.313885 -95.111084 21.503397 106 110 103
-63.108799 -95.12426 21.483406 85 89 83
-62.925461 -95.079491 21.540613 80 85 79
-62.682003 -95.065056 21.500761 108 112 108
-62.507195 -95.098419 21.505325 103 109 105
-62.26902 -95.143456 21.489252 52 68 58
-62.051327 -95.188278 21.415955 88 98 92
-61.878769 -95.115837 21.535704 92 103 99
-61.714771 -95.09864 21.475481 86 93 89
-61.48941 -95.094254 21.495008 117 121 114
-61.333172 -95.195213 21.520973 112 120 113
-59.718498 -95.127258 21.449337 104 109 104
-59.503994 -95.09243 21.498337 99 107 99
-59.30479 -95.103729 21.486067 94 103 94
-59.085167 -95.141487 21.481585 86 92 87
-58.874916 -95.086319 21.496702 90 94 91
-58.67812 -95.072311 21.522146 107 108 103
-58.559967 -95.091377 21.479729 126 123 118
-58.29982 -95.084953 21.492308 96 98 96
-58.104141 -95.103554 21.502167 116 117 114
-57.856773 -95.109627 21.497723 109 111 109
-57.703701 -95.108757 21.48031 121 123 125
-57.516388 -95.102119 21.497305 123 129 130
-57.303246 -95.09864 21.501972 85 91 91
-57.160324 -95.131165 21.502661 61 66 63
-56.879044 -95.126068 21.56245 133 133 135
-56.690037 -95.125748 21.553816 104 107 107
-56.492428 -95.099884 21.512814 97 100 97
-56.307732 -95.112709 21.528255 107 110 108
-56.128967 -95.083656 21.507254 106 109 108
-55.904591 -95.088562 21.534264 118 114 117
-55.696075 -95.10672 21.515423 115 113 114
-55.333412 -95.122185 21.479389 131 126 134
-55.10059 -95.109673 21.541574 97 102 102
-54.896248 -95.087852 21.505558 93 95 96
-54.748993 -95.085693 21.493231 71 78 73
-54.480148 -95.148354 21.512192 98 103 103
-54.277935 -95.1036 21.508125 122 122 128
-54.112862 -95.117195 21.503736 116 115 118
-53.912605 -95.168053 21.500648 126 124 128
-53.733624 -95.144188 21.465405 118 120 121
-53.514324 -95.084824 21.453424 114 113 113
-53.32835 -95.075523 21.443928 133 133 138
-53.154877 -95.01162 21.412712 139 138 150
-52.831181 -95.083832 21.478825 130 129 136
-52.664062 -95.089432 21.468203 150 143 152
-52.507797 -95.093491 21.492037 140 131 141
-52.348549 -95.072388 21.488567 141 130 135
-63.623646 -94.916328 21.404936 112 124 112
-63.498653 -94.888268 21.493725 105 112 103
-63.354225 -94.832489 21.44944 82 92 85
-63.053249 -94.890938 21.458479 78 83 79
-62.904396 -94.89679 21.47611 91 96 90
-62.714405 -94.934471 21.476765 103 108 105
-62.538162 -94.933182 21.495979 85 94 88
-62.357483 -94.865685 21.453907 67 78 70
-62.16169 -94.956795 21.407595 58 70 60
-61.864498 -94.889641 21.441458 80 89 82
-61.718105 -94.872894 21.45554 102 106 101
-61.521206 -94.906158 21.588198 113 114 108
-59.647118 -94.905212 21.520966 95 100 93
-59.451191 -94.845047 21.527308 91 97 87
-59.380798 -94.869255 21.52087 93 99 89
-59.06892 -94.896194 21.510792 76 84 76
-58.875298 -94.915108 21.497564 101 103 98
-58.686443 -94.911125 21.524008 120 121 115
-58.530148 -94.898758 21.489077 120 121 115
-58.272705 -94.901428 21.487898 107 110 106
-58.140862 -94.909378 21.525068 108 112 110
-57.844307 -94.905327 21.479935 86 91 86
-57.684795 -94.926178 21.489189 114 115 117
-57.504467 -94.948967 21.510847 134 138 139
-57.295433 -94.902519 21.485518 106 110 107
-56.662678 -94.905182 21.526873 95 102 92
-56.475197 -94.913628 21.511974 108 114 100
-56.295246 -94.907501 21.520407 102 107 97
-56.108418 -94.878143 21.521791 92 95 92
-55.881664 -94.898567 21.543045 103 103 103
-55.729088 -94.891396 21.502707 107 108 108
-55.512913 -94.853798 21.501629 88 93 95
-55.261307 -94.930588 21.463053 102 103 104
-55.108456 -94.891228 21.493309 104 110 107
-54.893677 -94.891121 21.511206 95 101 98
-54.728188 -94.920425 21.546734 83 91 84
-54.255138 -94.891991 21.48617 126 127 129
-54.168842 -94.896614 21.521244 123 126 124
-53.944092 -94.86602 21.469143 121 124 130
-53.705963 -94.88031 21.490149 115 119 117
-53.46299 -94.98307 21.49815 134 129 136
-53.270912 -94.914291 21.450111 148 144 152
-53.111053 -94.870407 21.466091 133 131 135
-52.934723 -94.868729 21.450466 148 144 149
-52.656055 -94.950294 21.473646 156 147 152
-52.503937 -94.916969 21.501699 153 144 150
-52.353352 -94.922318 21.486128 157 146 153
-63.900471 -94.687111 21.481739 112 112 102
-63.71508 -94.669113 21.501766 101 104 99
-63.409683 -94.728378 21.449173 83 93 82
-63.279797 -94.738861 21.481869 92 100 92
-63.100826 -94.679573 21.502968 98 102 96
-62.888523 -94.716858 21.494295 101 103 97
-62.700863 -94.724991 21.466082 105 106 101
-62.522499 -94.675751 21.451527 117 120 117
-61.862835 -94.699493 21.467911 70 80 72
-61.719883 -94.703735 21.519081 92 96 90
-60.298584 -94.68721 21.401806 97 105 94
-59.632324 -94.685471 21.452948 89 93 86
-59.493469 -94.745712 21.527863 90 96 89
-59.265388 -94.670631 21.503036 98 105 98
-59.072487 -94.721855 21.502689 96 102 94
-58.900188 -94.697418 21.506571 114 118 111
-58.690971 -94.700844 21.511366 120 124 118
-58.509655 -94.715149 21.509756 105 111 105
-58.274338 -94.707748 21.461466 109 113 111
-58.090538 -94.693489 21.475105 97 102 100
-57.863731 -94.687218 21.493584 88 91 89
-57.692986 -94.674889 21.488787 122 121 121
-57.500298 -94.692711 21.501202 105 109 108
-57.108154 -94.77195 21.466652 87 98 94
-56.831535 -94.697166 21.406118 65 82 66
-56.723709 -94.729767 21.507153 83 95 83
-56.480057 -94.674835 21.533682 89 99 90
-56.294167 -94.705124 21.502153 101 108 96
-56.112991 -94.686234 21.528866 85 92 89
-55.890911 -94.703743 21.501741 92 98 98
-55.703087 -94.702431 21.501253 97 102 101
-55.510941 -94.710205 21.492458 89 94 94
-55.336933 -94.649406 21.503286 86 93 91
-55.05093 -94.743248 21.508085 101 111 105
-54.909321 -94.677185 21.517675 98 106 101
-54.735657 -94.661087 21.531773 104 108 106
-54.450813 -94.620209 21.446287 92 101 98
-54.245838 -94.704338 21.481743 123 125 123
-54.100605 -94.664474 21.496103 124 125 130
-53.924927 -94.694954 21.502131 99 103 103
-53.676071 -94.687355 21.478769 108 107 109
-53.527798 -94.655266 21.48881 113 111 115
-53.269741 -94.714752 21.467985 110 112 116
-53.10022 -94.746078 21.487513 136 134 137
-52.93512 -94.731514 21.481903 160 154 159
-52.72517 -94.727272 21.430441 137 135 137
-52.428711 -94.764954 21.510328 159 156 155
-52.386723 -94.739609 21.538662 159 149 150
-63.909023 -94.465904 21.514938 92 82 83
-63.689514 -94.493828 21.4501 108 106 103
-63.491039 -94.515083 21.48691 125 125 122
-63.281765 -94.471764 21.490042 101 108 101
-63.127285 -94.514618 21.543592 89 99 89
-62.871559 -94.527725 21.50794 93 94 86
-62.725075 -94.528419 21.507004 126 121 114
-62.480957 -94.533272 21.512732 123 120 115
-62.269272 -94.457222 21.485857 162 149 147
-62.110607 -94.461243 21.48089 89 92 87
-61.913525 -94.470642 21.492775 109 112 103
-61.756111 -94.494247 21.549334 100 107 97
-59.748631 -94.426308 21.46423 83 87 70
-59.489422 -94.506111 21.45841 77 85 75
-59.294262 -94.545959 21.531155 87 96 89
-59.090881 -94.504189 21.506065 101 108 101
-58.88578 -94.514099 21.510202 114 121 111
-58.702801 -94.485695 21.497501 99 107 99
-58.501492 -94.502731 21.488676 110 113 110
-58.292263 -94.553307 21.51226 112 115 114
-58.10844 -94.519913 21.504267 108 111 111
-57.883091 -94.502769 21.493452 112 115 113
-57.723408 -94.557518 21.504967 122 123 123
-57.514881 -94.564651 21.527561 96 99 96
-56.637184 -94.484573 21.569607 78 92 79
-56.476315 -94.507851 21.525387 87 95 86
-56.320107 -94.531563 21.532688 79 87 78
-56.095428 -94.561913 21.5499 88 94 92
-55.900692 -94.509659 21.51536 94 102 101
-55.725368 -94.487221 21.510815 91 96 95
-55.536499 -94.444916 21.519764 77 83 79
-55.303757 -94.51873 21.507341 82 91 87
-55.168594 -94.529625 21.482576 83 92 86
-54.902084 -94.561554 21.511032 103 112 107
-54.690769 -94.499153 21.53492 112 119 116
-54.559559 -94.458893 21.569006 84 93 85
-54.222858 -94.540352 21.431902 107 116 115
-54.088146 -94.53643 21.526094 117 120 119
-53.899368 -94.540527 21.509916 109 112 113
-53.714371 -94.520187 21.517735 126 125 130
-53.504539 -94.487755 21.506935 119 120 124
-53.288063 -94.45266 21.509979 110 112 115
-53.103012 -94.48365 21.474535 127 123 129
-52.945675 -94.497231 21.456896 142 134 139
-64.250893 -94.262451 21.512621 132 138 136
-64.173264 -94.312721 21.559111 131 133 130
-63.666561 -94.393776 21.572823 151 136 143
-63.460503 -94.3284 21.495598 128 132 127
-63.320984 -94.285591 21.548086 112 120 112
-62.603874 -94.35376 21.573448 163 162 158
-62.268322 -94.270958 21.503529 123 118 115
-62.087769 -94.303818 21.490622 95 97 92
-61.901611 -94.323257 21.515171 107 112 99
-61.759678 -94.393044 21.593594 85 91 79
-59.801125 -94.299217 21.41474 74 87 79
-59.722481 -94.297211 21.51589 82 90 80
-59.582542 -94.327095 21.574501 82 95 85
-59.329521 -94.329559 21.437342 71 82 75
-59.082672 -94.286278 21.508154 77 87 82
-58.903351 -94.312401 21.534874 98 106 100
-58.697006 -94.29142 21.52499 108 114 108
-58.518261 -94.287613 21.479265 122 120 120
-58.334866 -94.247589 21.473064 85 91 90
-58.105858 -94.272659 21.503778 104 107 103
-57.890427 -94.347389 21.544176 120 119 121
-57.674782 -94.368484 21.535791 136 140 139
-57.131824 -94.394897 21.459221 59 63 61
-56.946918 -94.349251 21.578157 75 80 74
-56.691528 -94.300873 21.535784 78 87 77
-56.521198 -94.358398 21.556295 74 83 75
-55.845058 -94.352058 21.563681 84 93 91
-55.70388 -94.348053 21.522158 111 111 110
-55.515259 -94.343674 21.504192 108 103 105
-55.297695 -94.268524 21.460695 93 91 89
-55.153156 -94.340424 21.491224 79 88 81
-54.621346 -94.394043 21.566738 148 146 147
-54.472961 -94.26535 21.522217 72 82 76
-54.291401 -94.221039 21.524981 132 133 134
-54.173923 -94.202744 21.587053 62 70 62
-53.981449 -94.276428 21.589174 95 102 106
-53.623642 -94.323509 21.446238 145 143 146
-53.503002 -94.28067 21.530365 132 129 133
-53.317257 -94.353569 21.545218 117 118 121
-53.097839 -94.321121 21.526587 176 165 174
-52.927319 -94.308411 21.509554 149 141 150
-52.790657 -94.294769 21.465591 148 145 158
-63.405308 -94.172569 21.564346 86 96 88
-63.324509 -94.0914 21.588558 107 115 105
-62.40868 -94.193008 21.402697 127 125 115
-62.371426 -94.16465 21.449949 119 120 114
-59.695843 -94.124191 21.534863 77 91 83
-59.295044 -94.092514 21.468571 86 95 88
-59.088432 -94.090561 21.491262 86 91 84
-58.920403 -94.130127 21.487951 91 97 90
-58.67342 -94.115814 21.467085 98 105 99
-58.499302 -94.098648 21.469267 115 115 113
-58.263428 -94.091293 21.452522 101 105 102
-58.120098 -94.091911 21.493048 114 116 115
-57.952461 -94.075958 21.503248 117 119 115
-57.051723 -94.138092 21.522234 90 95 91
-56.728878 -94.174675 21.539551 96 97 95
-55.910789 -94.180084 21.583172 130 143 136
-55.614002 -94.056198 21.554192 117 113 115
-55.474953 -94.098503 21.521246 96 101 99
-55.320362 -94.114189 21.542238 83 83 83
-54.423359 -94.129593 21.481148 120 125 127
-54.29874 -94.100708 21.502449 104 109 108
-54.178993 -94.123131 21.573048 76 81 75
-53.537201 -94.195488 21.539642 120 118 121
-53.055496 -94.088448 21.49305 145 138 144
-52.912708 -94.127487 21.514437 131 130 145
-52.701099 -94.103424 21.463562 198 188 195
-59.638752 -93.869682 21.486273 70 80 72
-59.474895 -93.89653 21.468784 77 88 80
-59.323246 -93.88781 21.508837 90 97 91
-59.125698 -93.922142 21.512299 88 93 88
-58.895443 -93.883751 21.507509 100 106 99
-58.695663 -93.918793 21.523075 73 80 75
-58.492401 -93.952065 21.472713 94 99 98
-58.282658 -93.906189 21.472589 104 109 105
-58.094475 -93.892799 21.496414 122 122 120
-57.924294 -93.929535 21.494518 116 114 109
-57.746918 -93.939064 21.57534 106 110 103
-56.467831 -93.844551 21.480751 114 120 117
-56.319355 -93.85334 21.492336 89 94 91
-56.044685 -93.877792 21.573645 79 88 83
-55.6469 -93.902168 21.512403 86 94 93
-55.523544 -93.909027 21.4751 82 86 85
-55.347984 -93.908974 21.501333 73 76 76
-54.435104 -93.905708 21.458622 106 114 113
-54.287922 -93.913254 21.52157 96 101 100
-54.087704 -93.875755 21.564589 96 102 104
-53.901844 -93.845947 21.508802 71 81 81
-53.215538 -93.920914 21.574802 143 133 142
-53.109772 -93.899521 21.525278 122 123 127
-52.923756 -93.913109 21.486696 156 149 158
-61.809029 -93.605247 21.497276 46 53 45
-59.802734 -93.71122 21.429291 99 108 103
-59.672226 -93.751053 21.464752 100 108 105
-59.470467 -93.700516 21.486349 92 102 93
-59.35693 -93.724297 21.537106 87 96 87
-59.105141 -93.74041 21.481647 85 91 88
-58.854523 -93.700768 21.450119 64 69 63
-58.69804 -93.688858 21.47266 78 82 77
-58.472759 -93.693642 21.505571 74 84 80
-58.267704 -93.714401 21.470629 97 103 98
-58.107052 -93.713852 21.494633 107 112 108
-57.890488 -93.707558 21.478279 86 90 86
-57.708824 -93.679306 21.469254 76 83 78
-57.462746 -93.634888 21.432747 94 102 101
-57.27055 -93.647675 21.430986 104 114 113
-57.114876 -93.629257 21.487965 143 144 148
-56.609444 -93.681801 21.531609 58 69 62
-56.485806 -93.658371 21.482752 80 89 85
-56.306545 -93.662163 21.498873 76 81 77
-56.092808 -93.650681 21.563257 76 83 80
-55.94445 -93.742371 21.593393 69 79 78
-55.681473 -93.696358 21.530725 97 100 98
-55.50832 -93.714478 21.47278 70 72 71
-55.277233 -93.72065 21.522591 69 74 73
-55.168522 -93.690643 21.428333 71 79 75
-54.813976 -93.771904 21.585522 86 95 90
-54.260773 -93.680138 21.516058 92 98 95
-54.084606 -93.697449 21.536398 95 101 98
-53.934708 -93.691765 21.535135 84 93 88
-53.710564 -93.722176 21.49493 74 84 80
-53.586037 -93.707375 21.57914 86 90 93
-53.260113 -93.687523 21.521425 113 115 115
-53.092621 -93.72802 21.506939 113 117 117
-52.932487 -93.69664 21.475859 117 120 127
-52.770515 -93.67495 21.521791 130 133 133
-61.898174 -93.463684 21.524317 94 104 95
-61.705448 -93.446465 21.509581 63 75 63
-61.508938 -93.450928 21.529701 68 79 68
-61.384739 -93.428413 21.573103 83 94 83
-60.125595 -93.520706 21.58469 78 88 79
-59.904156 -93.457985 21.492918 83 91 82
-59.664948 -93.5 21.498676 95 102 94
-59.51442 -93.510017 21.510788 85 93 85
-59.362888 -93.53582 21.540667 99 106 98
-59.196327 -93.453751 21.560045 148 153 146
-58.830627 -93.442711 21.517796 55 68 58
-58.66317 -93.51889 21.49419 71 75 71
-58.496113 -93.454002 21.472254 94 102 101
-58.295044 -93.49353 21.45459 98 105 101
-58.124493 -93.516823 21.505405 101 105 99
-57.895176 -93.524147 21.478075 98 103 100
-57.680195 -93.48143 21.502514 78 83 83
-57.518433 -93.517876 21.511509 98 101 99
-57.28857 -93.477303 21.506308 89 97 96
-57.092995 -93.481865 21.512316 87 96 92
-56.932209 -93.495186 21.457952 95 106 99
-56.648132 -93.566284 21.497852 82 88 86
-56.478745 -93.521217 21.483101 77 85 79
-56.312569 -93.493912 21.515299 86 93 90
-56.138317 -93.51107 21.504433 64 71 68
-55.818954 -93.472145 21.583183 135 134 141
-55.693428 -93.481903 21.53792 105 104 103
-55.493801 -93.535255 21.467283 63 62 62
-55.289673 -93.453575 21.507469 70 77 75
-55.154083 -93.560265 21.499784 74 84 78
-54.240513 -93.559059 21.479597 100 106 104
-54.10725 -93.558052 21.493689 83 92 86
-53.966839 -93.543503 21.545956 88 92 88
-53.217552 -93.514603 21.433197 133 127 128
-53.102528 -93.530029 21.488054 121 120 119
-52.909111 -93.487488 21.541487 123 131 137
-52.723389 -93.459946 21.492569 125 134 140
-52.573761 -93.459328 21.497545 163 158 165
-52.390656 -93.446487 21.495583 125 122 134
-62.048828 -93.288994 21.461908 76 87 75
-61.924076 -93.32177 21.485149 72 82 71
-61.690739 -93.265892 21.450718 78 83 79
-61.496311 -93.293816 21.471315 67 78 67
-61.322594 -93.279266 21.511286 75 86 74
-61.182858 -93.277298 21.567322 60 71 59
-60.468704 -93.289696 21.490616 115 115 110
-60.310329 -93.238831 21.528425 84 85 80
-60.022129 -93.295311 21.430853 96 102 92
-59.85231 -93.267418 21.499166 88 94 85
-59.717117 -93.307686 21.507158 93 100 91
-59.518192 -93.257645 21.515825 76 85 78
-59.318176 -93.27182 21.453299 140 138 136
-58.810909 -93.359695 21.447247 40 52 40
-58.690197 -93.332794 21.477755 63 72 66
-58.463844 -93.311531 21.491142 81 89 86
-58.291603 -93.305618 21.513731 101 107 103
-58.099468 -93.283104 21.526672 106 107 102
-57.664642 -93.35524 21.526669 117 112 116
-57.532814 -93.284058 21.518311 105 106 107
-57.319389 -93.384384 21.489883 73 81 79
-57.097858 -93.256508 21.500328 96 97 100
-56.892982 -93.301041 21.513426 85 87 84
-56.702785 -93.260139 21.498669 89 95 90
-56.479092 -93.313316 21.475168 112 114 108
-56.296974 -93.331635 21.513033 102 106 102
-56.117516 -93.28643 21.513382 76 84 82
-55.917667 -93.320091 21.484941 85 87 86
-55.641376 -93.330574 21.523506 88 87 86
-55.472111 -93.288406 21.506447 80 84 81
-55.298378 -93.329834 21.501358 100 107 101
-55.127811 -93.32048 21.563412 85 96 80
-54.854794 -93.217896 21.579987 62 68 66
-54.69783 -93.24749 21.559566 90 96 94
-54.007832 -93.253578 21.423939 79 90 86
-53.927479 -93.277054 21.565765 83 85 84
-52.872509 -93.390701 21.542805 120 127 131
-52.696968 -93.270035 21.509117 149 145 153
-52.502998 -93.307243 21.499205 138 140 150
-52.313591 -93.24894 21.490942 159 154 168
-64.983536 -93.059517 21.438629 123 122 120
-61.904816 -93.16404 21.507496 86 95 87
-61.664097 -93.106781 21.524752 77 81 77
-61.487408 -93.128609 21.504099 77 83 75
-61.325439 -93.133629 21.534296 79 87 76
-61.09441 -93.026764 21.529663 85 92 80
-60.513359 -93.065399 21.548403 79 80 76
-60.264622 -93.127045 21.486921 105 108 103
-60.123497 -93.057663 21.538427 75 79 73
-59.880001 -93.100189 21.487139 94 100 90
-59.696999 -93.084595 21.494682 83 89 81
-59.542068 -93.084099 21.497839 99 102 96
-59.325562 -93.08683 21.491262 83 91 82
-58.835163 -93.010284 21.548674 91 95 96
-58.750454 -93.073257 21.436071 69 76 68
-58.476669 -93.070549 21.47019 67 75 69
-58.327572 -93.10582 21.486971 94 97 92
-58.117226 -93.037956 21.528982 110 113 111
-57.912525 -93.072151 21.508804 98 103 102
-57.671177 -93.112305 21.505888 115 117 117
-57.482235 -93.088463 21.470104 93 97 95
-57.294632 -93.077736 21.502205 81 85 84
-57.112736 -93.059647 21.485113 84 89 88
-56.909164 -93.054413 21.456238 88 93 90
-56.683838 -93.072861 21.488199 77 82 80
-56.514469 -93.079811 21.510769 99 104 99
-56.282234 -93.077263 21.533581 133 137 139
-56.082333 -93.134323 21.502607 82 88 88
-55.951691 -93.121117 21.472843 104 109 109
-55.688454 -93.05941 21.484484 69 72 69
-55.453037 -93.149979 21.489893 93 102 93
-55.013817 -93.019325 21.585644 107 108 100
-54.8894 -93.049416 21.498444 72 68 61
-54.69025 -93.045578 21.555525 66 75 72
-54.434368 -93.049065 21.516777 102 110 110
-54.330795 -93.065186 21.502245 86 93 93
-54.088234 -93.045097 21.521008 96 101 102
-53.91267 -93.085434 21.53006 90 95 94
-53.774113 -93.032578 21.571217 46 52 48
-52.829403 -93.078941 21.518272 123 122 126
-52.716927 -93.116745 21.498566 125 121 127
-52.46936 -93.067169 21.496574 135 134 144
-52.281235 -93.091911 21.463861 163 161 176
-52.116905 -93.113541 21.485706 126 116 128
-64.915474 -92.924171 21.450592 107 115 113
-64.732262 -92.861732 21.510628 92 104 98
-64.593292 -92.933876 21.583019 120 125 121
-61.46801 -92.879417 21.471401 90 100 93
-61.271568 -92.909386 21.477947 88 98 89
-61.112991 -92.855438 21.46772 82 84 77
-60.8867 -92.880989 21.457619 74 81 75
-60.70504 -92.902473 21.475876 74 80 74
-60.556435 -92.824677 21.519474 85 92 84
-60.261517 -92.873253 21.472 82 89 79
-60.085621 -92.906296 21.548733 78 85 74
-59.851334 -92.902107 21.504082 93 97 90
-59.703579 -92.898903 21.493784 84 91 84
-59.506924 -92.892159 21.511423 98 104 98
-59.343193 -92.882011 21.47937 88 95 88
-59.112598 -92.890022 21.44013 85 94 87
-58.897083 -92.876869 21.50625 89 98 91
-58.715885 -92.892731 21.478392 83 89 84
-58.49398 -92.892342 21.517597 69 76 70
-58.276405 -92.919838 21.513952 88 94 89
-58.07579 -92.916473 21.47764 86 90 86
-57.87225 -92.90937 21.471939 101 108 104
-57.690453 -92.904396 21.484388 82 90 86
-57.501823 -92.899338 21.515932 86 93 89
-57.284908 -92.905067 21.545088 94 98 95
-57.090633 -92.917107 21.526011 97 101 99
-56.90316 -92.894608 21.516045 88 94 91
-56.708359 -92.899765 21.51556 82 89 84
-56.502224 -92.884941 21.506556 89 92 88
-56.313419 -92.860268 21.488626 88 90 89
-56.129822 -92.845505 21.52459 90 94 93
-55.882885 -92.915901 21.511259 85 89 87
-55.72213 -92.885246 21.473206 82 89 85
-55.002377 -92.970482 21.572029 111 114 104
-54.896683 -92.963501 21.513922 84 84 77
-54.668835 -92.880249 21.485737 96 103 103
-54.48933 -92.903633 21.50284 96 101 101
-54.296391 -92.896721 21.512335 72 79 76
-54.104122 -92.876129 21.506134 83 89 88
-53.93713 -92.900154 21.525177 80 87 85
-53.494293 -92.856117 21.542641 83 93 88
-53.389175 -92.846092 21.595535 87 94 90
-52.849819 -92.90731 21.505266 129 126 129
-52.708019 -92.873856 21.482777 115 116 116
-52.479404 -92.88192 21.484793 141 138 144
-52.348469 -92.876648 21.462732 146 141 150
-52.122597 -92.858971 21.480589 159 149 166
-51.991821 -92.936958 21.503418 238 212 225
-64.068008 -92.60923 21.462059 122 131 126
-61.471157 -92.699081 21.471518 90 101 90
-61.28923 -92.691551 21.471996 94 98 92
-61.110626 -92.686638 21.457664 83 87 80
-60.891735 -92.671043 21.474619 97 102 96
-60.723629 -92.701706 21.520536 85 93 86
-60.567192 -92.615631 21.534439 77 84 77
-60.240868 -92.672134 21.480001 106 111 105
-60.095245 -92.721443 21.562189 91 97 90
-59.916451 -92.702332 21.535999 90 95 88
-59.694275 -92.722008 21.509007 103 106 101
-59.507282 -92.733627 21.51174 104 108 102
-59.328579 -92.783737 21.469667 97 104 96
-59.073181 -92.740173 21.45924 75 87 80
-58.853958 -92.722015 21.506563 71 81 76
-58.726402 -92.719841 21.485535 79 90 86
-58.521229 -92.768074 21.487984 46 55 46
-58.287926 -92.659546 21.529499 81 85 78
-58.062347 -92.747734 21.536407 103 110 106
-57.901836 -92.718155 21.568539 104 108 104
-57.672939 -92.715179 21.522781 85 93 89
-57.510551 -92.714615 21.523077 91 96 92
-57.288929 -92.716873 21.513861 96 101 97
-57.097591 -92.70787 21.529608 88 93 89
-56.906288 -92.693024 21.544544 96 102 98
-56.711369 -92.723022 21.525202 88 95 89
-56.459988 -92.723022 21.525709 109 109 104
-56.311256 -92.697464 21.510784 108 109 106
-56.118843 -92.696289 21.526371 94 98 98
-55.890121 -92.703247 21.508461 84 88 85
-55.694195 -92.695694 21.501583 96 99 97
-55.488003 -92.691536 21.520479 100 107 104
-55.318771 -92.683601 21.505905 89 97 93
-55.163029 -92.62326 21.551908 88 98 91
-54.604366 -92.767914 21.47999 139 137 139
-54.484589 -92.713448 21.494265 102 107 104
-54.311756 -92.703636 21.511387 80 88 84
-54.123138 -92.745796 21.543549 85 92 91
-53.934326 -92.755836 21.586365 78 81 83
-53.626934 -92.657272 21.528221 115 117 119
-53.521641 -92.691727 21.559275 93 98 97
-53.377762 -92.700478 21.597126 86 94 91
-52.875965 -92.69381 21.50428 134 129 133
-52.702576 -92.678932 21.531368 115 115 119
-52.500359 -92.702507 21.509823 149 144 154
-52.340229 -92.718224 21.471552 151 144 156
-52.122517 -92.735718 21.456858 139 131 140
-64.520561 -92.570366 21.400476 103 101 104
-64.302345 -92.529472 21.460892 105 111 107
-64.104919 -92.50206 21.469692 104 113 105
-63.91296 -92.482285 21.547546 137 143 144
-61.46122 -92.548477 21.480026 96 108 96
-61.358322 -92.555496 21.512489 70 73 68
-61.076912 -92.525581 21.482979 123 123 116
-60.866409 -92.521133 21.457624 83 91 84
-60.693272 -92.480766 21.51796 89 96 89
-60.482944 -92.462051 21.48777 130 124 120
-60.303032 -92.533623 21.484842 114 114 109
-60.074894 -92.53212 21.506414 92 96 93
-59.868786 -92.486122 21.522175 98 100 95
-59.696796 -92.495323 21.501081 120 121 118
-59.478935 -92.512566 21.493937 92 98 92
-59.338215 -92.496994 21.456821 89 99 91
-59.144379 -92.507561 21.476505 81 92 84
-58.961285 -92.572243 21.523748 75 86 78
-58.692375 -92.528763 21.524343 84 95 89
-58.545452 -92.497955 21.515638 59 68 60
-58.248463 -92.483093 21.485315 98 102 96
-58.169155 -92.450348 21.568491 112 113 115
-57.708332 -92.433266 21.542465 98 107 103
-57.54958 -92.400497 21.53936 75 84 81
-57.244556 -92.557411 21.509008 85 95 86
-57.142227 -92.522675 21.538887 85 91 87
-56.896656 -92.560951 21.545952 106 110 106
-56.767662 -92.575668 21.548416 82 88 82
-56.452618 -92.448555 21.526678 125 122 122
-56.292809 -92.512299 21.509142 102 105 104
-56.090225 -92.49173 21.507101 100 103 104
-55.914295 -92.495514 21.510357 102 106 106
-55.697445 -92.497253 21.492548 96 97 96
-55.502834 -92.518959 21.529711 97 102 100
-55.296692 -92.490738 21.508673 92 97 94
-55.119137 -92.482124 21.504801 90 98 93
-54.930416 -92.404427 21.596815 67 77 69
-54.432007 -92.501953 21.476744 122 127 126
-54.302063 -92.496307 21.512995 90 98 95
-54.127834 -92.479179 21.517687 97 105 105
-53.918518 -92.459892 21.511206 100 110 115
-53.687702 -92.480309 21.527288 112 114 114
-53.524082 -92.584152 21.576544 113 113 113
-53.057728 -92.434471 21.526682 144 144 145
-52.873272 -92.498962 21.500021 142 138 144
-52.704697 -92.523499 21.495005 137 131 139
-52.511593 -92.545662 21.468536 146 141 150
-52.358524 -92.576805 21.43181 139 135 141
-63.41777 -92.249832 21.597103 118 128 127
-63.2332 -92.238258 21.57753 59 68 65
-61.200275 -92.343971 21.400133 112 118 110
-61.073017 -92.340973 21.483162 123 124 116
-60.904423 -92.336708 21.449509 106 111 102
-60.687122 -92.36377 21.451521 96 100 92
-60.511417 -92.306595 21.421162 102 101 96
-60.260937 -92.271782 21.448669 120 121 115
