ply
format ascii 1.0
comment PCL generated
element vertex 1118
property float x
property float y
property float z
property uchar red
property uchar green
property uchar blue
element face 0
element camera 0
property float view_px
property float view_py
property float view_pz
property float x_axisx
property float x_axisy
property float x_axisz
property float y_axisx
property float y_axisy
property float y_axisz
property float z_axisx
property float z_axisy
property float z_axisz
property float focal
property float scalex
property float scaley
property float centerx
property float centery
property int viewportx
property int viewporty
property float k1
property float k2
end_header
-89.531891 -24.226223 14.659817 52 72 52
-84.502365 -24.25732 14.788887 129 128 116
-84.286896 -24.325636 14.719871 119 121 117
-84.132973 -24.304634 14.746489 150 145 150
-83.90303 -24.28898 14.667975 94 99 89
-83.794716 -24.368507 14.656564 115 120 113
-91.826591 -24.134901 14.786032 70 95 66
-91.642883 -24.109751 14.668232 64 78 50
-91.517685 -24.070984 14.700534 95 111 82
-91.297493 -24.035028 14.725006 54 72 49
-91.11248 -24.109203 14.733226 95 108 84
-90.897873 -24.08927 14.72138 101 111 89
-90.786911 -24.138561 14.692357 85 96 68
-90.475906 -24.044495 14.665026 106 116 97
-90.297577 -24.050531 14.625532 106 114 96
-90.03228 -24.035366 14.656231 34 57 40
-89.880669 -24.066738 14.661667 71 85 67
-89.674576 -24.041695 14.673481 77 94 78
-89.54068 -24.049841 14.694042 83 98 84
-84.685135 -24.115143 14.793205 70 76 64
-84.514999 -24.051489 14.742502 132 127 124
-84.320915 -24.129663 14.735353 140 138 138
-84.104271 -24.134247 14.731659 131 133 133
-83.956406 -24.121334 14.763581 111 112 108
-91.896797 -23.893494 14.726268 63 89 62
-91.504425 -23.878098 14.709935 114 125 103
-91.323547 -23.877882 14.711991 69 87 64
-91.084328 -23.885765 14.690996 101 112 90
-90.906723 -23.915691 14.732568 108 120 97
-90.730064 -23.874788 14.650574 81 94 79
-90.461342 -23.897657 14.719661 87 100 82
-90.326897 -23.886822 14.690211 88 100 84
-90.10437 -23.899977 14.672964 86 98 81
-89.900772 -23.901613 14.70402 100 108 90
-89.680725 -23.898855 14.721143 103 110 96
-89.532227 -23.911303 14.693019 102 109 93
-84.32106 -23.857754 14.735257 115 124 119
-92.053528 -23.652077 14.719282 55 74 51
-91.943848 -23.632877 14.702806 71 98 72
-91.506317 -23.683193 14.692435 102 114 99
-91.284058 -23.696777 14.691491 66 85 60
-91.087219 -23.694418 14.68892 82 97 75
-90.908974 -23.689466 14.704303 99 111 92
-90.729454 -23.698664 14.683528 95 107 89
-90.493385 -23.716738 14.715721 102 109 97
-90.33577 -23.725645 14.735677 112 119 104
-90.089928 -23.753464 14.698539 102 109 91
-89.888214 -23.68725 14.717091 126 132 114
-89.686378 -23.688042 14.696504 109 115 101
-89.537743 -23.683168 14.655264 102 113 97
-92.480873 -23.454405 14.70934 88 106 85
-92.27095 -23.461485 14.73745 76 96 73
-92.135567 -23.508993 14.694688 87 103 84
-91.916031 -23.521946 14.686782 65 86 65
-91.487389 -23.483109 14.691963 85 98 79
-91.301552 -23.502783 14.6534 70 85 65
-91.130341 -23.516106 14.697361 78 92 74
-90.882538 -23.515875 14.731956 107 116 100
-90.748184 -23.541487 14.732958 107 117 100
-90.466599 -23.522266 14.755138 87 97 84
-90.331825 -23.514038 14.744289 101 101 83
-90.073135 -23.48657 14.723557 100 110 90
-89.921577 -23.512634 14.719584 105 115 95
-89.686943 -23.51848 14.702357 101 108 95
-89.547279 -23.527037 14.715637 108 116 102
-92.655899 -23.242218 14.74317 85 106 92
-92.482613 -23.327658 14.713489 74 97 78
-92.301575 -23.305761 14.717589 79 100 80
-92.14415 -23.333412 14.719431 59 80 60
-91.873833 -23.275028 14.70921 70 91 74
-91.707161 -23.236326 14.697604 55 79 61
-91.488579 -23.310797 14.682574 71 87 71
-91.261711 -23.295071 14.700123 79 95 77
-91.102493 -23.271643 14.705376 71 87 71
-90.886642 -23.307074 14.699505 84 95 81
-90.438576 -23.249643 14.772466 98 108 91
-90.283485 -23.312948 14.723162 103 110 95
-90.102097 -23.31809 14.735462 94 106 91
-89.915024 -23.324091 14.694289 78 95 74
-89.730644 -23.291082 14.701335 81 96 81
-89.231728 -23.396193 14.659781 100 105 93
-92.655403 -23.199671 14.735042 91 112 117
-92.47197 -23.090298 14.722685 74 94 74
-92.282822 -23.123615 14.755022 62 88 70
-92.110222 -23.112947 14.682817 78 92 77
-91.907043 -23.122904 14.715218 55 75 56
-91.667564 -23.091772 14.671121 62 84 64
-91.544708 -23.127647 14.706646 68 88 70
-91.25766 -23.126633 14.695766 96 109 94
-91.114708 -23.090672 14.688125 87 100 85
-90.977654 -23.069468 14.739083 86 98 86
-90.705078 -23.073257 14.701838 89 104 89
-90.465027 -23.074652 14.695476 80 90 77
-90.29776 -23.092323 14.716286 86 92 83
-90.100563 -23.077116 14.690547 93 102 91
-89.906845 -23.109518 14.69004 67 83 68
-89.737312 -23.017073 14.650341 76 93 74
-89.599052 -23.144163 14.715147 41 59 43
-92.625298 -22.832834 14.605602 57 81 59
-92.499756 -22.901159 14.67485 73 94 75
-92.341278 -22.92944 14.717937 78 97 81
-92.089928 -22.898018 14.709288 78 94 82
-91.950912 -22.917488 14.712166 74 91 75
-91.666328 -22.899124 14.688987 64 86 73
-91.484283 -22.88443 14.751266 81 100 79
-91.310913 -22.859755 14.658792 87 102 87
-91.081291 -22.905483 14.701116 96 107 91
-90.869804 -22.89316 14.704881 93 106 90
-90.72467 -22.879717 14.697257 95 109 94
-90.423721 -22.884106 14.727465 62 76 64
-90.295013 -22.886751 14.693313 80 91 78
-90.087425 -22.905682 14.731745 112 114 104
-89.889801 -22.890059 14.721922 83 96 80
-89.764145 -22.877979 14.715791 84 94 76
-92.566154 -22.748697 14.657562 87 100 83
-92.251953 -22.745762 14.619497 57 75 63
-92.086838 -22.690395 14.713424 88 102 86
-91.93116 -22.770735 14.610073 64 81 63
-91.449753 -22.701761 14.661741 97 107 97
-91.307053 -22.696005 14.687508 68 82 69
-91.081551 -22.70413 14.690432 78 91 77
-90.916733 -22.731342 14.675754 92 102 90
-90.690277 -22.734629 14.692337 92 101 92
-90.479996 -22.68762 14.730341 97 104 95
-90.30378 -22.707933 14.733098 87 97 86
-90.090286 -22.685455 14.710159 105 109 99
-89.94574 -22.710049 14.690775 107 111 101
-92.128334 -22.556705 14.762668 105 112 99
-91.966904 -22.599218 14.652424 24 57 38
-91.621796 -22.504827 14.776124 98 112 97
-91.435333 -22.525812 14.705029 98 105 96
-91.307678 -22.472439 14.695054 87 98 86
-91.078735 -22.505445 14.710441 95 105 94
-90.899788 -22.492832 14.682019 98 105 99
-90.690887 -22.473923 14.697002 118 121 119
-90.496231 -22.490614 14.698695 100 108 102
-90.302086 -22.475157 14.743446 83 94 86
-90.103867 -22.489443 14.705091 77 89 77
-89.906158 -22.471922 14.673503 74 86 73
-89.746323 -22.454144 14.694893 117 128 120
-89.471214 -22.458237 14.728996 58 76 50
-89.393929 -22.541893 14.602011 107 103 91
-91.492348 -22.318445 14.69185 71 85 72
-91.280052 -22.325565 14.698267 92 103 91
-91.0867 -22.28389 14.720386 88 97 86
-90.912529 -22.31868 14.709621 97 106 100
-90.65139 -22.326843 14.726621 99 106 103
-90.500999 -22.362453 14.677514 84 95 90
-90.305984 -22.342861 14.706164 61 79 67
-90.083153 -22.312927 14.72362 87 98 91
-89.916092 -22.299038 14.708285 95 102 95
-89.741333 -22.308058 14.668139 112 117 115
-89.539948 -22.367758 14.680519 118 118 108
-91.270134 -22.073381 14.678655 90 100 93
-91.11908 -22.119457 14.69556 100 106 96
-90.968697 -22.142822 14.690166 97 98 90
-90.259209 -22.155661 14.720737 68 84 69
-90.073341 -22.153521 14.736321 104 106 105
-89.950356 -22.174231 14.669968 101 106 104
-91.620392 -21.874693 14.635644 63 70 62
-91.475639 -21.881611 14.696865 93 100 91
-91.328728 -21.923584 14.662386 73 84 73
-91.190758 -21.957695 14.666248 101 109 99
-90.042061 -21.883368 14.671341 14 59 26
-89.401833 -21.997469 14.735374 23 37 24
-89.24398 -21.842453 14.678155 51 75 41
-91.634003 -21.695868 14.668047 118 129 114
-91.509972 -21.725183 14.681055 102 114 100
-91.295845 -21.706596 14.643291 116 115 111
-89.771782 -21.66993 14.733292 119 137 121
-89.521088 -21.655441 14.631342 44 64 50
-89.273476 -21.676989 14.675947 67 82 66
-89.125725 -21.684803 14.678686 67 81 60
-88.851761 -21.632193 14.600832 66 79 70
-91.657776 -21.552435 14.744145 97 108 93
-91.552483 -21.553829 14.739837 139 142 130
-91.25219 -21.52141 14.638735 127 122 119
-91.074379 -21.403231 14.68491 120 140 128
-90.258057 -21.401545 14.609175 106 113 107
-89.708847 -21.532547 14.613725 20 61 21
-89.485268 -21.530499 14.727187 61 79 63
-89.300903 -21.500427 14.690758 97 103 90
-89.078766 -21.509979 14.687116 112 117 104
-88.919037 -21.45812 14.66973 117 119 110
-91.290047 -21.31679 14.674049 117 126 104
-91.082565 -21.226173 14.733467 69 84 71
-90.892609 -21.267941 14.690585 67 82 70
-90.740822 -21.240561 14.660501 95 101 94
-90.276543 -21.280996 14.695192 113 120 115
-90.125458 -21.290716 14.672185 120 134 122
-89.914757 -21.266916 14.690534 69 86 68
-89.657181 -21.251034 14.74608 49 70 51
-89.486893 -21.281076 14.716422 121 124 117
-89.297112 -21.290857 14.709571 125 126 119
-89.127838 -21.298256 14.695286 104 108 98
-88.927597 -21.333374 14.706066 114 114 107
-91.222984 -21.044216 14.729509 33 59 44
-91.086967 -21.056107 14.704348 118 125 117
-90.907349 -21.105679 14.696222 109 115 104
-90.715561 -21.095175 14.672651 111 114 105
-90.483276 -21.069178 14.672672 112 121 113
-90.319557 -21.096762 14.708557 100 107 105
-89.912117 -21.086809 14.72576 74 96 79
-89.63736 -21.151474 14.738614 76 91 73
-89.528992 -21.128845 14.713653 161 163 153
-89.235764 -21.083061 14.729053 102 110 96
-89.125938 -21.089302 14.68259 100 110 96
-88.908669 -21.093742 14.70407 86 91 84
-88.712448 -21.033081 14.669563 98 103 95
-88.505409 -21.03845 14.722583 119 116 109
-88.33493 -21.056612 14.69503 56 75 60
-91.2649 -20.9067 14.664769 102 111 103
-91.116409 -20.889791 14.699671 140 142 136
-90.88588 -20.900845 14.708775 112 116 107
-90.696915 -20.912817 14.703671 120 123 113
-90.520317 -20.900564 14.713356 90 101 90
-90.256248 -20.924213 14.669529 67 76 71
-90.09623 -20.840244 14.735222 109 126 114
-89.866531 -20.838079 14.74214 105 115 112
-89.699211 -20.904949 14.674729 164 165 161
-89.543709 -20.894718 14.694703 146 145 141
-89.136986 -20.943367 14.733353 95 102 92
-88.887421 -20.95677 14.683462 113 112 107
-88.67691 -20.933592 14.708808 117 120 111
-88.496422 -20.908525 14.710088 109 109 101
-88.309891 -20.865658 14.684324 95 94 85
-88.15609 -20.839287 14.699182 101 103 90
-87.992813 -20.846016 14.732183 77 87 79
-91.257164 -20.718645 14.693514 101 109 98
-91.088364 -20.693188 14.69872 115 119 111
-90.88195 -20.673058 14.706815 109 112 103
-90.730659 -20.717661 14.694459 96 104 94
-90.488823 -20.676664 14.668765 77 88 81
-90.331604 -20.673756 14.742416 113 114 116
-90.079391 -20.687122 14.665611 86 91 93
-89.89283 -20.683449 14.696918 137 140 137
-89.672409 -20.740198 14.702186 132 134 130
-89.405312 -20.719528 14.731264 74 83 80
-89.315453 -20.7061 14.777863 61 68 61
-89.06221 -20.786549 14.752604 113 122 117
-88.899612 -20.672421 14.719945 102 105 103
-88.638199 -20.728125 14.734151 114 112 103
-88.519951 -20.667913 14.6997 113 114 104
-88.324448 -20.668249 14.687217 107 110 102
-88.126869 -20.671787 14.649013 103 105 97
-87.910255 -20.697163 14.70966 99 109 90
-91.901367 -20.443892 14.679839 111 118 109
-91.70417 -20.45299 14.685039 108 118 111
-91.505516 -20.49099 14.679264 113 123 107
-91.283623 -20.459333 14.679957 100 109 97
-91.065674 -20.484722 14.693073 100 113 103
-90.888603 -20.495476 14.698487 83 95 87
-90.699959 -20.497423 14.677393 89 98 91
-90.52562 -20.482683 14.711919 75 88 81
-90.288445 -20.462639 14.696113 82 91 85
-90.099052 -20.446915 14.675187 101 103 100
-89.879326 -20.51022 14.698402 137 136 132
-89.777977 -20.53087 14.690345 132 133 129
-89.091949 -20.541794 14.730498 63 72 55
-88.874542 -20.494799 14.704607 78 87 76
-88.738686 -20.513401 14.724176 82 91 83
-88.483398 -20.457308 14.728465 87 91 80
-88.280327 -20.485258 14.681087 90 100 88
-88.12088 -20.496019 14.678555 109 111 101
-87.958122 -20.503902 14.692232 116 116 105
-82.104164 -20.447649 14.756378 79 91 68
-81.948936 -20.458033 14.767058 64 81 56
-92.080139 -20.330305 14.663937 71 80 72
-91.891525 -20.287352 14.705438 112 115 105
-91.6884 -20.296858 14.692783 102 110 98
-91.524864 -20.304085 14.691257 92 105 91
-91.280945 -20.286829 14.665757 104 111 103
-91.078651 -20.291101 14.673701 92 103 92
-90.901772 -20.296343 14.711476 94 104 96
-90.663963 -20.281204 14.668853 135 144 140
-90.503731 -20.283764 14.736624 83 90 80
-90.299904 -20.279116 14.699504 114 115 111
-90.105225 -20.301807 14.712151 108 111 105
-89.896416 -20.309229 14.711292 110 109 103
-89.700966 -20.329226 14.750872 138 137 135
-88.894226 -20.326233 14.741051 78 87 73
-88.708611 -20.324383 14.695146 78 84 77
-88.536346 -20.297619 14.672719 87 97 86
-88.31749 -20.320408 14.676512 83 90 81
-88.139786 -20.287281 14.666041 108 110 104
-87.975304 -20.296515 14.715236 98 91 75
-85.362442 -20.336008 14.68582 89 92 81
-85.057533 -20.271254 14.686875 155 140 142
-84.916 -20.264059 14.732566 137 134 125
-84.705826 -20.229084 14.723921 144 132 122
-84.528305 -20.218588 14.695213 111 101 94
-84.379189 -20.238693 14.766799 174 172 160
-82.98262 -20.37009 14.64076 121 119 107
-82.229889 -20.237858 14.795231 54 60 41
-82.041954 -20.20265 14.777538 146 146 134
-81.952377 -20.295885 14.782672 108 124 97
-92.029877 -20.118431 14.664534 116 125 115
-91.879944 -20.106295 14.724412 123 126 116
-91.699783 -20.081699 14.69655 82 97 84
-91.514717 -20.108492 14.716513 81 96 87
-91.318031 -20.122419 14.682643 97 111 95
-91.091812 -20.102676 14.695411 104 111 101
-90.895279 -20.102003 14.728951 114 117 113
-90.705139 -20.109591 14.732759 109 111 108
-90.497559 -20.122984 14.695149 100 100 100
-90.339363 -20.14852 14.731497 134 129 130
-90.105911 -20.118973 14.768481 107 100 103
-89.904167 -20.11462 14.724579 116 119 117
-89.733238 -20.052967 14.675467 116 114 114
-89.2528 -20.043247 14.6398 153 141 143
-89.164009 -20.022879 14.667257 81 90 80
-88.665527 -20.102234 14.667234 86 97 87
-88.448792 -20.097687 14.637863 114 124 114
-88.29554 -20.098059 14.691343 108 109 105
-88.09272 -20.087534 14.674989 108 109 105
-87.946777 -20.093935 14.715714 64 78 60
-85.290482 -20.149971 14.668154 139 133 126
-85.140953 -20.092934 14.686056 154 140 137
-84.863693 -20.179039 14.738896 122 123 111
-84.693489 -20.0814 14.726527 161 146 143
-84.503044 -20.141518 14.7069 141 131 127
-84.354416 -20.151808 14.775386 194 181 173
-84.074738 -20.108192 14.752359 116 115 103
-83.973297 -20.123659 14.706233 181 169 169
-82.337433 -20.154413 14.74648 82 86 69
-81.875443 -20.08062 14.785621 92 109 86
-81.483765 -20.13236 14.779087 58 73 54
-95.043983 -19.828384 14.717501 162 163 149
-92.0411 -19.934263 14.64357 128 140 128
-91.888031 -19.908808 14.716565 104 116 105
-91.706802 -19.878937 14.700385 118 127 118
-91.499626 -19.877193 14.68733 80 90 83
-91.281433 -19.865116 14.698665 96 104 96
-91.090752 -19.900194 14.701291 115 117 113
-90.881111 -19.874849 14.716685 95 101 92
-90.708321 -19.892572 14.707321 88 93 87
-90.521683 -19.922987 14.699293 125 128 126
-90.25148 -19.854763 14.731796 96 95 94
-90.089912 -19.883884 14.742546 111 108 111
-89.89547 -19.873379 14.696909 105 105 104
-89.783798 -19.960901 14.659154 119 115 117
-89.429985 -19.881432 14.724105 202 193 196
-89.28112 -19.862682 14.659599 85 85 80
-89.110962 -19.897902 14.669464 88 91 87
-88.855476 -19.868788 14.705332 52 73 57
-88.679314 -19.871801 14.696303 71 84 70
-88.531677 -19.890827 14.653301 100 102 94
-88.267082 -19.919321 14.646686 108 107 106
-88.125656 -19.900051 14.683535 114 113 110
-87.912811 -19.866167 14.638698 96 101 96
-87.67453 -19.879499 14.798289 77 97 69
-86.014053 -19.830891 14.719884 162 156 148
-85.943932 -19.820948 14.684719 125 123 110
-85.668579 -19.853724 14.676411 159 140 144
-85.586601 -19.828709 14.755001 148 137 135
-84.619675 -19.964344 14.680986 169 150 150
-84.44268 -19.84923 14.73741 111 110 102
-84.318726 -19.85228 14.746969 113 109 104
-84.074821 -19.888128 14.737317 126 122 113
-83.789177 -19.986031 14.711049 25 45 18
-83.296982 -19.845116 14.698434 175 164 158
-82.529427 -19.988876 14.78443 183 174 167
-82.368439 -19.997942 14.695008 207 196 188
-81.9161 -19.931852 14.768115 61 79 56
-81.795219 -19.930338 14.776203 53 66 46
-95.188057 -19.670521 14.791002 136 143 125
-94.945946 -19.717186 14.647259 76 90 68
-92.213989 -19.761799 14.653955 119 123 108
-92.096741 -19.693586 14.659025 118 127 117
-91.897163 -19.687347 14.689146 117 122 115
-91.697823 -19.685373 14.699709 110 115 107
-91.472847 -19.708372 14.713849 99 107 97
-91.299866 -19.689238 14.70556 113 118 112
-91.125847 -19.715673 14.70986 103 109 103
-90.920937 -19.717602 14.745926 111 117 103
-90.706879 -19.713634 14.695745 110 111 107
-90.522949 -19.681742 14.705611 109 111 107
-90.272964 -19.678627 14.702473 119 114 115
-90.106712 -19.675011 14.68204 136 132 131
-89.901871 -19.693306 14.769196 149 137 144
-89.681358 -19.658934 14.78318 107 114 113
-89.464424 -19.708342 14.67916 118 107 110
-89.275963 -19.765409 14.761719 94 93 95
-89.061623 -19.696148 14.682169 81 90 84
-88.869194 -19.716848 14.68159 59 73 65
-88.705597 -19.697138 14.654359 65 75 72
-88.477814 -19.710892 14.739022 87 94 95
-88.309402 -19.753319 14.70122 97 98 97
-88.12455 -19.686535 14.693384 99 101 100
-87.892441 -19.679462 14.697771 102 102 99
-87.698227 -19.665882 14.693538 123 121 119
-87.558304 -19.683863 14.682755 122 104 111
-86.015907 -19.726645 14.748703 139 133 123
-85.925034 -19.7561 14.715719 126 123 115
-85.637093 -19.75028 14.761263 214 200 197
-84.685387 -19.691778 14.676699 131 125 119
-84.510864 -19.700386 14.694273 163 147 136
-84.352997 -19.684656 14.717498 138 126 131
-84.07608 -19.68894 14.753408 148 144 139
-83.879715 -19.745972 14.736181 113 109 103
-83.707848 -19.662764 14.648574 126 124 117
-83.503441 -19.793108 14.630596 189 181 162
-82.990616 -19.631044 14.685215 100 96 85
-82.649269 -19.741545 14.784412 193 186 178
-95.072128 -19.431244 14.680248 66 87 68
-94.914284 -19.470373 14.697474 60 81 62
-94.727127 -19.545059 14.662392 79 95 85
-94.309418 -19.463112 14.677608 96 104 85
-94.154503 -19.451805 14.663727 97 109 93
-92.275787 -19.474617 14.679817 100 110 102
-92.090736 -19.483065 14.714708 121 128 118
-91.867363 -19.538483 14.716378 128 130 123
-91.693062 -19.515669 14.707721 103 108 100
-91.51889 -19.507051 14.701162 107 109 104
-91.236366 -19.541332 14.690943 97 106 102
-91.087852 -19.551926 14.674548 91 101 96
-90.859398 -19.518625 14.680108 99 103 100
-90.690819 -19.50816 14.707244 101 102 101
-90.500404 -19.525045 14.705086 98 99 98
-90.285347 -19.508448 14.723707 114 114 113
-90.112137 -19.513502 14.714828 101 97 95
-89.944183 -19.494175 14.767959 128 115 120
-89.703674 -19.478079 14.685617 89 82 88
-89.319176 -19.449007 14.722111 74 90 72
-88.862755 -19.548662 14.661374 66 76 71
-88.736183 -19.491301 14.670506 51 61 57
-88.531258 -19.44404 14.727968 95 85 94
-88.375496 -19.570044 14.622754 70 75 79
-88.060081 -19.579306 14.730758 128 122 126
-87.897202 -19.572098 14.715216 164 148 150
-87.684158 -19.519209 14.706581 126 124 122
-87.51947 -19.526506 14.689596 138 127 127
-87.323524 -19.504978 14.723077 129 122 120
-87.176247 -19.548077 14.749903 177 177 169
-84.969734 -19.418121 14.636174 122 113 106
-84.448456 -19.583031 14.766767 156 136 147
-84.286636 -19.525337 14.701904 158 143 139
-84.09758 -19.51018 14.713857 151 145 142
-83.881348 -19.515337 14.711334 137 129 126
-83.704926 -19.502666 14.679006 153 150 148
-83.509995 -19.478886 14.692289 165 154 159
-83.205002 -19.420219 14.773571 151 130 129
-83.010818 -19.470837 14.647006 181 172 167
-82.887009 -19.461821 14.711874 161 155 155
-82.765167 -19.431854 14.677158 192 191 187
-95.139107 -19.310713 14.658388 73 92 77
-94.905365 -19.346691 14.705609 68 86 71
-94.718102 -19.24935 14.710018 43 72 55
-94.424683 -19.340475 14.647428 109 115 101
-94.276924 -19.346827 14.684572 89 99 83
-94.134033 -19.342159 14.675735 68 85 69
-92.429688 -19.281704 14.706831 70 89 73
-92.281227 -19.298504 14.702694 125 132 129
-92.140633 -19.308653 14.747426 120 124 121
-91.864197 -19.265961 14.740199 113 118 113
-91.714386 -19.292879 14.717616 104 110 104
-91.574966 -19.325253 14.7089 132 134 132
-91.031281 -19.375858 14.752101 69 81 75
-90.882057 -19.356083 14.720317 86 96 90
-90.703873 -19.295181 14.715801 118 111 111
-90.526306 -19.365744 14.764336 156 148 150
-90.248619 -19.312384 14.736107 103 107 103
-90.065483 -19.355482 14.781565 87 92 86
-89.909248 -19.246912 14.688866 105 106 106
-89.723549 -19.322046 14.768291 81 84 80
-89.427689 -19.367805 14.651003 183 170 177
-88.676224 -19.355347 14.642822 92 84 94
-88.544701 -19.383732 14.757172 155 145 154
-88.032738 -19.256729 14.676195 44 52 41
-87.932129 -19.234415 14.713923 84 80 83
-87.665802 -19.313133 14.695849 91 96 92
-87.481262 -19.30941 14.717281 113 112 108
-87.326401 -19.350994 14.758696 117 112 114
-87.102905 -19.280315 14.738245 139 135 127
-85.078514 -19.234398 14.766682 155 142 140
-84.887985 -19.266914 14.751102 127 120 113
-84.711563 -19.26474 14.674812 160 151 145
-84.598854 -19.204329 14.670971 134 123 119
-84.23732 -19.326254 14.762833 118 116 110
-84.060402 -19.303865 14.696876 151 134 139
-83.928421 -19.269413 14.739607 175 167 163
-83.74559 -19.331326 14.75186 135 132 129
-83.493126 -19.317253 14.719227 136 125 125
-83.252342 -19.267164 14.71537 183 166 165
-83.131538 -19.32795 14.72349 126 114 106
-82.93071 -19.34429 14.724986 158 149 147
-82.693848 -19.274168 14.725185 121 117 109
-81.664978 -19.276209 14.754164 79 90 73
-95.253494 -19.1698 14.661944 98 116 104
-95.12632 -19.12171 14.685379 94 113 98
-94.858307 -19.128357 14.675153 47 66 47
-94.686455 -19.077002 14.72214 93 106 90
-94.576447 -19.143061 14.718358 60 78 61
-92.487366 -19.061918 14.680521 113 122 117
-92.291748 -19.114122 14.697824 122 127 121
-92.095505 -19.101549 14.702987 128 130 128
-91.881035 -19.117847 14.725425 98 102 97
-91.727631 -19.099529 14.694482 110 111 109
-91.556458 -19.068756 14.71357 111 113 111
-91.342392 -19.012791 14.746676 86 99 94
-91.013885 -19.095394 14.779061 75 82 74
-90.905273 -19.066784 14.666452 113 105 109
-90.627197 -19.090868 14.661847 106 108 110
-90.478882 -19.053972 14.680605 171 176 171
-90.275116 -19.100586 14.672074 92 96 96
-89.877045 -19.169388 14.711443 82 95 90
-89.687225 -19.071968 14.710527 89 92 93
-89.374489 -19.138851 14.676272 61 66 60
-87.658226 -19.123148 14.697473 66 80 71
-87.527298 -19.096756 14.732257 69 74 70
-87.280144 -19.03425 14.738764 56 67 53
-87.09549 -19.099052 14.76162 99 101 90
-86.90538 -19.047543 14.757807 142 146 136
-85.091858 -19.086046 14.761468 166 156 151
-84.929955 -19.056843 14.746815 160 148 141
-84.69886 -19.125933 14.673761 145 130 124
-84.535973 -19.124243 14.706365 151 135 140
-84.291313 -19.105068 14.64957 141 120 127
-84.073776 -19.132679 14.731981 161 153 144
-83.93512 -19.075087 14.694999 141 135 132
-83.711586 -19.108965 14.663513 141 130 130
-83.494522 -19.10433 14.671766 149 131 137
-83.324966 -19.111021 14.710229 146 133 133
-83.162468 -19.018274 14.766714 129 128 115
-82.919533 -19.099155 14.737011 141 138 132
-82.652657 -19.057388 14.770789 167 165 156
-82.067993 -19.131716 14.765032 199 193 181
-81.463661 -19.139408 14.778849 107 116 95
-95.729218 -18.824348 14.753675 69 92 63
-94.683174 -18.937117 14.673615 75 93 75
-94.44532 -18.884298 14.702323 40 70 42
-94.269943 -18.867374 14.726151 35 66 40
-94.143478 -18.847633 14.757643 30 68 39
-92.455231 -18.946815 14.67778 111 124 114
-92.290718 -18.924271 14.678473 97 109 99
-92.081657 -18.910206 14.680219 93 104 94
-91.898521 -18.909353 14.691813 98 103 98
-91.716316 -18.928823 14.73509 98 99 99
-91.56707 -18.997892 14.607439 41 57 48
-91.301186 -18.928091 14.668407 131 131 133
-91.078995 -18.881372 14.721539 90 85 86
-90.933281 -18.904633 14.726871 80 82 78
-90.70092 -18.901562 14.712397 95 98 95
-90.538483 -18.901215 14.702136 95 100 98
-90.316071 -18.930805 14.698591 91 90 88
-90.073463 -18.890331 14.681894 122 122 123
-89.925011 -18.834545 14.609504 114 113 114
-89.773262 -18.971323 14.720575 143 137 137
-88.579704 -18.869001 14.6931 64 52 64
-87.655518 -18.912458 14.709414 64 80 68
-87.487434 -18.892801 14.728883 68 79 73
-87.319008 -18.865532 14.723675 87 91 89
-87.111763 -18.857843 14.699864 103 106 105
-86.950722 -18.838737 14.719692 88 89 86
-86.75972 -18.839531 14.680013 105 103 105
-86.24659 -18.814262 14.694758 175 175 177
-85.012474 -18.911034 14.791795 161 149 142
-84.946404 -18.959568 14.743855 162 153 146
-84.728378 -18.9436 14.691074 153 134 136
-84.584282 -18.984261 14.688438 152 146 146
-84.048798 -18.939972 14.713253 170 156 155
-83.881439 -18.879959 14.694497 157 138 143
-83.70459 -18.910263 14.633673 223 201 217
-83.473907 -18.932724 14.73095 167 152 147
-83.290504 -18.889622 14.731435 160 149 144
-83.093407 -18.895731 14.697219 158 147 139
-82.86528 -18.879906 14.728451 154 132 133
-82.700378 -18.839762 14.708822 129 118 118
-82.449295 -18.953495 14.719154 131 121 122
-82.289062 -18.836699 14.675331 64 73 56
-95.597107 -18.649176 14.767908 37 52 33
-95.029327 -18.68107 14.702936 37 66 46
-94.894272 -18.699841 14.722296 40 65 47
-94.655602 -18.64221 14.706453 49 74 56
-94.524368 -18.705467 14.710242 50 77 59
-94.308395 -18.715353 14.677394 35 70 45
-94.087303 -18.709719 14.702603 25 67 40
-93.933159 -18.780197 14.738176 19 58 29
-92.268112 -18.711246 14.657094 107 118 111
-92.085312 -18.715675 14.708472 101 108 103
-91.907341 -18.717619 14.715965 115 118 117
-91.711784 -18.679012 14.701796 131 125 127
-91.480408 -18.679258 14.712193 99 97 97
-91.310562 -18.732378 14.719344 118 111 115
-91.079285 -18.708326 14.684147 87 86 88
-90.885033 -18.736532 14.701909 76 80 78
-90.66507 -18.709572 14.71454 85 90 88
-90.522652 -18.72971 14.68739 82 79 78
-90.279266 -18.647352 14.729622 86 82 79
-90.098572 -18.651615 14.750762 109 101 99
-89.857498 -18.711311 14.729486 57 71 61
-89.710594 -18.761091 14.721779 71 85 70
-89.549454 -18.704346 14.650883 90 98 92
-89.269623 -18.699387 14.729559 134 133 137
-89.037598 -18.690344 14.771465 47 58 52
-88.695335 -18.621225 14.62871 36 34 37
-88.517395 -18.712105 14.68742 72 65 67
-88.105759 -18.635555 14.730461 57 67 58
-87.981468 -18.658817 14.7649 30 52 39
-87.663048 -18.687469 14.682831 51 69 58
-87.497932 -18.692341 14.685011 75 85 80
-87.253052 -18.718765 14.757441 114 111 111
-87.108582 -18.729063 14.718826 124 118 121
-86.93129 -18.724243 14.70414 135 125 125
-86.730255 -18.706572 14.719345 116 107 103
-86.555565 -18.644131 14.74299 107 103 110
-86.307396 -18.735563 14.614172 180 164 164
-84.873001 -18.768459 14.709493 184 163 162
-84.724167 -18.693901 14.692085 197 182 183
-84.585548 -18.6577 14.668906 130 122 119
-84.225906 -18.620363 14.749357 120 118 108
-84.115639 -18.711452 14.744105 201 185 186
-83.932999 -18.678135 14.698339 152 129 135
-83.674751 -18.670347 14.697957 165 143 150
-83.482574 -18.70315 14.755739 170 157 152
-83.286354 -18.690952 14.740682 159 149 144
-83.088585 -18.706818 14.715308 164 150 148
-82.914589 -18.684063 14.720214 161 147 147
-82.729561 -18.704973 14.683595 183 161 172
-82.496475 -18.688332 14.745203 179 176 169
-82.275139 -18.676149 14.744708 83 88 76
-82.10421 -18.72238 14.696027 92 97 78
-81.994896 -18.607765 14.690894 52 71 39
-95.852432 -18.488369 14.675047 91 117 104
-95.655777 -18.438236 14.725114 56 79 65
-95.044075 -18.496807 14.739529 57 79 63
-94.880447 -18.478828 14.795769 47 68 55
-94.692078 -18.53261 14.703782 62 86 71
-94.513969 -18.494774 14.700006 59 81 66
-94.309418 -18.501673 14.713729 56 84 64
-94.116943 -18.543932 14.696078 17 63 31
-93.938026 -18.495607 14.683403 16 63 29
-92.268913 -18.511324 14.705606 120 125 124
-92.15052 -18.510925 14.722052 139 138 141
-91.835411 -18.55232 14.750714 104 108 102
-91.688988 -18.519045 14.716376 102 103 100
-91.55735 -18.472029 14.671429 106 101 101
-91.224014 -18.59786 14.759024 78 89 81
-91.122681 -18.46549 14.693398 63 76 65
-90.941414 -18.430275 14.738539 81 93 79
-90.493843 -18.595646 14.669308 61 60 59
-90.074524 -18.513412 14.72516 116 107 114
-89.914963 -18.487766 14.695953 62 70 58
-89.7686 -18.464893 14.720762 99 91 100
-89.327881 -18.514603 14.674644 110 94 106
-89.055031 -18.474396 14.695079 83 76 85
-88.8937 -18.511681 14.736061 86 84 88
-88.506409 -18.530037 14.743874 173 156 164
-88.262985 -18.457909 14.746454 62 72 63
-88.135056 -18.445732 14.771373 34 58 43
-87.923111 -18.436604 14.719917 31 52 35
-87.667061 -18.557154 14.668683 61 77 71
-87.522507 -18.513378 14.70315 60 72 67
-87.287102 -18.546576 14.764996 90 96 96
-86.833 -18.475796 14.733259 97 102 93
-86.698532 -18.476213 14.699531 94 96 95
-86.587173 -18.507225 14.628031 96 101 106
-85.460686 -18.431543 14.648261 145 136 132
-85.340393 -18.481632 14.692111 105 100 92
-85.151718 -18.402323 14.720169 138 135 128
-84.811012 -18.49169 14.693651 158 150 147
-84.683777 -18.515934 14.664505 111 105 101
-84.460091 -18.555721 14.630293 160 150 145
-84.228363 -18.539236 14.675771 138 136 132
-84.129547 -18.475506 14.647017 139 130 133
-83.877998 -18.506954 14.715637 184 164 172
-83.668739 -18.511168 14.700452 155 137 142
-83.503891 -18.543385 14.747674 162 148 150
-83.299286 -18.532162 14.717077 164 148 152
-83.112762 -18.534286 14.70783 175 161 162
-82.942314 -18.498096 14.71548 147 133 131
-82.711815 -18.545053 14.693065 187 171 170
-82.550667 -18.552834 14.731514 166 151 144
-82.085335 -18.505568 14.683938 150 157 141
-96.195312 -18.300602 14.610741 83 108 86
-95.92775 -18.385902 14.73513 101 118 106
-95.680634 -18.210026 14.734711 115 118 109
-95.549911 -18.368971 14.766173 30 46 36
-95.064705 -18.297659 14.611233 13 45 24
-94.876762 -18.311447 14.714159 58 80 68
-94.783348 -18.39048 14.784369 50 69 63
-94.472832 -18.349756 14.693175 131 144 136
-94.35038 -18.349613 14.723445 64 88 72
-92.472168 -18.289499 14.672006 142 152 157
-92.263603 -18.316385 14.718059 117 123 125
-92.134476 -18.304108 14.731596 123 121 122
-91.906052 -18.308147 14.701402 117 116 114
-91.72599 -18.327641 14.726771 92 96 92
-91.432503 -18.213177 14.790095 114 100 108
-91.329597 -18.316505 14.694498 81 82 78
-91.094482 -18.270542 14.744378 66 71 63
-90.883453 -18.349129 14.65372 84 89 79
-90.717834 -18.254951 14.612786 119 122 120
-89.879051 -18.335068 14.706578 110 108 111
-89.618217 -18.20476 14.78055 59 50 51
-88.849922 -18.266069 14.644838 42 46 49
-88.720337 -18.285267 14.695418 62 62 68
-88.462837 -18.269676 14.745061 81 88 86
-88.27285 -18.319235 14.696186 77 84 79
-88.109192 -18.27799 14.699659 50 65 50
-87.30278 -18.285631 14.700239 50 58 61
-87.062523 -18.310591 14.680356 68 77 72
-86.970642 -18.266151 14.692096 77 84 81
-86.669006 -18.30674 14.680607 75 84 82
-86.549492 -18.264021 14.670495 68 72 63
-85.449638 -18.34276 14.719045 135 125 124
-85.258728 -18.328686 14.745165 146 136 138
-85.159882 -18.321026 14.748501 130 123 120
-84.88208 -18.261057 14.715998 147 139 138
-84.731361 -18.263458 14.704962 147 130 134
-84.574936 -18.271708 14.610504 167 157 155
-84.285851 -18.24272 14.702104 126 120 118
-84.105293 -18.3025 14.705883 113 104 105
-83.939171 -18.28336 14.730617 131 116 124
-83.70282 -18.29472 14.712049 136 120 133
-83.498497 -18.320885 14.733059 142 126 136
-83.298843 -18.296427 14.695824 141 132 131
-83.068756 -18.2759 14.72562 129 118 114
-82.937263 -18.325491 14.720855 190 172 170
-82.673416 -18.275463 14.743223 135 124 121
-95.759865 -18.189823 14.764333 113 121 110
-95.218391 -18.008698 14.731886 24 59 35
-95.031235 -18.062445 14.70184 36 68 45
-94.942017 -18.104002 14.727801 46 77 52
-94.714172 -18.162663 14.604593 65 98 79
-94.477882 -18.122307 14.705655 65 78 70
-92.471451 -18.062622 14.668475 95 113 106
-92.27935 -18.104065 14.701732 121 127 127
-92.183907 -18.133829 14.780512 146 142 146
-91.264526 -18.113152 14.786668 88 71 78
-91.11129 -18.073471 14.754962 72 71 70
-90.975967 -18.165838 14.644138 94 91 93
-90.630936 -18.143888 14.79801 96 93 100
-90.517303 -18.181992 14.719318 110 93 98
-90.101936 -18.109665 14.681812 69 76 70
-89.8731 -18.027502 14.601994 142 125 136
-89.600822 -18.147518 14.701799 99 94 101
-89.521339 -18.057714 14.719539 78 88 79
-88.930832 -18.097946 14.735026 111 94 102
-88.656204 -18.012421 14.672625 69 84 77
-88.493881 -18.104137 14.70548 69 73 70
-88.266342 -18.115894 14.687439 71 79 73
-88.12159 -18.104631 14.711924 76 80 75
-87.929306 -18.064518 14.714895 64 67 67
-87.481262 -18.042768 14.716932 79 85 76
-87.355164 -18.100876 14.734553 80 93 81
-86.944221 -18.143118 14.768506 71 77 76
-86.655563 -18.165419 14.719969 99 101 98
-86.522598 -18.132128 14.691818 48 61 56
-85.531731 -18.056044 14.781699 126 126 116
-85.287376 -18.174704 14.724217 177 156 163
-85.010857 -18.198423 14.798845 146 134 141
-84.845001 -18.144089 14.707848 188 165 167
-84.680634 -18.137373 14.702744 154 140 138
-84.456787 -18.148445 14.713547 137 128 131
-84.320496 -18.138725 14.647054 129 120 117
-84.064751 -18.096386 14.740811 129 122 118
-83.927689 -18.131277 14.6726 146 131 131
-83.665497 -18.030033 14.722347 147 135 133
-83.522102 -18.086895 14.705689 127 115 114
-83.279861 -18.090431 14.713699 149 140 134
-83.112831 -18.129793 14.656181 162 155 154
-82.827377 -18.086262 14.732445 152 149 148
-82.625839 -18.067451 14.676849 171 161 160
-95.518654 -17.845215 14.666906 51 78 64
-95.29715 -17.869457 14.721205 54 80 62
-95.108864 -17.899725 14.692921 63 90 72
-93.441917 -17.998405 14.654061 0 47 15
-93.030304 -17.81605 14.613985 108 121 109
-92.911621 -17.856886 14.670963 86 97 86
-92.291878 -17.887804 14.713366 125 130 132
-92.162476 -17.893574 14.724373 119 121 124
-91.952538 -17.857101 14.772546 78 77 78
-91.43306 -17.805248 14.690695 104 109 103
-91.315903 -17.881107 14.732191 74 79 74
-91.145584 -17.901052 14.747047 123 108 117
-90.85849 -17.943237 14.68469 128 126 137
-90.453102 -17.972685 14.666118 78 87 78
-90.309967 -17.915373 14.685432 90 105 94
-90.16246 -17.869522 14.646231 103 108 106
-89.874146 -17.92378 14.657562 61 64 57
-89.76474 -17.929979 14.611788 73 82 77
-89.440735 -17.801409 14.642323 130 117 127
-89.29998 -17.847153 14.759723 93 78 81
-89.198601 -17.803568 14.650885 69 76 68
-88.836914 -17.81325 14.781036 84 91 84
-88.787468 -17.8104 14.643494 112 99 108
-88.525604 -17.928894 14.723223 64 76 73
-88.296455 -17.942078 14.71381 69 75 71
-88.117149 -17.894938 14.724737 78 85 83
-87.896393 -17.855587 14.674049 96 101 104
-87.699486 -17.92341 14.711841 55 74 62
-87.484901 -17.894867 14.754123 60 72 61
-87.329414 -17.960752 14.773616 96 96 86
-86.940132 -17.966139 14.763456 115 125 118
-86.658813 -17.910313 14.72465 75 79 79
-86.519432 -17.938126 14.724637 141 127 130
-86.347755 -17.864927 14.610065 50 61 53
-85.444626 -17.951298 14.782999 95 94 89
-85.306274 -17.892658 14.679243 120 116 106
-85.184219 -17.826645 14.672098 101 98 94
-84.841682 -17.886463 14.793667 204 174 176
-84.720978 -17.902891 14.632461 168 136 144
-84.441628 -17.919298 14.701785 165 148 150
-84.302055 -17.892365 14.685354 139 130 127
-84.12674 -17.904539 14.712342 141 131 129
-83.916534 -17.925999 14.684475 188 174 173
-83.700073 -17.937824 14.676114 162 150 147
-83.505188 -17.884079 14.694748 172 150 151
-83.249985 -17.92907 14.691366 143 128 128
-83.06044 -17.95211 14.611475 170 161 154
-96.029411 -17.636005 14.776072 106 132 119
-95.933548 -17.639585 14.679997 53 84 64
-95.675278 -17.67063 14.730614 38 72 52
-95.516663 -17.73377 14.686992 53 82 63
-95.321533 -17.77927 14.663939 22 56 34
-93.528427 -17.649223 14.649895 96 116 99
-93.291023 -17.619196 14.685963 52 78 59
-93.07267 -17.738541 14.639717 98 109 97
-92.869331 -17.684626 14.650713 91 108 95
-92.711006 -17.701204 14.685942 58 82 65
-92.516769 -17.744396 14.719599 54 74 70
-92.259583 -17.686544 14.671758 132 134 136
-92.124107 -17.675835 14.699176 114 116 115
-91.927963 -17.660233 14.706273 124 125 122
-91.633652 -17.662411 14.648373 80 88 82
-91.517235 -17.682579 14.688794 96 96 97
-91.306641 -17.73341 14.691014 112 103 110
-91.151138 -17.70042 14.686821 65 47 61
-90.595589 -17.705223 14.612357 106 112 102
-90.100952 -17.706217 14.707443 49 61 55
-89.647408 -17.722725 14.627773 63 69 65
-89.259323 -17.798965 14.621119 51 53 50
-88.874748 -17.76457 14.797783 198 184 193
-88.417747 -17.638685 14.660145 93 88 95
-88.312279 -17.694427 14.66284 60 67 68
-88.035919 -17.765783 14.755948 70 58 66
-87.893806 -17.693052 14.721145 62 70 68
-87.714981 -17.711723 14.726611 55 68 58
-87.486099 -17.718578 14.737983 80 77 77
-87.141487 -17.775988 14.760489 97 111 94
-86.506134 -17.738182 14.696065 72 78 81
-85.464561 -17.698225 14.731533 98 89 92
-85.263634 -17.666052 14.71542 140 134 130
-85.148857 -17.756817 14.662465 145 137 135
-84.705681 -17.781229 14.666029 212 193 195
-84.410538 -17.772192 14.632835 140 122 122
-84.321877 -17.696033 14.689614 172 158 157
-84.146606 -17.710777 14.685997 143 131 133
-83.911674 -17.623882 14.706874 129 123 121
-83.682014 -17.631947 14.698215 144 137 132
-83.469017 -17.664907 14.671797 163 154 148
-83.305931 -17.681805 14.716027 150 141 136
-83.150482 -17.682934 14.693879 89 88 81
-82.29953 -17.638544 14.729544 151 146 140
-82.1604 -17.665478 14.796334 62 73 56
-96.51461 -17.545677 14.681707 106 117 103
-96.246658 -17.509449 14.774541 120 126 112
-96.048889 -17.535925 14.716998 62 89 72
-95.899765 -17.53916 14.655039 45 72 57
-93.625984 -17.432281 14.654272 98 115 103
-93.499969 -17.511442 14.699753 96 110 98
-93.297035 -17.470247 14.670296 78 104 85
-93.049355 -17.49247 14.645095 103 116 107
-92.901161 -17.481398 14.696542 100 112 106
-92.730782 -17.482327 14.722382 81 100 87
-92.48143 -17.482197 14.684265 100 110 105
-92.267204 -17.486246 14.672587 149 143 148
-92.130333 -17.500221 14.702702 124 123 124
-91.893814 -17.476095 14.698649 103 102 105
-91.690849 -17.509102 14.723916 80 84 80
-91.510033 -17.544594 14.714529 92 86 93
-91.356056 -17.518806 14.68618 83 78 90
-91.105659 -17.525959 14.713985 75 62 73
-89.889763 -17.539692 14.686601 87 84 85
-89.678871 -17.471022 14.712646 70 69 75
-89.431076 -17.536175 14.620449 90 95 95
-89.121552 -17.436104 14.756126 127 114 131
-88.68148 -17.462362 14.713199 75 81 77
-88.506516 -17.505959 14.647448 58 75 67
-88.252586 -17.546814 14.681017 198 182 195
-88.06958 -17.446226 14.710942 73 90 79
-87.88755 -17.479197 14.721139 51 66 60
-87.689484 -17.466743 14.72102 55 67 61
-87.570251 -17.54846 14.687858 38 46 40
-87.034737 -17.410177 14.672753 99 108 107
-86.614166 -17.472015 14.788636 99 108 101
-86.541023 -17.479616 14.728012 55 66 60
-86.37413 -17.534327 14.621279 69 82 80
-85.415779 -17.496635 14.737164 94 105 91
-85.26989 -17.479719 14.692251 134 129 127
-85.132156 -17.459938 14.653722 146 136 137
-84.862038 -17.486921 14.682702 168 162 159
-84.72139 -17.500223 14.70193 151 139 146
-84.511993 -17.462482 14.643546 165 145 158
-84.266754 -17.474869 14.682452 151 138 140
-84.118561 -17.477659 14.703949 142 132 134
-83.905533 -17.485929 14.695286 156 145 148
-83.679146 -17.520752 14.67739 140 131 128
-83.495522 -17.510647 14.679966 160 144 145
-83.31781 -17.526651 14.707808 173 158 158
-83.074455 -17.528118 14.665919 155 139 144
-82.903236 -17.492155 14.710554 173 160 160
-82.704262 -17.49617 14.690586 176 163 165
-82.330063 -17.563829 14.703174 132 131 124
-96.10791 -17.388098 14.694866 66 86 69
-93.894501 -17.261721 14.66415 103 123 108
-93.694679 -17.274382 14.664492 85 96 86
-93.477417 -17.308575 14.706647 83 101 88
-93.339592 -17.261068 14.712677 87 107 93
-93.050972 -17.299349 14.712169 103 112 102
-92.926529 -17.26211 14.700798 108 117 113
-92.686554 -17.286118 14.707167 80 102 90
-92.462051 -17.297581 14.714637 130 137 134
-92.277763 -17.308407 14.670774 126 127 126
-92.131302 -17.329348 14.694635 123 119 121
-91.888832 -17.287474 14.680198 133 126 130
-91.743721 -17.265276 14.735352 120 110 114
-91.509949 -17.218727 14.755833 216 192 205
-91.212357 -17.242859 14.790405 61 61 59
-90.658875 -17.343521 14.665626 88 100 88
-90.366661 -17.290224 14.697756 179 157 178
-89.993286 -17.27545 14.628493 181 179 180
-89.246864 -17.366217 14.745733 116 106 114
-89.117981 -17.383589 14.707855 91 86 92
-88.67614 -17.281832 14.77322 25 43 27
-88.563507 -17.293739 14.681122 53 70 58
-88.281212 -17.273014 14.681842 51 68 59
-88.066078 -17.291656 14.710633 47 69 58
-87.910187 -17.289001 14.711739 47 65 56
-87.70697 -17.307182 14.712242 59 69 67
-87.534142 -17.307961 14.722813 55 67 62
-87.325981 -17.296709 14.741599 122 129 120
-87.074806 -17.297335 14.6903 64 72 69
-86.905624 -17.258831 14.731031 63 70 71
-86.6259 -17.275497 14.770888 99 100 94
-86.501762 -17.314472 14.728114 76 82 81
-86.353394 -17.226147 14.729579 67 70 74
-85.253876 -17.334749 14.685389 164 156 155
-85.169456 -17.270443 14.686195 178 166 165
-84.839935 -17.245199 14.600643 162 151 153
-84.702217 -17.313303 14.636724 130 121 127
-84.467766 -17.315639 14.682417 157 139 149
-84.294418 -17.304918 14.695006 177 155 166
-84.117676 -17.31464 14.684566 177 160 155
-83.899422 -17.310696 14.69225 169 154 157
-83.686996 -17.302402 14.705048 168 156 158
-83.488678 -17.335358 14.672989 135 124 129
-83.301033 -17.26993 14.71386 136 128 136
-83.106056 -17.290546 14.701437 150 139 143
-82.902962 -17.328098 14.730995 134 126 118
-82.695015 -17.260538 14.691134 125 122 118
-82.553322 -17.282227 14.712008 63 70 61
-94.043243 -17.030825 14.699132 127 133 117
-93.908691 -17.103392 14.706175 104 116 103
-93.699295 -17.110043 14.718615 84 99 86
-93.507347 -17.057596 14.717329 105 115 106
-93.313614 -17.061195 14.740012 107 116 109
-93.130272 -17.090303 14.677002 111 117 115
-92.89151 -17.080772 14.651951 88 103 97
-92.68322 -17.077736 14.659614 110 118 116
-92.516373 -17.129015 14.69975 116 123 121
-92.317955 -17.060719 14.706935 76 86 78
-92.076508 -17.083075 14.677368 125 123 122
-91.938408 -17.150747 14.665648 130 124 124
-91.675491 -17.091284 14.718307 101 90 97
-91.51564 -17.066971 14.68495 95 95 96
-91.290894 -17.057545 14.778399 52 58 53
-90.824463 -17.066788 14.776184 102 93 100
-90.736084 -17.062021 14.644223 117 103 114
-90.568199 -17.039034 14.663037 156 146 154
-90.101883 -17.112957 14.634693 109 96 101
-89.669968 -17.101837 14.772257 78 79 83
-89.361084 -17.066105 14.736175 44 52 55
-89.000298 -17.175512 14.776476 68 71 80
-88.696281 -17.11105 14.729431 41 64 49
-88.468475 -17.103273 14.71352 40 61 49
-88.278915 -17.054152 14.719711 57 68 63
-88.108482 -17.08209 14.738025 67 81 73
-87.919029 -17.09289 14.710693 32 55 44
-87.681747 -17.104124 14.720594 52 67 61
-87.539093 -17.078861 14.706082 48 66 57
-87.290787 -17.150682 14.771493 80 88 82
-87.095718 -17.080196 14.778224 90 93 90
-86.913902 -17.072767 14.759091 68 80 72
-86.681488 -17.077406 14.729456 88 91 88
-86.497482 -17.082735 14.738637 84 86 88
-86.332764 -17.06259 14.706843 81 86 87
-85.308907 -17.112139 14.678529 178 167 176
-85.132065 -17.053499 14.722678 133 131 123
-84.821251 -17.048468 14.67703 104 97 103
-84.767838 -17.021334 14.690761 184 170 180
-84.432281 -17.146585 14.63859 180 160 160
-84.319809 -17.108736 14.67378 182 165 166
-84.1138 -17.114985 14.696106 165 146 156
-83.897003 -17.111904 14.7249 149 130 136
-83.691566 -17.091591 14.706898 145 139 138
-83.462814 -17.081736 14.69954 180 160 163
-83.287292 -17.130531 14.703156 133 125 125
-83.091324 -17.101023 14.654425 142 132 132
-82.911339 -17.097507 14.681805 142 137 134
-82.718529 -17.0823 14.693015 146 138 136
-82.564056 -17.040363 14.776623 128 114 112
-82.375778 -17.156788 14.624068 152 134 130
-94.260895 -16.833105 14.699751 62 85 75
-94.109505 -16.912865 14.680778 124 133 121
-93.895195 -16.883244 14.706361 109 117 110
-93.693405 -16.898804 14.705536 113 122 117
-93.473488 -16.915712 14.718809 106 110 106
-93.333633 -16.905954 14.692285 85 98 89
-93.182266 -16.905684 14.615299 93 111 104
-92.828156 -16.842222 14.662539 68 89 85
-92.677437 -16.915491 14.679096 103 111 112
-92.503174 -16.917408 14.665277 121 126 124
-92.286285 -16.893358 14.680293 95 100 97
-92.131599 -16.905584 14.712211 137 133 137
-91.843407 -16.881639 14.650353 93 97 94
-91.689674 -16.894896 14.717246 94 98 100
-91.451736 -16.917315 14.709034 87 89 88
-90.825768 -16.825352 14.659344 132 130 135
-90.729301 -16.901089 14.712461 108 104 110
-90.004944 -16.869972 14.729674 139 137 138
-89.747208 -16.89007 14.678075 89 87 94
-89.470222 -16.899858 14.747044 119 100 112
-88.669159 -16.876965 14.698545 51 64 57
-88.486549 -16.840422 14.745817 50 72 58
-88.312698 -16.864428 14.728435 42 62 51
-88.108513 -16.8792 14.738872 51 68 60
-87.941246 -16.917204 14.661643 37 57 50
-87.636856 -16.946142 14.736463 61 75 72
-87.547256 -16.894108 14.745604 50 66 59
-87.017403 -16.835403 14.755251 107 106 100
-86.897926 -16.881729 14.718466 73 82 78
-86.675468 -16.902868 14.7411 73 81 79
-86.502014 -16.905668 14.748515 89 94 93
-86.28183 -16.873861 14.730655 77 71 70
-85.486565 -16.822334 14.702778 151 134 147
-85.095665 -16.91687 14.784943 170 160 155
-84.89563 -16.905172 14.715293 154 137 145
-84.705315 -16.876245 14.698008 148 131 139
-84.481903 -16.867731 14.717405 158 145 150
-84.297775 -16.889933 14.668826 158 145 147
-84.139099 -16.815254 14.635622 116 111 110
-83.847939 -16.908075 14.705594 174 156 161
-83.684708 -16.945713 14.692007 171 154 155
-83.49958 -16.893429 14.671224 158 143 146
-83.215981 -16.89119 14.688582 181 164 171
-83.127502 -16.847435 14.694214 157 139 154
-82.842285 -16.933962 14.720771 191 176 172
-82.650475 -16.911808 14.680313 179 173 172
-82.48156 -16.940733 14.726646 132 129 121
-82.278427 -16.929008 14.751743 111 112 106
-81.913246 -16.90877 14.648753 142 139 132
-81.773529 -16.953245 14.643466 51 58 42
-94.251343 -16.739067 14.66395 127 135 126
-94.104149 -16.698593 14.691162 131 133 128
-93.911377 -16.676825 14.68803 122 124 119
-93.677338 -16.702909 14.682365 107 111 106
-93.492775 -16.726316 14.677761 113 114 109
-93.348885 -16.725889 14.683194 72 87 77
-93.163857 -16.601749 14.651749 119 132 118
-92.962196 -16.606998 14.701235 56 76 67
-92.669136 -16.736683 14.65011 115 123 122
-92.486671 -16.700922 14.664734 111 114 113
-92.285629 -16.747206 14.722606 120 131 127
-92.120476 -16.697529 14.709706 119 117 118
-91.896065 -16.676081 14.688451 106 102 103
-91.694862 -16.730999 14.71803 102 95 101
-91.539574 -16.74292 14.724576 119 118 123
-91.231552 -16.690123 14.666451 145 114 130
-91.092285 -16.68787 14.691811 75 58 70
-90.870163 -16.725857 14.669392 114 96 108
-90.765114 -16.71242 14.671561 108 111 117
-89.665504 -16.72666 14.766887 79 78 86
-89.504662 -16.720089 14.665268 82 79 90
-89.374962 -16.641199 14.69412 69 79 81
-88.676323 -16.715405 14.689218 80 92 90
-88.491951 -16.716761 14.719392 56 71 65
-88.310608 -16.744665 14.717473 53 64 58
-88.106232 -16.723017 14.691452 59 73 68
-87.913162 -16.672146 14.702589 64 75 70
-87.755226 -16.667156 14.716224 54 63 60
-87.526466 -16.688326 14.729438 63 76 70
-87.387833 -16.734426 14.737826 88 94 84
-87.042274 -16.694286 14.700573 94 99 95
-86.910118 -16.692213 14.718754 65 74 73
-86.692383 -16.728752 14.757534 128 129 134
-86.509811 -16.693213 14.725683 94 93 99
-86.313309 -16.681751 14.714421 129 119 128
-86.1651 -16.773026 14.662287 69 65 67
-85.516159 -16.760513 14.641047 163 148 155
-85.061371 -16.698488 14.706935 188 168 173
-84.897148 -16.684343 14.695793 179 165 165
-84.683632 -16.692997 14.694619 168 150 156
-84.480591 -16.717417 14.714607 175 157 161
-84.347885 -16.723473 14.687961 149 133 136
-84.075645 -16.724184 14.666436 122 113 112
-83.958145 -16.689219 14.670618 147 142 140
-83.684959 -16.723557 14.679162 112 107 106
-83.505463 -16.751711 14.656199 155 140 145
-83.319298 -16.716209 14.680349 174 159 166
-83.132011 -16.735008 14.68206 162 150 149
-82.883842 -16.66802 14.695678 174 160 163
-82.703949 -16.664385 14.694036 184 168 173
-82.509132 -16.656654 14.678782 174 162 163
-82.350349 -16.705599 14.715014 188 173 179
-94.485703 -16.467876 14.653032 142 151 142
-94.27359 -16.508608 14.691909 117 128 118
-94.090126 -16.506186 14.695704 124 128 123
-93.897804 -16.499138 14.703002 120 123 118
-93.720222 -16.508177 14.660825 74 87 78
-93.527733 -16.523294 14.704391 67 85 72
-93.259003 -16.578812 14.618105 81 99 88
-93.096947 -16.500557 14.687955 115 123 117
-92.899254 -16.467304 14.732903 101 112 105
-92.696861 -16.446514 14.656325 80 98 87
-92.4813 -16.462151 14.738385 64 79 74
-92.293571 -16.512217 14.685419 126 127 129
