ply
format ascii 1.0
comment PCL generated
element vertex 1103
property float x
property float y
property float z
property uchar red
property uchar green
property uchar blue
element face 0
element camera 0
property float view_px
property float view_py
property float view_pz
property float x_axisx
property float x_axisy
property float x_axisz
property float y_axisx
property float y_axisy
property float y_axisz
property float z_axisx
property float z_axisy
property float z_axisz
property float focal
property float scalex
property float scaley
property float centerx
property float centery
property int viewportx
property int viewporty
property float k1
property float k2
end_header
-22.298386 -80.305786 24.69483 109 110 112
-22.102125 -80.309624 24.644575 147 143 149
-21.87628 -80.297516 24.722658 138 138 142
-21.747698 -80.289558 24.747711 124 127 128
-21.228256 -80.354111 24.714252 76 82 77
-21.104149 -80.254486 24.701418 82 87 85
-20.918808 -80.261475 24.732061 93 96 93
-20.442751 -80.306313 24.725426 85 83 83
-20.336836 -80.312721 24.720184 75 78 76
-19.432716 -80.263008 24.660515 51 60 57
-18.843966 -80.239204 24.688967 71 82 78
-18.489065 -80.312424 24.651402 60 64 63
-18.275816 -80.252487 24.776297 81 89 91
-18.163441 -80.248558 24.602451 67 68 65
-16.102356 -80.313805 24.668915 105 109 110
-15.671491 -80.243347 24.672686 101 103 106
-15.536661 -80.240372 24.666237 98 100 101
-15.369547 -80.214035 24.642311 111 116 118
-13.825394 -80.309196 24.70619 137 128 132
-13.721286 -80.284805 24.720663 137 133 137
-13.479901 -80.307091 24.702284 129 125 129
-13.296312 -80.279808 24.708563 101 102 104
-24.057253 -80.141502 24.658655 134 132 131
-23.876446 -80.120712 24.697763 133 129 129
-23.724665 -80.096481 24.727434 128 125 126
-23.522362 -80.135185 24.704062 135 134 136
-23.260204 -80.079544 24.651859 140 140 142
-23.098906 -80.061844 24.674219 141 136 141
-22.881817 -80.070572 24.673767 163 153 158
-22.712547 -80.087204 24.679256 142 139 143
-22.481844 -80.108185 24.7087 128 128 132
-22.324245 -80.097122 24.7216 116 124 127
-21.874548 -80.118309 24.684572 128 127 131
-21.718559 -80.122055 24.734564 120 123 125
-21.265373 -80.068169 24.694469 96 100 95
-21.093685 -80.110336 24.699284 100 104 100
-20.944387 -80.125458 24.697155 105 107 106
-20.252337 -80.170395 24.757372 96 102 93
-19.407722 -80.046593 24.653507 129 133 134
-19.266134 -80.146736 24.655371 80 84 88
-19.043594 -80.111481 24.732132 70 72 72
-18.858372 -80.116371 24.66087 57 63 64
-18.693407 -80.095047 24.699137 79 81 82
-18.489252 -80.101143 24.723606 75 77 75
-18.330278 -80.037247 24.748108 89 96 89
-16.229807 -80.015976 24.774424 92 94 95
-16.061705 -80.084526 24.699028 99 99 101
-15.921607 -80.068504 24.689898 98 101 103
-15.710785 -80.064911 24.699549 102 107 106
-15.505917 -80.100891 24.669558 99 103 102
-15.319771 -80.061546 24.689394 112 113 114
-13.69369 -80.156845 24.663624 82 81 84
-13.343166 -80.173111 24.723515 97 99 103
-13.142501 -80.184372 24.625959 100 104 105
-23.89587 -79.905945 24.624315 69 73 74
-23.673349 -79.881653 24.657665 135 133 136
-23.53194 -79.894791 24.686131 134 132 135
-23.268854 -79.882095 24.699594 150 144 148
-23.085588 -79.910309 24.70397 153 145 149
-22.912485 -79.916603 24.704901 149 140 144
-22.685341 -79.883194 24.709496 118 119 122
-22.512486 -79.89138 24.692074 117 119 123
-22.332632 -79.898048 24.707569 95 104 104
-22.119434 -79.897789 24.737665 90 98 100
-21.868401 -79.923187 24.700447 159 154 157
-21.735825 -79.898392 24.658585 166 160 163
-21.249313 -79.894814 24.719944 110 114 107
-21.122318 -79.895035 24.677076 100 104 98
-20.939247 -79.951401 24.723984 103 104 100
-20.755157 -79.981148 24.779179 154 160 160
-19.664635 -79.853058 24.676144 77 83 79
-19.443432 -79.873917 24.634197 69 71 74
-19.322803 -79.916924 24.706602 67 69 70
-19.065308 -79.8964 24.684713 77 80 80
-18.912733 -79.909912 24.691938 72 73 75
-18.730398 -79.842957 24.712261 70 73 71
-18.528866 -79.87706 24.674259 82 87 87
-18.271748 -79.906784 24.681347 85 90 89
-18.18557 -79.937714 24.628519 121 128 134
-16.09226 -79.955635 24.660713 104 103 105
-15.913068 -79.914452 24.733257 114 114 116
-15.689662 -79.884026 24.690853 103 105 103
-15.498841 -79.881187 24.692717 115 117 115
-15.30468 -79.896072 24.69462 124 124 123
-15.126559 -79.88636 24.69075 131 129 131
-14.932313 -79.845459 24.684032 114 116 121
-14.767008 -79.880524 24.603878 105 113 116
-23.687912 -79.727417 24.661245 143 140 145
-23.494816 -79.66861 24.716753 150 143 144
-23.295527 -79.74633 24.679766 169 158 160
-23.128815 -79.737106 24.681519 156 150 150
-22.876272 -79.731911 24.684294 135 134 136
-22.709656 -79.743309 24.67058 121 120 124
-22.499483 -79.717598 24.689102 112 115 118
-22.317221 -79.682846 24.708532 111 119 121
-22.035831 -79.7276 24.681374 110 113 116
-21.858061 -79.709541 24.679564 141 138 140
-21.77512 -79.698532 24.672255 170 163 165
-21.275251 -79.669998 24.714622 92 101 99
-21.101383 -79.712807 24.693867 97 101 100
-20.934589 -79.650269 24.69368 87 94 94
-20.426521 -79.657547 24.692823 91 91 92
-20.338848 -79.661102 24.695446 96 95 90
-19.617065 -79.741051 24.652182 85 88 91
-19.422085 -79.776558 24.676863 80 81 86
-19.236235 -79.635597 24.606802 62 75 68
-19.14304 -79.775162 24.752954 80 89 88
-18.931543 -79.723167 24.69944 68 73 74
-18.708355 -79.731491 24.672859 68 73 72
-18.484043 -79.691978 24.717136 69 76 76
-18.386133 -79.767479 24.680824 71 76 72
-18.039467 -79.633453 24.718237 66 71 75
-17.915432 -79.721741 24.609615 111 115 116
-16.249483 -79.697601 24.792187 111 111 111
-16.071276 -79.722633 24.76178 101 101 101
-15.895787 -79.69001 24.708422 115 115 114
-15.682808 -79.709335 24.696779 121 121 121
-15.516234 -79.708618 24.726604 132 131 133
-15.289732 -79.697289 24.706675 140 137 139
-15.117217 -79.690407 24.715141 139 135 139
-14.905836 -79.693977 24.7052 115 116 118
-14.760085 -79.7799 24.616438 94 100 100
-23.684246 -79.476593 24.66164 160 155 159
-23.491737 -79.539299 24.675512 147 141 144
-23.331186 -79.45742 24.720984 132 131 137
-23.177866 -79.414413 24.720875 119 113 119
-22.821507 -79.561157 24.701426 147 149 148
-22.660955 -79.508186 24.736492 134 132 135
-22.501381 -79.50013 24.702276 116 117 120
-22.319752 -79.492638 24.698875 106 111 114
-22.123285 -79.485878 24.701033 115 115 118
-21.898251 -79.489861 24.670679 125 128 131
-21.722254 -79.474068 24.700602 120 119 124
-21.447805 -79.458801 24.659023 116 120 126
-21.327902 -79.448868 24.702362 75 84 82
-21.109774 -79.493378 24.695606 88 95 96
-20.887341 -79.501617 24.710747 88 95 95
-20.75495 -79.488327 24.733673 85 93 95
-20.444616 -79.506889 24.709652 73 75 75
-20.354006 -79.459923 24.682577 70 76 77
-19.824108 -79.446159 24.741322 90 94 95
-19.681326 -79.40667 24.79121 77 79 81
-19.2854 -79.591705 24.791473 69 75 75
-18.71167 -79.487694 24.690018 75 83 85
-18.098621 -79.551186 24.687721 104 109 113
-16.299606 -79.493309 24.798487 94 99 93
-15.843059 -79.501678 24.713428 126 124 125
-15.689293 -79.515053 24.703241 126 124 125
-15.482584 -79.530602 24.700672 113 110 114
-15.301542 -79.532303 24.704611 122 120 125
-15.115935 -79.525276 24.700996 128 125 128
-14.897902 -79.53624 24.678329 116 112 116
-23.853632 -79.293243 24.65531 121 118 125
-23.666435 -79.277954 24.729439 149 141 143
-23.493179 -79.279617 24.696072 143 140 144
-23.288378 -79.324867 24.684952 121 121 126
-23.092028 -79.253609 24.65974 129 126 131
-22.933758 -79.25058 24.686684 107 111 114
-22.664597 -79.309402 24.739136 134 135 138
-22.489532 -79.293274 24.700476 108 109 112
-22.326363 -79.289543 24.664318 111 114 118
-22.084536 -79.312309 24.667624 114 115 120
-21.8953 -79.296944 24.670532 123 125 130
-21.706814 -79.283096 24.674814 125 125 128
-21.510347 -79.268517 24.705381 86 85 87
-21.291168 -79.303528 24.689405 106 110 112
-21.107269 -79.305779 24.667088 126 128 131
-20.899496 -79.314499 24.708502 114 116 117
-20.734568 -79.307968 24.739019 95 100 99
-20.485199 -79.292496 24.72876 91 96 93
-20.321018 -79.287369 24.681734 76 81 81
-20.043728 -79.301582 24.759476 152 151 151
-19.731207 -79.284729 24.714663 86 93 89
-18.630127 -79.339287 24.743622 111 116 120
-18.52039 -79.290764 24.60615 63 63 67
-16.999495 -79.305466 24.728706 71 72 74
-15.658383 -79.329468 24.713579 145 142 143
-15.47508 -79.273651 24.732128 139 132 133
-15.316028 -79.312874 24.687994 115 114 117
-15.189449 -79.37767 24.690418 154 155 159
-24.024178 -79.131439 24.682396 111 114 121
-23.852039 -79.102142 24.69038 158 150 153
-23.693804 -79.10186 24.715071 158 147 148
-23.48094 -79.094627 24.708508 148 142 146
-23.331261 -79.112282 24.699282 131 129 133
-23.103352 -79.103432 24.69751 133 130 134
-22.9158 -79.086388 24.699879 112 114 119
-22.683979 -79.096565 24.723442 125 126 129
-22.485592 -79.100189 24.702482 128 128 131
-22.3062 -79.109123 24.684029 123 125 128
-22.104534 -79.096359 24.674355 115 118 122
-21.908453 -79.084007 24.683083 130 132 137
-21.780695 -79.074043 24.702005 170 167 169
-21.49692 -79.13308 24.704575 162 156 162
-21.324825 -79.113914 24.653637 110 105 111
-21.085005 -79.116409 24.707714 108 110 112
-20.923628 -79.060028 24.712555 120 120 121
-20.698771 -79.076813 24.737291 100 104 104
-20.508116 -79.072502 24.737949 89 93 92
-20.31958 -79.085045 24.687548 80 84 83
-20.097391 -79.067261 24.704683 92 93 94
-19.937454 -79.029495 24.713005 109 110 106
-19.71273 -79.15387 24.695412 95 101 96
-19.26778 -79.024712 24.677162 73 76 73
-19.194813 -79.004356 24.669727 73 71 74
-18.716379 -79.119652 24.688528 89 76 81
-18.466303 -79.06694 24.751568 81 80 83
-18.369629 -79.046936 24.716465 106 102 104
-15.811667 -79.008713 24.738916 111 105 105
-15.666355 -79.099533 24.736088 121 117 116
-15.490194 -79.100052 24.698608 132 126 125
-15.330053 -79.089981 24.659988 154 148 151
-15.168667 -79.067673 24.639938 136 137 141
-24.648733 -78.887062 24.674793 205 187 187
-24.559505 -78.871513 24.731955 174 169 173
-24.249983 -78.820107 24.664268 160 156 158
-24.147697 -78.849907 24.716782 145 141 147
-23.881819 -78.934425 24.667765 135 132 135
-23.700785 -78.905266 24.684258 156 151 154
-23.518835 -78.894646 24.737213 144 138 139
-23.311983 -78.899635 24.693441 128 125 128
-23.102295 -78.918297 24.680347 129 125 129
-22.884394 -78.903137 24.708883 133 128 133
-22.70145 -78.904961 24.687092 125 126 130
-22.483591 -78.908875 24.707542 123 122 124
-22.313059 -78.898132 24.684828 133 130 133
-22.115417 -78.912872 24.678701 128 126 131
-21.935154 -78.947632 24.649273 115 117 122
-21.459377 -78.960831 24.786854 92 98 98
-21.297951 -78.873825 24.777359 117 119 122
-21.066261 -78.93602 24.738569 146 145 149
-20.887161 -78.887909 24.755188 115 114 117
-20.695412 -78.935059 24.744377 95 98 101
-20.490995 -78.925438 24.720016 100 102 102
-20.290705 -78.918953 24.675398 105 105 105
-20.10603 -78.921585 24.694639 97 99 99
-19.935946 -78.891502 24.727163 115 112 113
-19.693727 -78.835609 24.743591 122 127 121
-19.40556 -78.970078 24.767857 67 73 70
-19.316006 -78.89492 24.728188 75 78 76
-19.153971 -78.901123 24.734509 88 88 87
-18.506294 -78.966805 24.697792 67 65 68
-18.3305 -78.962578 24.693026 96 95 94
-16.313435 -78.932892 24.62426 73 76 69
-16.195532 -78.998795 24.679501 75 66 69
-15.80331 -78.852501 24.739021 133 133 131
-15.696937 -78.91568 24.64049 140 134 133
-15.487596 -78.912643 24.6747 140 132 134
-15.293377 -78.898148 24.675406 143 136 140
-15.14119 -78.908272 24.661539 129 127 131
-24.431004 -78.713226 24.61338 148 135 135
-24.293087 -78.720596 24.645678 156 148 151
-24.110189 -78.726967 24.700094 143 143 146
-23.854956 -78.703583 24.690802 130 128 130
-23.695984 -78.745155 24.728632 167 155 155
-23.463043 -78.695992 24.731939 151 144 147
-23.2973 -78.706215 24.730213 142 134 137
-23.10371 -78.706444 24.725576 154 144 149
-22.892153 -78.701431 24.70377 129 127 131
-22.681513 -78.729942 24.711676 118 116 119
-22.482115 -78.712151 24.694901 126 125 128
-22.301514 -78.759491 24.660627 117 116 119
-21.69216 -78.688217 24.777754 149 150 146
-21.091711 -78.760712 24.750105 105 106 111
-20.85957 -78.759987 24.722847 102 101 104
-20.706406 -78.677811 24.677015 107 108 110
-20.468758 -78.675484 24.686256 145 143 148
-20.290937 -78.713066 24.708776 115 115 120
-20.125092 -78.649719 24.696394 127 125 129
-19.884188 -78.706551 24.698088 131 130 129
-19.755381 -78.704567 24.688847 121 122 118
-19.245388 -78.795586 24.759678 96 102 100
-19.141045 -78.685036 24.767805 80 80 77
-18.247158 -78.762474 24.78257 83 81 85
-16.823996 -78.624512 24.73571 75 78 73
-16.709352 -78.62851 24.684578 80 84 78
-16.458147 -78.612938 24.797403 129 125 124
-15.811328 -78.734962 24.609858 153 147 149
-15.681273 -78.680855 24.681488 135 133 131
-15.45506 -78.716728 24.655546 144 135 138
-15.27902 -78.691582 24.66316 138 132 137
-15.148448 -78.742073 24.692348 112 109 114
-24.150959 -78.594696 24.655453 184 180 187
-23.87756 -78.549362 24.665598 124 124 130
-23.668198 -78.483292 24.718618 151 143 145
-23.502819 -78.492462 24.720196 143 137 139
-23.296888 -78.508514 24.700705 134 132 135
-23.084248 -78.494736 24.746775 131 127 130
-22.91568 -78.512123 24.717693 115 113 116
-22.707037 -78.516121 24.728144 145 137 142
-22.484358 -78.489059 24.705488 159 150 153
-22.370794 -78.504097 24.695234 131 129 129
-22.153099 -78.535294 24.616955 106 111 114
-20.663357 -78.475189 24.754921 133 128 130
-20.482435 -78.499649 24.725355 150 149 150
-20.326857 -78.464668 24.736326 128 129 131
-20.099575 -78.523773 24.730375 130 128 132
-19.904911 -78.509552 24.724754 108 109 109
-19.729393 -78.509056 24.740168 105 105 103
-18.819193 -78.531303 24.758118 66 68 63
-16.809551 -78.579674 24.615458 78 85 78
-16.702791 -78.516174 24.676958 103 104 98
-16.457371 -78.559608 24.693439 100 102 101
-16.378201 -78.542473 24.769842 126 121 119
-15.833773 -78.593666 24.680014 115 111 110
-15.738015 -78.492912 24.692886 134 131 131
-15.506953 -78.48333 24.64539 133 128 127
-15.283822 -78.506203 24.671154 139 131 138
-23.684885 -78.36364 24.676319 164 152 153
-23.498007 -78.316505 24.698853 156 147 149
-23.313086 -78.285133 24.679794 144 138 139
-23.133375 -78.303925 24.642509 129 129 128
-22.891447 -78.326225 24.725559 147 145 143
-22.683912 -78.27887 24.706129 143 139 141
-22.520113 -78.300476 24.728754 160 148 150
-22.316025 -78.298386 24.706907 145 139 142
-20.832027 -78.338318 24.619019 151 145 139
-20.67992 -78.260719 24.681444 126 121 118
-20.501411 -78.31691 24.716261 130 127 129
-20.281858 -78.321716 24.678198 130 133 133
-20.073208 -78.306427 24.746912 132 132 130
-19.918037 -78.34333 24.772285 131 132 131
-19.727608 -78.362946 24.745068 86 92 89
-19.556314 -78.283684 24.74486 108 109 105
-17.224617 -78.280296 24.604431 170 165 162
-17.067146 -78.237198 24.713875 125 133 122
-16.608492 -78.348564 24.728283 133 135 130
-15.680392 -78.29126 24.712072 142 137 138
-15.525859 -78.288757 24.740032 138 133 134
-15.128466 -78.309776 24.696358 80 86 84
-23.637552 -78.186241 24.679377 149 146 145
-23.48037 -78.114975 24.702797 162 152 154
-23.372358 -78.102119 24.680975 165 155 156
-23.157307 -78.186913 24.606945 116 118 113
-22.654011 -78.105537 24.70491 152 142 142
-22.533285 -78.126511 24.705069 142 133 134
-22.301472 -78.1586 24.714436 124 119 122
-21.134737 -78.065163 24.688572 187 177 186
-20.888515 -78.088142 24.686045 145 137 138
-20.687855 -78.08107 24.708233 147 140 145
-20.487034 -78.100677 24.716982 136 135 137
-20.300663 -78.082092 24.709475 138 138 137
-20.087982 -78.098999 24.700748 132 136 131
-19.89633 -78.099113 24.74296 108 111 106
-19.725437 -78.043976 24.735058 89 91 90
-19.504936 -78.093132 24.78377 91 86 84
-18.164209 -78.048141 24.722326 79 85 83
-15.853375 -78.016655 24.758123 117 116 111
-15.680958 -78.066635 24.697926 142 137 136
-15.527917 -78.103905 24.693445 130 127 130
-15.327852 -78.055191 24.642632 110 116 114
-23.30835 -77.99044 24.605293 148 146 147
-22.676245 -77.997711 24.641808 82 82 82
-22.572262 -77.991692 24.667633 110 108 107
-20.917953 -77.954338 24.704287 134 123 125
-20.700644 -77.907227 24.714209 135 128 135
-20.504099 -77.873398 24.741652 136 130 133
-20.305187 -77.897224 24.727098 131 131 130
-20.115744 -77.910156 24.687166 126 128 121
-19.892513 -77.876984 24.682056 117 121 114
-19.709032 -77.892555 24.710085 123 124 119
-19.505108 -77.885757 24.742208 103 104 99
-18.883219 -77.851982 24.70339 80 86 84
-18.604692 -77.945175 24.788319 78 80 79
-18.515524 -77.821068 24.713709 103 106 106
-18.23539 -77.884964 24.780075 77 78 77
-18.103168 -77.919182 24.733814 92 94 92
-17.953352 -77.892319 24.768986 74 81 80
-16.071367 -77.808693 24.776047 120 121 118
-15.884064 -77.88829 24.700001 127 128 124
-15.690992 -77.890007 24.684303 153 151 153
-15.530721 -77.89975 24.676025 138 136 138
-15.369473 -77.943626 24.646019 103 109 107
-21.022636 -77.781265 24.715084 167 153 153
-20.632338 -77.736259 24.654127 145 134 134
-20.531521 -77.70018 24.734375 159 147 150
-20.319019 -77.683975 24.746368 165 158 158
-20.129412 -77.728134 24.742104 142 140 133
-19.898979 -77.709023 24.719784 128 128 122
-19.716574 -77.736343 24.764044 126 125 122
-19.534689 -77.752548 24.730749 125 122 118
-18.832108 -77.740677 24.793301 84 90 88
-18.748478 -77.670639 24.739832 117 122 117
-18.467684 -77.721436 24.70595 98 101 97
-18.116648 -77.757324 24.797508 90 92 92
-16.249903 -77.693771 24.7169 118 118 113
-16.082935 -77.690536 24.692539 126 127 122
-15.919458 -77.705727 24.684549 125 124 121
-15.690474 -77.717346 24.670338 148 144 147
-15.529621 -77.716454 24.668251 140 137 141
-20.700727 -77.581955 24.641516 121 123 120
-20.47941 -77.535934 24.754314 131 123 126
-20.300957 -77.516716 24.733246 145 138 138
-20.003439 -77.406868 24.737682 139 136 135
-19.900381 -77.524887 24.752951 159 156 155
-19.766829 -77.535728 24.75124 143 140 135
-19.062243 -77.491768 24.747351 91 95 94
-18.85198 -77.492073 24.760626 165 162 161
-18.744091 -77.493279 24.72928 155 152 150
-18.232147 -77.515587 24.720774 110 114 107
-18.132645 -77.489639 24.727591 112 116 111
-16.260019 -77.475174 24.752213 135 134 130
-16.087194 -77.496857 24.694923 129 130 123
-15.912261 -77.485466 24.698824 144 140 138
-15.719327 -77.484276 24.677952 134 131 132
-15.570953 -77.518692 24.624746 131 131 131
-20.439442 -77.226547 24.701307 124 123 127
-20.314451 -77.342705 24.760778 139 130 135
-20.063662 -77.331673 24.759413 121 122 118
-19.667364 -77.22525 24.780619 163 153 151
-19.080902 -77.302422 24.755934 133 134 131
-18.923149 -77.316193 24.736057 121 122 120
-18.77734 -77.346619 24.756205 124 122 121
-18.105053 -77.382751 24.61256 88 97 92
-16.683571 -77.209206 24.785873 82 71 79
-16.498714 -77.241425 24.755156 131 131 135
-16.253242 -77.307899 24.73629 133 128 129
-16.077595 -77.308517 24.717604 149 144 142
-15.888654 -77.314865 24.71154 143 136 135
-15.705352 -77.318336 24.71431 131 127 129
-15.569894 -77.330238 24.663254 109 107 106
-20.106159 -77.105263 24.725779 140 137 140
-19.896494 -77.088921 24.676367 127 123 126
-19.694803 -77.086349 24.736156 144 136 135
-19.5336 -77.080093 24.733971 163 154 147
-19.300297 -77.070374 24.788044 169 163 159
-19.07983 -77.099533 24.765951 136 137 130
-18.910688 -77.064957 24.741249 124 125 119
-18.770369 -77.172714 24.689228 134 133 128
-17.297583 -77.060753 24.738691 121 118 118
-17.078753 -77.050407 24.73992 135 131 136
-16.89185 -77.109001 24.762655 114 110 118
-16.79525 -77.148003 24.7983 136 129 137
-16.276789 -77.084099 24.721685 104 101 100
-16.110601 -77.100655 24.714766 131 124 125
-15.911128 -77.11586 24.736858 137 129 130
-15.726344 -77.087082 24.731544 111 109 109
-15.554158 -77.108322 24.652594 105 105 107
-19.860653 -76.949799 24.691437 110 108 109
-19.621479 -76.910957 24.797539 101 85 88
-19.494091 -76.889832 24.731958 118 114 109
-19.30596 -76.893555 24.724016 158 155 149
-19.114176 -76.914253 24.728621 151 143 139
-18.909193 -76.909096 24.718382 150 147 142
-18.733959 -76.896561 24.697554 155 148 145
-18.20215 -76.802956 24.781948 128 125 132
-17.828846 -76.817169 24.783112 134 125 131
-17.668659 -76.805534 24.796532 128 134 134
-17.25942 -76.874847 24.751595 137 132 129
-17.102474 -76.885712 24.719099 136 129 130
-16.943972 -76.856316 24.697226 123 117 115
-16.751495 -76.924171 24.678183 83 86 79
-16.511856 -76.969749 24.746748 136 137 139
-16.22389 -76.856674 24.769379 89 99 91
-16.069584 -76.935699 24.663811 123 117 115
-15.913916 -76.93441 24.69499 114 110 107
-15.732223 -76.949539 24.683052 113 112 109
-19.516954 -76.7425 24.723848 99 97 95
-19.251858 -76.740005 24.735836 135 129 117
-19.163729 -76.777191 24.659573 129 127 118
-18.893625 -76.67009 24.759329 111 114 104
-18.715429 -76.69548 24.734039 127 123 120
-18.589703 -76.714752 24.749437 105 98 102
-18.235565 -76.66272 24.747959 129 126 128
-18.1131 -76.735939 24.783693 151 143 147
-17.995127 -76.799774 24.758604 129 121 125
-17.680099 -76.710953 24.710373 131 129 131
-17.485435 -76.706734 24.724127 128 125 123
-17.307011 -76.719727 24.733097 120 119 115
-17.116276 -76.7005 24.691353 121 116 115
-16.940569 -76.749519 24.698267 130 123 122
-16.414354 -76.775276 24.692066 115 118 109
-19.229357 -76.538872 24.691248 91 95 81
-19.080093 -76.4916 24.719872 135 129 126
-18.915432 -76.4729 24.697971 120 114 110
-18.704256 -76.524696 24.703276 101 101 95
-18.54837 -76.52726 24.664255 100 102 100
-18.381239 -76.518715 24.684198 116 113 108
-17.564241 -76.584694 24.654764 147 145 132
-17.212591 -76.545631 24.773205 179 166 175
-17.043457 -76.594742 24.695217 112 111 113
-18.927977 -76.374725 24.688213 114 117 103
-18.742983 -76.383736 24.692524 72 72 72
-23.288818 -87.844437 24.838644 177 160 170
-23.643417 -87.602448 24.813543 100 101 103
-23.457262 -87.650726 24.957401 139 135 135
-23.243881 -87.685318 24.899908 160 149 152
-23.157919 -87.659966 24.999451 174 157 160
-23.645823 -87.4179 24.881916 104 107 107
-23.484856 -87.471283 24.902304 127 120 125
-23.335018 -87.504066 24.911053 147 137 137
-23.651636 -87.218887 24.89213 139 144 145
-23.582943 -87.374748 24.998856 170 151 155
-16.70533 -87.252518 24.96715 131 123 120
-23.700865 -87.143585 24.917557 98 102 102
-23.515669 -87.115173 24.901871 138 136 140
-23.354986 -87.066132 24.901123 143 140 141
-16.525537 -87.034325 24.847055 115 116 115
-23.445084 -86.938858 24.801842 166 147 150
-23.319901 -86.927277 24.887915 141 135 135
-16.683407 -86.858444 24.867683 130 125 121
-16.511137 -86.862396 24.866632 119 121 119
-16.378988 -86.866562 24.859318 102 107 108
-23.263964 -86.756065 24.911667 161 151 153
-23.1856 -86.658104 24.911057 155 146 145
-16.95208 -86.631958 24.824142 112 109 109
-16.611078 -86.725143 24.812304 112 114 113
-16.523609 -86.682793 24.885651 124 121 120
-16.38735 -86.710007 24.935791 105 96 95
-23.497412 -86.528336 24.83762 130 128 133
-23.24914 -86.465286 24.893757 123 125 126
-23.147905 -86.540642 24.916168 126 125 125
-22.769299 -86.446724 24.8783 106 101 108
-17.060642 -86.489708 24.888531 143 134 135
-16.919609 -86.48835 24.928286 117 113 116
-16.708361 -86.437531 24.843811 115 116 114
-16.534584 -86.4842 24.922318 129 126 122
-23.871769 -86.209343 24.829775 120 118 123
-23.607763 -86.228699 24.952522 90 95 93
-23.479092 -86.30703 24.93141 91 94 95
-23.268482 -86.310112 24.916142 116 117 118
-23.086802 -86.255814 24.911526 109 112 112
-22.886852 -86.335251 24.869787 108 107 111
-22.713968 -86.276558 24.900652 109 105 109
-22.504063 -86.261032 24.863977 120 119 121
-17.078569 -86.259537 24.918505 132 126 125
-16.894556 -86.317581 24.928818 132 127 127
-16.744669 -86.30883 24.888794 118 113 114
-16.471962 -86.292175 24.929567 117 120 112
-16.348169 -86.293106 24.879528 103 108 102
-25.109356 -86.083839 24.850292 92 91 93
-23.858917 -86.116631 24.849794 122 124 124
-23.704727 -86.080284 24.937525 99 102 106
-23.420221 -86.128181 24.896931 118 121 121
-23.332624 -86.120468 24.898037 118 120 119
-23.076124 -86.098953 24.867849 116 118 117
-22.897045 -86.04776 24.882355 133 127 128
-22.722189 -86.114212 24.899925 140 131 133
-22.518097 -86.123543 24.881197 135 131 131
-22.311831 -86.073639 24.884924 163 154 159
-22.138477 -86.045815 24.835556 147 141 145
-17.064842 -86.072533 24.89583 119 115 115
-16.903217 -86.106537 24.939613 131 126 125
-16.738628 -86.103577 24.939041 123 121 117
-16.59119 -86.053467 24.998745 135 131 130
-16.331375 -86.126945 24.898689 96 107 101
-23.830685 -85.944809 24.923004 113 114 107
-23.679628 -85.93 24.888885 109 108 110
-23.473673 -85.901421 24.902382 110 114 114
-23.332891 -85.924004 24.887074 123 124 124
-23.04524 -85.948936 24.843801 125 125 124
-22.877422 -85.878784 24.886768 146 139 141
-22.722065 -85.890846 24.883497 133 132 133
-22.502911 -85.878693 24.868879 126 124 127
-22.319328 -85.890129 24.877922 120 120 122
-22.139107 -85.930817 24.881493 138 138 141
-17.062889 -85.893822 24.900644 118 116 115
-16.931082 -85.88105 24.910458 131 128 126
-16.705799 -85.895027 24.909275 118 119 114
-16.513201 -85.873329 24.901346 95 96 94
-15.613523 -85.872337 24.86738 102 107 102
-15.515152 -85.878944 24.857771 87 91 88
-15.32007 -85.910927 24.874355 84 87 86
-15.161485 -85.926353 24.930288 86 88 88
-23.903925 -85.671204 24.891043 95 96 95
-23.682281 -85.696236 24.868509 121 120 124
-23.522947 -85.710121 24.875347 110 113 114
-23.314461 -85.725754 24.841896 118 125 122
-23.073126 -85.655128 24.847124 117 118 117
-22.875677 -85.768631 24.907793 129 124 124
-22.67588 -85.733276 24.882839 140 139 137
-22.46958 -85.735222 24.851065 113 112 113
-22.320673 -85.709274 24.895105 112 115 117
-17.245459 -85.678581 24.858561 94 93 91
-17.062536 -85.688721 24.896605 115 114 115
-16.891708 -85.713722 24.923101 120 121 118
-16.713287 -85.690918 24.913929 105 110 103
-16.509138 -85.710419 24.895735 99 103 97
-16.331539 -85.630409 24.961136 101 107 99
-15.658527 -85.712318 24.925253 100 107 103
-15.452027 -85.680153 24.870329 80 86 82
-15.280899 -85.708664 24.914175 89 97 93
-24.872931 -85.483398 24.929922 100 104 103
-24.774593 -85.56617 24.947296 85 90 93
-23.927187 -85.599113 24.906738 100 89 87
-23.682695 -85.518356 24.895321 109 107 108
-23.560696 -85.445618 24.950005 110 115 117
-23.269005 -85.528984 24.901571 112 116 117
-23.054161 -85.477203 24.879677 122 124 122
-22.92104 -85.467522 24.887072 127 125 122
-22.6649 -85.482864 24.824455 109 112 111
-22.458378 -85.535706 24.851433 67 76 78
-22.066402 -85.505524 24.812523 174 175 179
-17.077917 -85.516945 24.896933 100 102 103
-16.940462 -85.490906 24.901096 116 120 116
-16.701019 -85.499008 24.878729 92 96 95
-16.546665 -85.505745 24.896227 82 88 81
-16.36713 -85.475639 24.857998 93 100 95
-15.675129 -85.501541 24.982037 72 83 76
-15.450647 -85.514038 24.921658 67 74 69
-15.369286 -85.538956 24.899721 76 80 74
-24.823786 -85.372604 24.956818 82 88 90
-24.637152 -85.267883 24.916634 98 106 104
-24.547621 -85.220528 24.955858 79 85 82
-23.801098 -85.259293 24.807215 94 98 99
-23.714869 -85.244774 24.848932 105 103 106
-23.533545 -85.250793 24.902916 106 109 109
-23.281538 -85.283623 24.868866 110 106 108
-23.101778 -85.286324 24.931452 130 128 128
-22.907339 -85.284767 24.9196 131 132 130
-22.757439 -85.272942 24.886581 121 121 119
-22.434296 -85.297684 24.814756 106 111 114
-22.277061 -85.200783 24.836781 125 125 127
-21.947712 -85.337135 24.876663 113 121 123
-17.036476 -85.32122 24.936199 161 167 165
-16.900726 -85.293716 24.890722 85 85 87
-16.725227 -85.293022 24.899446 85 90 92
-16.527943 -85.30706 24.915546 90 98 90
-16.332844 -85.261017 24.902393 113 123 117
-16.161179 -85.210052 24.953289 111 109 103
-15.606587 -85.358467 24.960968 68 75 67
-15.501001 -85.355293 24.928211 66 76 69
-15.341713 -85.271606 24.984976 67 75 71
-25.68866 -85.05262 24.959503 95 98 101
-25.466129 -85.037231 24.897997 89 90 92
-25.283264 -85.029114 24.837643 91 98 94
-24.539946 -85.146416 24.94313 98 105 103
-24.345875 -85.077698 24.98694 71 72 76
-23.841232 -85.067757 24.931433 98 99 97
-23.677904 -85.075912 24.940788 99 103 103
-23.488237 -85.072723 24.9461 117 118 118
-23.281527 -85.122643 24.951517 129 127 128
-23.033062 -85.071548 24.92651 133 133 129
-22.911247 -85.121933 24.906937 135 134 130
-22.735788 -85.086143 24.861425 129 127 124
-22.483721 -85.100349 24.909174 147 140 145
-22.343468 -85.110718 24.839405 143 142 143
-17.424673 -85.025322 24.949718 113 106 113
-17.291983 -85.016731 24.808327 127 128 122
-17.012135 -85.046021 24.835052 116 117 119
-16.870214 -85.126297 24.83552 98 103 104
-16.724058 -85.102463 24.917589 100 106 105
-16.528688 -85.099899 24.900974 106 113 110
-16.309217 -85.120056 24.911957 102 106 102
-16.071356 -85.056252 24.92515 88 95 93
-15.941586 -85.063217 24.900167 82 91 87
-15.734646 -85.027512 24.938278 72 77 73
-26.5177 -84.829109 24.81757 91 99 98
-25.817371 -84.812714 24.832348 126 130 131
-25.746653 -84.863251 24.951681 87 89 90
-25.428375 -84.908577 24.86595 96 100 102
-25.310198 -84.898872 24.901075 85 90 91
-24.650778 -84.889931 24.918133 89 97 93
-24.560537 -84.8592 24.922136 87 94 89
-23.873857 -84.92057 24.983965 107 105 104
-23.746017 -84.954918 24.888664 99 100 98
-23.474777 -84.910034 24.944965 105 108 104
-23.289934 -84.929863 24.930904 120 119 117
-23.164986 -84.857544 24.998096 121 115 114
-22.886232 -84.925873 24.898617 128 126 125
-22.729279 -84.896004 24.891233 131 131 131
-22.581121 -84.814194 24.878441 152 152 155
-22.308189 -84.9086 24.840111 120 119 121
-22.125992 -84.804222 24.908985 136 136 136
-20.480099 -84.87812 24.814014 92 95 104
-20.258238 -84.887413 24.892345 178 168 178
-20.155766 -84.878006 24.905361 123 121 123
-17.505566 -84.864334 24.991713 139 132 139
-17.300097 -84.950249 24.912642 156 156 159
-16.869726 -84.910881 24.908791 105 110 109
-16.687639 -84.916382 24.907791 91 96 93
-16.426281 -84.83667 24.993692 142 148 142
-16.308887 -84.847656 24.926342 97 103 95
-16.099436 -84.931435 24.900276 89 99 90
-15.887597 -84.841515 24.957466 89 94 90
-15.721543 -84.941284 24.906002 60 64 64
-26.629137 -84.618912 24.839382 87 88 92
-26.309778 -84.672501 24.838694 102 109 104
-26.091074 -84.692909 24.903103 94 101 99
-25.964197 -84.641884 24.879879 102 108 109
-25.678185 -84.693062 24.907539 103 110 108
-25.483978 -84.652168 24.89831 103 109 106
-25.328209 -84.704102 24.899355 91 97 96
-25.147114 -84.683189 24.901888 92 98 96
-24.625572 -84.773842 24.972637 88 97 96
-24.476864 -84.707039 24.922045 95 100 97
-24.350782 -84.641327 24.857916 94 99 99
-24.122635 -84.665222 24.908632 98 101 99
-23.502888 -84.74894 24.887392 97 98 93
-23.302322 -84.723053 24.871058 120 121 120
-23.196264 -84.715935 24.991381 166 156 154
-22.839096 -84.778313 24.974173 143 141 141
-22.711153 -84.727013 24.906725 143 139 139
-22.554255 -84.708267 24.878008 127 129 130
-22.328047 -84.700508 24.863228 112 109 108
-22.102726 -84.696259 24.916637 89 93 92
-20.618671 -84.642296 24.857647 107 104 112
-20.476788 -84.662079 24.916931 166 160 168
-20.321493 -84.677223 24.947962 139 134 139
-20.151278 -84.679977 24.871117 131 129 131
-19.904755 -84.653931 24.85466 120 122 124
-19.755016 -84.617126 24.937893 158 154 152
-19.282593 -84.633018 24.905048 183 183 185
-18.933424 -84.612335 24.808712 69 74 80
-16.826626 -84.728531 24.891598 101 106 103
-16.773098 -84.674149 24.884258 105 107 102
-16.32415 -84.710068 24.898312 113 118 114
-16.109768 -84.722801 24.951197 86 94 88
-15.844069 -84.743492 24.968243 82 82 79
-26.604763 -84.589722 24.850906 98 102 105
-26.56172 -84.418884 24.949673 107 106 106
-26.268957 -84.501129 24.890345 117 121 119
-26.1376 -84.483498 24.891165 110 117 114
-25.881157 -84.488495 24.905851 99 102 104
-25.624954 -84.474586 24.881989 117 123 120
-25.481279 -84.502319 24.855358 103 106 106
-25.32345 -84.470085 24.926851 107 109 109
-25.055132 -84.561897 24.903687 99 101 101
-24.913399 -84.476456 24.858694 105 110 111
-24.423561 -84.550659 24.930431 108 115 113
-24.268976 -84.519241 24.891352 101 105 105
-24.124451 -84.52375 24.938875 98 102 101
-23.354858 -84.465332 24.902542 95 94 94
-23.071062 -84.461792 24.813143 102 100 105
-22.805927 -84.481659 24.826225 151 144 143
-22.69445 -84.493217 24.878113 124 120 119
-22.463795 -84.478882 24.916506 111 109 111
-22.337545 -84.54995 24.885342 125 126 125
-20.638247 -84.458748 24.870844 133 133 135
-20.491581 -84.496536 24.917896 147 142 146
-20.293495 -84.501396 24.882687 142 139 140
-20.11429 -84.528755 24.868311 121 122 122
-19.871984 -84.550362 24.851002 96 98 98
-19.740288 -84.459763 24.923506 161 151 149
-19.50457 -84.458656 24.884335 162 157 155
-19.307854 -84.445557 24.888388 162 155 156
-19.049316 -84.45517 24.852715 104 106 108
-18.878134 -84.473785 24.92453 89 92 94
-18.704327 -84.474335 24.833323 135 134 138
-17.480566 -84.40033 24.885027 127 132 127
-17.003002 -84.557686 24.906019 130 133 126
-16.895521 -84.531204 24.924845 102 104 98
-16.70006 -84.479034 24.939276 103 107 102
-16.274591 -84.510857 24.863235 87 88 83
-26.838581 -84.201653 24.827385 91 97 95
-26.617048 -84.211517 24.839798 109 114 115
-26.488445 -84.237259 24.918999 116 117 117
-26.253532 -84.333557 24.884651 116 119 116
-26.150602 -84.29184 24.890638 120 121 122
-25.909124 -84.286201 24.887236 123 125 125
-25.731308 -84.292809 24.893595 113 113 112
-25.487528 -84.303741 24.868685 110 111 114
-25.347351 -84.30262 24.886633 116 120 116
-25.097549 -84.268028 24.860023 97 94 100
-24.882507 -84.284904 24.873901 119 115 118
-24.74824 -84.248276 24.944939 83 77 79
-24.444761 -84.260513 24.90143 104 105 103
-24.300026 -84.288857 24.898317 95 96 94
-24.164896 -84.344505 24.907318 93 95 98
-23.918465 -84.253754 24.833603 101 102 104
-23.671785 -84.314865 24.872787 104 106 107
-23.514664 -84.29715 24.891418 94 95 98
-23.295624 -84.281151 24.908873 104 99 103
-23.150927 -84.244057 24.872864 104 102 103
-22.881746 -84.2612 24.914635 112 110 109
-22.707699 -84.307739 24.918329 120 120 120
-22.502703 -84.321701 24.853498 110 111 111
-22.399271 -84.321259 24.942217 102 103 98
-21.054869 -84.230949 24.942423 133 127 142
-20.834518 -84.360649 24.804886 113 97 108
-20.655144 -84.309715 24.858528 150 146 148
-20.523088 -84.289101 24.92346 150 146 150
-20.31048 -84.305328 24.900209 135 134 134
-20.116541 -84.291008 24.898226 174 160 167
-19.893507 -84.262634 24.900286 133 131 131
-19.705061 -84.301224 24.89979 140 136 131
-19.496126 -84.325974 24.929235 154 149 143
-19.310923 -84.314056 24.911364 144 138 136
-19.12307 -84.322578 24.898453 115 121 121
-18.928335 -84.315163 24.918182 116 120 122
-18.719767 -84.276314 24.904791 133 132 135
-18.48135 -84.30249 24.88205 95 95 98
-17.997053 -84.337585 24.917179 80 85 91
-17.471169 -84.347313 24.858946 125 126 123
-17.30435 -84.350449 24.876875 83 92 89
-16.925823 -84.352646 24.985868 93 103 94
-16.690031 -84.358971 24.935757 121 117 106
-16.506983 -84.313873 24.886957 101 99 92
-15.889754 -84.320839 24.845503 78 83 79
-15.742196 -84.299438 24.85895 77 83 77
-27.108494 -84.032761 24.924862 113 114 122
-26.980293 -84.136238 24.956631 115 118 123
-26.67938 -84.135201 24.890593 99 98 100
-26.499479 -84.096733 24.9063 108 110 109
-26.303268 -84.114479 24.896658 92 93 93
-26.070696 -84.185806 24.906845 230 210 219
-25.855919 -84.142799 24.969128 134 136 133
-25.688892 -84.169662 24.958256 132 129 127
-25.475168 -84.111382 24.909067 135 136 132
-25.33301 -84.072304 24.911459 135 138 135
-25.110785 -84.126747 24.865067 119 117 119
-24.943563 -84.137108 24.912117 111 107 108
-24.261641 -84.046783 24.883902 103 107 104
-24.0882 -84.067093 24.886782 99 100 97
-23.864843 -84.058266 24.916496 99 99 99
-23.723608 -84.070091 24.889389 101 105 107
-23.513365 -84.076897 24.919146 105 102 102
-23.27828 -84.108002 24.948708 115 108 109
-23.121988 -84.072929 24.923374 103 104 105
-22.872374 -84.092712 24.920485 118 116 115
-22.744608 -84.110107 24.892208 113 113 113
-21.2215 -84.033142 24.892715 153 155 170
-21.093292 -84.100075 24.886391 121 120 128
-20.882467 -84.093391 24.936401 143 143 152
-20.646801 -84.097511 24.856716 146 145 145
-20.501135 -84.111534 24.884769 137 137 137
-20.301594 -84.108795 24.914423 135 135 136
-20.17178 -84.112 24.906567 147 148 148
-19.726801 -84.162109 24.902952 129 125 122
-19.463459 -84.164688 24.9737 134 127 124
-19.327366 -84.139946 24.924162 127 126 123
-19.084469 -84.106934 24.883692 95 103 104
-18.887751 -84.094666 24.917091 114 120 119
-18.672878 -84.138496 24.899769 136 137 138
-18.485205 -84.082657 24.861324 131 132 135
-18.302258 -84.018555 24.935707 89 96 96
-17.648939 -84.02755 24.978365 189 189 181
-17.499134 -84.095695 24.92169 134 128 124
-17.335983 -84.049164 24.86462 111 106 99
-16.669041 -84.007843 24.837118 94 100 100
-16.367323 -84.021652 24.815418 96 98 93
-16.0562 -84.110542 24.955801 87 93 91
-15.93714 -84.104355 24.905628 91 94 91
-15.510497 -84.082405 24.935595 113 113 107
-27.472412 -83.909462 24.831644 129 123 133
-27.294233 -83.930519 24.824385 94 95 98
-27.150778 -83.877556 24.910364 100 95 103
-26.472338 -83.900146 24.899088 131 129 128
-26.275494 -83.903 24.880516 104 105 107
-26.143772 -83.8936 24.972927 110 111 115
-25.707287 -83.83683 24.88822 119 122 118
-25.506605 -83.90377 24.920828 123 127 121
-25.296177 -83.888725 24.905636 129 132 129
-25.105556 -83.915421 24.879879 120 120 120
-24.892862 -83.902084 24.906324 123 123 126
-24.675331 -83.876518 24.922289 123 127 129
-24.502634 -83.871056 24.903431 106 112 111
-24.307838 -83.902695 24.90287 107 113 111
-24.111925 -83.898575 24.923033 117 115 113
-23.885254 -83.919647 24.889566 103 103 102
-23.692165 -83.907379 24.899303 105 104 106
-23.493151 -83.921509 24.929745 120 117 117
-23.286732 -83.893227 24.915934 115 117 116
-23.10116 -83.92701 24.89723 115 117 116
-22.923027 -83.897308 24.90983 118 115 116
-22.70462 -83.846985 24.909828 122 120 122
-21.310139 -83.849617 24.901939 113 115 121
-21.101057 -83.920395 24.90951 147 142 147
-20.886267 -83.880951 24.920675 168 163 167
-20.725731 -83.890282 24.910095 141 141 143
-20.492176 -83.917877 24.865885 115 121 118
-20.282137 -83.908203 24.891304 129 130 130
-20.133383 -83.856834 24.966164 127 128 130
-19.028847 -83.967224 24.90736 97 109 110
-18.948242 -83.934311 24.957062 106 114 112
-18.66486 -83.909302 24.883615 158 159 161
-18.515387 -83.878311 24.903576 133 133 136
-18.305151 -83.863281 24.849453 107 108 110
-17.645931 -83.859009 24.884871 124 120 116
-17.518694 -83.880791 24.861832 93 94 89
-17.312349 -83.891457 24.890146 106 108 101
-16.807024 -83.967125 24.964134 64 66 63
-16.700716 -83.933517 24.850498 78 82 79
-16.483793 -83.904526 24.881218 88 93 88
-16.36409 -83.85276 24.855484 88 94 86
-16.028675 -83.955147 24.929562 90 95 88
-15.914981 -83.941566 24.902597 80 84 79
-15.681676 -83.924324 24.884039 96 102 97
-15.568957 -83.84375 24.895863 78 84 76
-27.942778 -83.645042 24.839775 118 110 108
-27.137671 -83.74839 24.930054 92 92 99
-26.870356 -83.683502 24.876482 105 105 111
-26.699331 -83.629417 24.948351 128 126 129
-26.500698 -83.674767 24.916483 127 126 128
-26.344507 -83.702141 24.934311 121 123 127
-26.082642 -83.70694 24.902435 103 103 102
-25.871351 -83.650337 24.88619 127 124 122
-25.700041 -83.703072 24.909229 125 127 124
-25.497908 -83.730507 24.866262 115 121 118
-25.288605 -83.711143 24.867765 127 129 128
-25.144836 -83.705017 24.916101 120 120 121
-24.867201 -83.693413 24.888304 130 129 131
-24.72266 -83.723618 24.929451 133 135 136
-24.508459 -83.711586 24.905708 122 125 125
-24.309053 -83.698341 24.947206 136 137 133
-24.085745 -83.701736 24.948523 141 136 135
-23.882147 -83.71714 24.898811 120 119 116
-23.695862 -83.717949 24.918423 119 119 115
-23.52424 -83.669586 24.905106 114 113 113
-23.293676 -83.690796 24.924953 123 122 120
-23.09712 -83.699364 24.908857 117 118 118
-22.918081 -83.694328 24.891573 120 116 119
-22.734789 -83.718521 24.920095 118 112 114
-22.593256 -83.789124 24.859844 99 99 99
-21.946836 -83.68631 24.841009 98 97 102
-21.24338 -83.695595 24.869667 127 129 137
-21.109125 -83.681023 24.883314 153 154 161
-20.934679 -83.674667 24.911198 132 134 139
-20.683096 -83.733704 24.926481 128 128 129
-20.490932 -83.674835 24.887766 123 123 122
-20.31505 -83.682922 24.889322 119 118 117
-20.167976 -83.745705 24.932648 143 144 145
-19.805626 -83.755753 24.890043 97 107 108
-19.751696 -83.796379 24.877819 99 108 105
-18.660236 -83.652603 24.918816 106 108 110
-18.49346 -83.711075 24.90374 115 117 118
-18.337568 -83.714432 24.90451 118 121 122
-18.168072 -83.716637 24.970837 122 124 126
-17.603996 -83.790283 24.898022 149 148 143
-17.486738 -83.691414 24.905914 111 113 105
-17.329422 -83.64785 24.891277 123 117 113
-17.159937 -83.717934 24.85482 143 140 132
-16.916279 -83.779854 24.875183 112 109 103
-16.6621 -83.756615 24.980696 82 86 84
-16.483866 -83.76696 24.89226 75 79 74
-16.312397 -83.679146 24.904636 76 82 76
-16.075516 -83.660812 24.929193 83 86 80
-15.920173 -83.67981 24.866859 88 91 86
-15.669007 -83.662773 24.872017 83 85 81
-15.494721 -83.686455 24.899979 72 71 67
-14.674915 -83.660828 24.870068 75 78 71
-28.368357 -83.418411 24.833826 120 118 117
-28.114819 -83.473305 24.865738 129 124 129
-27.904152 -83.573776 24.843517 133 131 132
-26.693918 -83.56041 24.836855 137 131 135
-26.49234 -83.530182 24.903021 123 123 124
-26.349632 -83.50769 24.896978 109 108 111
-25.900608 -83.54834 24.877857 125 125 123
-25.7267 -83.524788 24.885271 140 140 136
-25.448036 -83.544617 24.868481 103 106 105
-25.273733 -83.503281 24.914225 136 137 135
-25.186022 -83.491753 24.888939 93 96 95
-24.682415 -83.555237 24.871071 118 116 118
-24.489408 -83.495308 24.898075 138 132 129
-24.321226 -83.474854 24.896137 134 132 128
-24.123522 -83.467484 24.928936 145 138 136
-23.905241 -83.508408 24.917967 132 124 124
-23.701567 -83.481285 24.93297 138 132 128
-23.491184 -83.512665 24.89666 134 128 128
-23.304966 -83.508865 24.90925 132 130 129
-23.118771 -83.564568 24.875139 107 109 111
-22.910686 -83.554092 24.914955 132 129 132
-21.258406 -83.505852 24.824615 156 152 162
-21.082012 -83.478325 24.94779 146 143 145
-20.906481 -83.508797 24.924488 123 125 132
-20.736471 -83.459541 24.95594 139 145 147
-20.472034 -83.538681 24.928244 112 112 110
-20.364697 -83.511086 24.96652 128 131 130
-18.647688 -83.484322 24.945299 98 104 104
-18.496326 -83.481277 24.923336 120 120 120
-18.266613 -83.502434 24.883818 109 114 115
-18.152676 -83.515244 24.85227 111 115 114
-17.848597 -83.582291 24.936205 84 92 86
-17.481684 -83.508873 24.924835 105 105 97
-17.31402 -83.565369 24.879999 127 124 113
-17.143646 -83.546158 24.93795 103 95 89
-16.498009 -83.569771 24.910175 105 105 101
-16.20689 -83.582344 24.838303 92 92 94
-16.11894 -83.527245 24.862799 71 69 69
-15.889699 -83.494247 24.857834 71 70 71
-15.709267 -83.532524 24.869591 87 85 85
-15.266065 -83.439323 24.813379 110 106 105
-14.857056 -83.495705 24.962183 92 96 93
-14.693 -83.461632 24.866428 77 83 78
-14.453916 -83.432503 24.919968 85 91 85
-28.311325 -83.305923 24.847107 133 132 129
-28.080614 -83.255402 24.838943 108 112 110
-27.851009 -83.392532 24.907574 120 119 124
-26.457096 -83.308258 24.995537 117 116 124
-25.925131 -83.26918 24.822403 125 121 122
-25.753302 -83.326965 24.876366 116 120 116
-25.584558 -83.30304 24.975218 113 124 120
-24.499592 -83.388237 24.804247 106 102 99
-24.302807 -83.349815 24.879883 143 140 138
-24.076118 -83.323692 24.874537 137 129 129
-23.874434 -83.34874 24.877708 126 123 121
-23.693815 -83.346893 24.858477 118 118 113
-23.514599 -83.318871 24.907255 146 134 132
-23.303734 -83.315659 24.89464 133 131 131
-23.139034 -83.32692 24.886044 130 132 132
-21.279375 -83.308708 24.851252 102 102 110
-21.054825 -83.30867 24.886215 139 139 139
-20.910051 -83.293648 24.937698 134 136 135
-20.736115 -83.267853 24.995003 105 110 112
-20.44133 -83.364006 24.993698 98 102 101
-20.35837 -83.32 24.999828 109 112 110
-18.423435 -83.384422 24.850611 120 122 124
-18.32201 -83.341797 24.927727 99 104 106
-18.141094 -83.272362 24.985641 101 107 107
-17.631704 -83.366234 24.922941 142 128 121
-17.592226 -83.310379 24.995134 173 158 154
-17.313044 -83.32254 24.93858 116 113 105
-16.709316 -83.242096 24.924917 70 79 71
-16.306772 -83.34346 24.983528 65 75 67
-16.045029 -83.372429 24.91894 103 100 109
-15.794773 -83.344078 24.955515 72 68 65
-15.485413 -83.260887 24.93363 95 95 96
-15.29973 -83.252045 24.908236 89 91 86
-15.171452 -83.262611 24.880951 106 106 102
-14.937557 -83.274727 24.919325 82 84 77
-14.696074 -83.280571 24.88319 76 81 76
-14.528598 -83.295959 24.893948 75 82 76
-14.338143 -83.261131 24.911312 75 83 77
-28.098293 -83.011726 24.822773 144 142 147
-25.858757 -83.133759 24.87034 148 140 138
-25.761591 -83.098694 24.848642 134 126 123
-23.79644 -83.010185 24.83938 154 149 146
-23.166862 -83.131424 24.999657 146 145 150
-21.271648 -83.091057 24.852943 158 158 158
-21.079288 -83.122696 24.904284 145 145 146
-20.937687 -83.117218 24.920307 132 132 130
-20.73538 -83.039696 24.921614 119 124 123
-20.509451 -83.059875 24.931429 101 105 102
-20.340076 -83.012741 24.913708 95 101 97
-18.309864 -83.141388 24.928963 135 134 137
-17.561544 -83.106834 24.840338 54 64 53
-17.363388 -83.183556 24.983593 80 83 76
-16.658722 -83.099007 24.896961 75 76 75
-16.520094 -83.142677 24.967064 67 71 65
-15.926933 -83.15799 24.885847 98 98 102
-15.780876 -83.094948 24.872009 117 123 113
-15.504696 -83.167236 24.800428 92 91 96
-15.343122 -83.166252 24.873228 95 95 95
-14.839912 -83.149834 24.961239 87 95 87
-14.69218 -83.107025 24.883461 77 84 77
-14.502944 -83.129494 24.893509 75 82 76
-14.341284 -83.094093 24.90344 77 82 78
-27.474504 -82.887596 24.852619 128 122 125
-27.279379 -82.87841 24.917778 154 144 146
-27.163736 -82.805016 24.864393 147 140 141
-21.255413 -82.842804 24.890514 159 155 158
-21.118059 -82.894348 24.914486 127 127 129
-20.926218 -82.945427 24.867641 125 129 133
-20.687651 -82.873596 24.943207 118 124 124
-20.470692 -82.9552 24.878368 111 116 116
-20.320597 -82.96154 24.980968 110 111 110
-19.932217 -82.831375 24.953091 74 77 78
-19.37237 -82.904205 24.819466 66 76 78
-16.63892 -82.841873 24.974121 90 88 83
-16.531338 -82.863129 24.990063 90 92 87
-16.239676 -82.99855 24.894779 108 107 102
-16.092491 -82.915321 24.893686 72 79 72
-15.864854 -82.978767 24.827389 80 86 82
-15.528956 -82.905739 24.858717 112 112 108
-14.855283 -82.850113 24.83271 71 75 76
-14.714673 -82.907883 24.899612 72 80 73
-14.517712 -82.969269 24.914244 73 79 74
-14.309151 -82.891571 24.917568 91 96 90
-27.651882 -82.699219 24.854425 147 133 136
-27.472565 -82.64222 24.925451 163 147 148
-27.329489 -82.727531 24.91469 152 143 142
-27.112377 -82.685478 24.848673 143 137 138
-26.948418 -82.675735 24.836567 108 107 110
-26.787712 -82.729668 24.836149 112 112 112
-21.293665 -82.711388 24.831715 115 116 111
-21.063156 -82.716133 24.916931 126 129 126
-20.914589 -82.668526 24.910151 111 114 114
-20.707355 -82.634727 24.88909 112 115 114
-20.541538 -82.772217 24.943441 126 127 130
-19.863005 -82.710472 24.912394 82 88 88
-16.874454 -82.647018 24.956236 94 103 93
-16.726841 -82.683365 24.894646 88 93 86
-16.505159 -82.681732 24.935059 92 91 87
-16.3484 -82.606331 24.93243 86 86 81
-16.056437 -82.610931 24.962545 144 149 143
-15.823606 -82.760689 24.830349 105 110 105
-14.815535 -82.655136 24.918859 63 65 60
-14.723087 -82.725166 24.886749 83 90 82
-14.558917 -82.629585 24.807129 106 106 104
-14.278821 -82.650055 24.853668 75 80 76
-13.172542 -82.651115 24.953419 113 114 106
-27.633484 -82.445518 24.824099 151 136 143
-27.504446 -82.518799 24.91073 169 153 156
-27.318676 -82.515373 24.899057 158 148 149
-27.091743 -82.505074 24.878824 155 148 147
-26.88409 -82.499809 24.856863 128 126 124
-26.735662 -82.567024 24.865606 104 104 101
-24.538731 -82.579208 24.813223 171 157 161
-21.07482 -82.499748 24.868729 164 160 173
-20.870106 -82.565536 24.932793 126 130 133
-20.693544 -82.563889 24.885492 109 112 111
-20.518412 -82.492073 24.898508 92 97 95
-20.297373 -82.493172 24.894327 106 110 109
-20.154251 -82.495247 24.899885 116 116 116
-19.905884 -82.432159 24.910862 80 90 89
-19.79421 -82.40699 24.988834 63 71 73
-17.980146 -82.436821 24.844976 100 105 99
-17.554468 -82.452263 24.896656 68 77 76
-17.093691 -82.540054 24.868662 128 120 118
-16.916483 -82.427765 24.97184 103 101 105
-16.669653 -82.513519 24.93462 119 121 109
-16.483107 -82.513908 24.914246 93 97 89
-16.32539 -82.462555 24.886665 100 102 97
