ply
format ascii 1.0
comment PCL generated
element vertex 1105
property float x
property float y
property float z
property uchar red
property uchar green
property uchar blue
element face 0
element camera 0
property float view_px
property float view_py
property float view_pz
property float x_axisx
property float x_axisy
property float x_axisz
property float y_axisx
property float y_axisy
property float y_axisz
property float z_axisx
property float z_axisy
property float z_axisz
property float focal
property float scalex
property float scaley
property float centerx
property float centery
property int viewportx
property int viewporty
property float k1
property float k2
end_header
-126.96296 -120.37968 15.503901 134 145 144
-124.66793 -120.37001 15.417199 84 102 106
-124.13942 -120.24362 15.5739 62 71 80
-123.92482 -120.33379 15.564743 50 67 74
-129.70786 -120.11696 15.407694 82 97 98
-129.418 -120.10549 15.414358 117 126 136
-129.28477 -120.13119 15.542274 87 96 104
-129.1447 -120.06391 15.479659 96 108 108
-128.88684 -120.08023 15.510065 96 109 114
-128.69252 -120.07049 15.477364 90 104 111
-128.47963 -120.12206 15.493587 96 107 113
-128.28612 -120.17445 15.505871 112 124 129
-128.12918 -120.14777 15.500819 110 119 126
-129.86137 -119.82726 15.473423 105 114 128
-129.71725 -119.88927 15.47771 105 112 123
-129.5116 -119.91139 15.502465 91 104 114
-129.28838 -119.90629 15.47302 82 99 100
-129.11986 -119.89673 15.482014 95 108 113
-128.91789 -119.89393 15.467077 89 103 110
-128.74307 -119.92135 15.473193 92 106 115
-128.49829 -119.97911 15.485397 94 105 114
-127.92004 -119.85782 15.417005 96 103 111
-130.07771 -119.67521 15.466722 101 107 116
-129.87706 -119.69429 15.484318 116 124 137
-129.72108 -119.71194 15.52448 116 124 136
-129.48805 -119.72631 15.485539 89 104 108
-129.31903 -119.71246 15.492093 94 108 117
-129.09163 -119.71513 15.49898 101 112 123
-128.90695 -119.71624 15.5075 112 124 135
-128.73042 -119.69145 15.495503 106 117 126
-128.20752 -119.66347 15.446827 85 95 102
-128.08644 -119.72865 15.436272 99 106 113
-127.89965 -119.71032 15.528435 119 129 140
-127.68208 -119.6811 15.467056 110 117 125
-127.54098 -119.67332 15.505445 119 124 134
-130.27609 -119.4733 15.432191 108 120 132
-130.10439 -119.49757 15.441093 115 126 136
-129.89174 -119.50232 15.517372 111 120 130
-129.68707 -119.50379 15.500333 109 121 130
-129.5233 -119.5174 15.515279 104 117 126
-129.26564 -119.56824 15.530697 86 96 109
-129.05421 -119.52746 15.467418 114 123 134
-128.92984 -119.46431 15.455726 116 126 139
-128.73232 -119.5528 15.51156 92 100 112
-128.46933 -119.49104 15.456677 100 109 118
-128.29919 -119.46764 15.489284 118 125 134
-128.09727 -119.48363 15.466269 117 126 131
-127.89069 -119.50177 15.461713 115 122 126
-127.72472 -119.48891 15.473948 119 129 133
-127.54379 -119.51966 15.4858 124 133 139
-130.2726 -119.30199 15.45884 125 137 144
-130.08733 -119.31159 15.458037 109 118 127
-129.90501 -119.29787 15.45447 117 124 137
-129.71748 -119.31558 15.521403 112 119 134
-129.52998 -119.35984 15.509021 98 107 120
-129.07845 -119.31511 15.428055 114 120 134
-128.91521 -119.27273 15.491096 116 124 137
-128.72433 -119.27238 15.473775 116 125 138
-128.5002 -119.29192 15.483215 118 127 134
-128.28264 -119.32487 15.476889 111 120 125
-128.09222 -119.29688 15.477187 105 115 120
-127.91398 -119.28878 15.496772 95 108 114
-127.68633 -119.38783 15.581179 84 95 99
-127.53449 -119.20149 15.569876 113 126 135
-122.04761 -119.2296 15.490948 41 51 52
-130.44943 -119.06565 15.456102 102 112 123
-130.27763 -119.08161 15.450959 103 110 121
-130.10439 -119.08152 15.503716 112 116 129
-129.94478 -119.12862 15.502984 115 121 133
-129.72929 -119.08926 15.472417 96 107 117
-129.51318 -119.10544 15.476559 92 97 113
-129.35948 -119.06322 15.455267 96 104 117
-129.09508 -119.0739 15.463083 105 110 120
-128.89169 -119.07234 15.456157 117 124 134
-128.71352 -119.07519 15.461749 119 130 140
-128.50002 -119.08168 15.474123 114 124 134
-128.30705 -119.08096 15.490486 112 122 129
-128.12338 -119.10422 15.502945 95 107 110
-127.9995 -119.14221 15.4148 65 83 88
-127.65719 -119.1078 15.418581 121 135 143
-127.52882 -119.10255 15.455241 117 126 135
-127.39111 -119.06742 15.53309 82 98 104
-130.67488 -118.88728 15.431296 131 137 152
-130.48326 -118.86649 15.483873 120 126 139
-130.29704 -118.90802 15.488822 130 133 143
-130.15015 -118.88055 15.529756 111 120 130
-129.87941 -118.92747 15.427654 61 68 76
-129.70085 -118.92255 15.514087 88 93 100
-129.515 -118.82824 15.438999 109 109 117
-129.24817 -118.87385 15.452902 126 131 141
-129.08528 -118.88668 15.472685 125 129 142
-128.89746 -118.8953 15.496597 120 127 139
-128.70946 -118.90555 15.4992 128 137 146
-128.50804 -118.92316 15.500125 119 128 135
-128.31375 -118.89841 15.490771 110 119 127
-128.10089 -118.87561 15.480662 119 122 133
-127.93262 -118.84656 15.456734 108 113 120
-127.66708 -118.89378 15.445473 111 115 130
-127.50143 -118.88316 15.465529 130 135 148
-127.35696 -118.87511 15.50895 99 112 118
-130.94667 -118.6264 15.419096 132 141 158
-130.68544 -118.70409 15.467113 119 125 144
-130.511 -118.68108 15.465363 121 126 139
-130.31093 -118.71892 15.505212 103 108 119
-130.14607 -118.71703 15.499814 88 89 97
-129.42993 -118.70085 15.433033 129 136 150
-129.27167 -118.70965 15.461267 124 127 136
-129.07738 -118.71455 15.48349 127 130 142
-128.91859 -118.71393 15.488243 127 131 142
-128.69855 -118.68053 15.45859 123 128 137
-128.49429 -118.69757 15.479788 126 131 140
-128.28975 -118.72876 15.510847 129 132 142
-128.12032 -118.72689 15.504528 128 132 143
-127.96621 -118.77774 15.484772 117 120 131
-127.62022 -118.69705 15.453068 110 122 135
-127.51863 -118.71586 15.473085 108 117 130
-127.35677 -118.74398 15.543457 97 106 120
-127.09375 -118.75566 15.486152 76 89 98
-124.87014 -118.77428 15.594151 152 166 167
-130.88771 -118.56872 15.442161 130 136 152
-130.68684 -118.55899 15.457443 96 104 114
-130.51581 -118.56776 15.48391 113 116 128
-130.34613 -118.53732 15.55081 86 93 102
-129.86435 -118.50577 15.406652 135 139 151
-129.75354 -118.48692 15.458643 96 102 114
-129.43222 -118.56927 15.429552 83 91 104
-129.27988 -118.50265 15.505307 138 141 153
-129.08636 -118.5032 15.458747 137 139 152
-128.90833 -118.49946 15.503862 136 137 152
-128.70331 -118.52564 15.475522 114 120 132
-128.51341 -118.51172 15.474087 117 120 135
-128.27271 -118.556 15.472567 111 116 131
-128.12457 -118.51279 15.466807 107 115 130
-127.95534 -118.51304 15.495128 103 111 125
-127.48403 -118.56451 15.55517 117 131 144
-127.36596 -118.57232 15.576322 88 105 115
-124.89038 -118.44717 15.523014 121 138 134
-129.88351 -118.35148 15.438271 102 100 113
-129.72604 -118.23926 15.469188 110 118 131
-129.25888 -118.367 15.51256 132 130 140
-129.11351 -118.36491 15.537793 112 117 123
-128.89975 -118.39563 15.50284 117 118 131
-128.64587 -118.33599 15.428397 93 99 116
-128.52859 -118.37037 15.41104 118 127 144
-128.03174 -118.31637 15.481269 108 116 133
-127.88455 -118.367 15.597893 117 129 143
-124.77057 -118.34762 15.554565 102 118 108
-124.43056 -118.21303 15.579865 52 71 69
-124.06512 -118.35839 15.493831 60 84 84
-123.91151 -118.255 15.522319 65 82 82
-129.86412 -118.1368 15.5038 97 98 111
-129.68733 -118.06997 15.543715 69 78 89
-124.88263 -118.09139 15.526898 62 80 81
-124.79062 -118.10929 15.531998 96 114 114
-123.96711 -118.05106 15.480875 68 84 82
-123.79979 -118.08483 15.450495 79 93 93
-130.02049 -117.98339 15.480379 53 65 65
-129.9856 -117.94981 15.457164 59 70 76
-125.04259 -117.90862 15.51693 88 97 104
-124.94031 -117.89645 15.532236 125 140 137
-123.85146 -117.98556 15.522137 59 71 69
-122.65453 -117.90167 15.569202 59 78 77
-125.48572 -117.66808 15.477646 142 142 134
-125.02597 -117.61723 15.594666 89 103 103
-124.88609 -117.64465 15.515874 92 97 98
-123.62366 -117.67951 15.56008 68 88 86
-123.46139 -117.7393 15.516042 54 71 74
-123.32023 -117.64236 15.524719 54 71 74
-123.11794 -117.75964 15.584349 86 105 109
-122.93959 -117.72057 15.562616 54 73 73
-122.59789 -117.6428 15.546089 55 71 71
-125.6823 -117.48232 15.508604 146 140 140
-125.49993 -117.5104 15.534669 163 145 134
-125.2989 -117.49738 15.523488 168 156 144
-125.15305 -117.45494 15.512898 152 144 138
-124.89532 -117.52589 15.498239 119 115 114
-124.72807 -117.44028 15.502442 84 99 96
-124.1283 -117.40521 15.418178 102 120 122
-123.66767 -117.45443 15.591442 65 83 85
-123.5767 -117.5854 15.550799 64 81 83
-123.2834 -117.52935 15.590052 36 58 56
-123.11622 -117.56215 15.574295 69 88 94
-122.69965 -117.41711 15.523891 61 82 83
-122.52932 -117.55616 15.554667 74 92 92
-121.90854 -117.5209 15.587589 51 70 68
-125.84673 -117.36259 15.49033 218 175 167
-125.71238 -117.32735 15.535151 138 130 133
-125.47032 -117.28145 15.499242 136 120 112
-125.29053 -117.2666 15.524083 143 128 118
-125.11477 -117.31631 15.523602 130 122 115
-124.89563 -117.30533 15.516425 111 108 105
-124.74492 -117.28957 15.545005 99 103 101
-124.49014 -117.30783 15.502593 86 100 101
-124.29114 -117.24551 15.53681 74 88 91
-124.16264 -117.3401 15.575644 59 75 75
-123.52332 -117.31894 15.558975 63 82 83
-123.38249 -117.26326 15.564157 70 88 91
-125.82627 -117.08628 15.510748 135 120 121
-125.69289 -117.12208 15.542727 167 144 135
-125.48424 -117.11651 15.513227 124 109 108
-125.32873 -117.11386 15.527809 130 118 114
-125.12554 -117.12484 15.512114 123 116 117
-124.92671 -117.10863 15.534055 113 112 112
-124.75208 -117.14952 15.50427 87 90 94
-124.52151 -117.1311 15.533599 78 90 91
-124.26933 -117.1275 15.522469 92 105 106
-123.87116 -117.14236 15.535446 72 88 91
-123.33065 -117.2 15.597273 125 143 147
-121.88064 -117.19674 15.598166 58 72 71
-126.44991 -116.882 15.523966 81 57 53
-125.82943 -116.87016 15.476299 94 93 92
-125.67857 -116.92725 15.543177 139 123 120
-125.46848 -116.90825 15.484614 133 123 120
-125.28816 -116.87868 15.536423 118 111 112
-125.11137 -116.87679 15.499587 128 119 121
-124.90424 -116.83342 15.457569 90 94 89
-124.50842 -116.95756 15.549827 83 94 93
-124.23206 -116.98287 15.508831 94 103 110
-124.1563 -116.97794 15.545592 84 100 103
-123.3091 -116.91202 15.544357 67 76 80
-123.19852 -116.91576 15.586798 78 92 92
-125.94114 -116.62852 15.456581 72 67 73
-125.7027 -116.71567 15.490935 118 108 108
-125.49825 -116.74142 15.521424 109 106 106
-125.30534 -116.6637 15.5184 139 132 138
-125.15049 -116.69596 15.528177 141 130 133
-124.87117 -116.69283 15.559707 121 111 113
-124.73935 -116.69111 15.516917 106 104 104
-122.61729 -116.66253 15.490284 64 85 88
-125.67621 -116.54358 15.490737 120 100 106
-125.47899 -116.47512 15.512592 87 88 106
-125.23924 -116.5054 15.503833 125 116 117
-124.77773 -116.57244 15.5289 103 99 100
-122.08282 -116.58576 15.557472 69 77 79
-125.62856 -116.21588 15.457169 115 106 101
-125.48318 -116.27628 15.4909 160 146 155
-125.36269 -116.39827 15.493511 188 173 180
-125.63064 -116.09853 15.466666 151 133 142
-125.55374 -116.11511 15.530736 166 152 156
-125.28513 -116.04362 15.546076 135 117 119
-125.63348 -115.96091 15.534709 178 154 164
-125.49916 -115.88763 15.502155 158 148 153
-125.31866 -115.89601 15.540592 147 138 141
-125.14754 -115.93756 15.480914 205 190 195
-125.49076 -115.70343 15.531886 159 147 151
-125.34755 -115.73622 15.540925 158 137 146
-129.2612 -115.45432 15.477657 116 119 126
-125.81683 -115.44743 15.439361 170 149 152
-125.7115 -115.43755 15.466482 138 124 127
-125.52724 -115.48427 15.495191 163 150 156
-125.3504 -115.51692 15.543604 135 125 127
-129.69901 -115.29121 15.43828 97 100 105
-129.45091 -115.38589 15.565527 146 144 151
-129.28522 -115.34341 15.49422 111 113 118
-129.17621 -115.35226 15.547932 110 114 117
-126.02702 -115.23854 15.443512 179 167 171
-125.86491 -115.29079 15.498403 181 163 168
-125.67241 -115.28848 15.491161 151 144 144
-125.53012 -115.26814 15.519547 161 150 152
-129.73958 -115.1403 15.477715 69 74 80
-129.4989 -115.04527 15.498839 137 135 142
-129.28722 -115.12554 15.477597 160 154 161
-129.10789 -115.08176 15.485559 149 147 150
-128.87172 -115.04568 15.512212 123 125 136
-128.2859 -115.00396 15.469604 137 139 144
-126.24332 -115.04771 15.488176 171 150 164
-126.08414 -115.05005 15.47544 163 150 157
-125.88696 -115.09055 15.48175 157 149 153
-125.71424 -115.11488 15.512775 147 143 142
-125.49918 -115.08727 15.517327 129 127 124
-125.33466 -115.0769 15.494824 132 121 119
-124.97426 -115.00563 15.434124 110 115 108
-129.42043 -114.90267 15.459271 136 128 137
-129.28888 -114.89841 15.480593 148 145 152
-129.10159 -114.91996 15.483853 146 143 148
-128.88576 -114.89171 15.497564 150 149 155
-128.77814 -114.91059 15.452244 153 140 142
-128.53464 -114.85905 15.455179 128 131 137
-128.26071 -114.87091 15.504623 131 137 144
-126.22058 -114.90591 15.484403 162 145 155
-126.117 -114.89564 15.542196 163 151 157
-125.88712 -114.91482 15.518649 153 147 147
-125.69973 -114.89444 15.528215 134 135 132
-125.5044 -114.91074 15.493878 108 114 108
-125.30426 -114.93659 15.485619 129 126 122
-125.11285 -114.90347 15.518188 114 112 107
-124.93784 -114.93806 15.433461 111 112 106
-129.81213 -114.63945 15.507526 75 79 91
-129.78609 -114.65527 15.458261 78 81 96
-129.26396 -114.73047 15.512723 132 129 136
-129.12152 -114.71765 15.473304 136 137 144
-128.91757 -114.75021 15.500799 147 144 153
-128.65468 -114.6806 15.40276 100 105 111
-128.48331 -114.72144 15.494576 105 112 117
-128.30846 -114.74432 15.493408 122 126 134
-126.20601 -114.78406 15.54936 193 177 182
-126.10194 -114.72745 15.523314 162 156 160
-125.89901 -114.68694 15.501437 127 128 130
-125.71914 -114.70086 15.486014 128 131 129
-125.50765 -114.73006 15.451172 110 115 111
-125.28051 -114.72257 15.550285 103 110 105
-125.13492 -114.68289 15.510351 106 108 105
-124.91768 -114.69747 15.509163 150 142 137
-129.83612 -114.5956 15.484426 108 108 120
-129.25864 -114.48716 15.449503 158 156 164
-129.08707 -114.47111 15.497141 149 147 154
-128.89983 -114.48331 15.447659 151 140 143
-128.62543 -114.48207 15.531197 113 112 116
-128.54918 -114.49998 15.469113 118 118 125
-125.9193 -114.55103 15.522109 129 129 134
-125.67223 -114.53078 15.52471 140 136 138
-125.49459 -114.48727 15.523773 139 130 132
-125.29868 -114.44802 15.541801 138 133 131
-125.13723 -114.45485 15.509842 139 132 130
-124.97449 -114.46343 15.549679 154 150 142
-122.96539 -114.46576 15.593758 105 110 103
-129.06662 -114.32893 15.438671 141 137 145
-128.88214 -114.33287 15.456079 138 133 139
-128.72247 -114.32343 15.475718 129 125 130
-128.56259 -114.31316 15.436105 121 122 121
-128.34439 -114.20285 15.533684 116 121 120
-125.81699 -114.38286 15.576836 135 129 133
-125.65358 -114.32679 15.446028 185 167 174
-125.52594 -114.30349 15.485874 171 155 156
-125.27541 -114.31892 15.533583 155 151 143
-125.07463 -114.33087 15.539907 139 135 126
-124.17832 -114.24731 15.518282 67 76 71
-123.65777 -114.26856 15.508088 67 73 67
-123.52689 -114.32477 15.492131 66 72 67
-123.29218 -114.25865 15.477631 71 75 70
-129.22517 -114.0012 15.42618 153 152 168
-129.02307 -114.05753 15.410023 152 151 147
-128.62788 -114.01965 15.445575 137 133 136
-128.47353 -114.10522 15.523759 105 109 108
-128.2943 -114.07367 15.488883 110 118 116
-127.82339 -114.09657 15.41963 88 91 96
-127.77684 -114.13307 15.471401 102 109 110
-125.80057 -114.16323 15.544108 79 78 84
-125.48465 -114.15245 15.488113 197 174 180
-125.3652 -114.07504 15.463895 196 175 182
-124.25658 -114.12558 15.412717 77 88 78
-124.16995 -114.13612 15.508368 72 83 75
-123.80578 -114.14429 15.51108 83 96 86
-123.63537 -114.10859 15.511514 77 85 76
-123.49599 -114.08825 15.465379 91 96 87
-123.35339 -114.13848 15.536065 79 86 75
-123.16251 -114.04423 15.567274 165 164 159
-129.21051 -113.96329 15.475763 128 115 132
-129.08424 -113.91214 15.453406 149 142 147
-128.93355 -113.87614 15.482561 136 133 134
-128.69521 -113.87077 15.441504 131 127 124
-128.51997 -113.93687 15.436432 118 121 122
-128.3092 -113.91008 15.471903 101 108 109
-128.12999 -113.96496 15.446365 80 92 90
-127.89836 -113.87581 15.471509 102 107 111
-127.73562 -113.94772 15.426779 73 83 84
-127.58899 -113.94222 15.490416 84 93 98
-125.42188 -113.88163 15.476939 169 157 160
-125.35822 -113.90379 15.506968 164 151 154
-125.19911 -113.80051 15.575251 175 149 153
-124.26254 -113.91518 15.503433 73 82 73
-124.14636 -113.90793 15.49763 101 107 99
-123.87702 -113.86977 15.479647 96 102 96
-123.69498 -113.91864 15.489614 77 84 75
-123.52349 -113.87245 15.492891 78 84 76
-123.31611 -113.87203 15.495968 97 101 95
-123.12917 -113.9039 15.493055 95 100 91
-122.86406 -113.83537 15.536757 53 59 47
-129.4213 -113.61666 15.446734 166 159 169
-129.28073 -113.62985 15.468737 165 159 155
-129.07964 -113.67121 15.444302 150 143 145
-128.91583 -113.71372 15.476694 136 132 130
-128.77171 -113.61395 15.46014 135 133 136
-128.14644 -113.67637 15.510409 105 111 113
-127.94221 -113.70079 15.482996 88 97 101
-127.55422 -113.76797 15.407824 74 83 88
-125.41131 -113.78875 15.505543 176 168 174
-125.31019 -113.69715 15.481101 155 150 154
-125.125 -113.70347 15.502515 171 159 159
-124.87844 -113.66348 15.495233 109 115 112
-124.6981 -113.69176 15.505791 102 107 102
-124.52674 -113.68415 15.479589 120 119 116
-124.26524 -113.72517 15.53805 76 85 77
-124.12437 -113.71416 15.514559 101 108 99
-123.89825 -113.72057 15.526275 106 108 104
-123.7002 -113.69513 15.503649 90 95 88
-123.51747 -113.6684 15.533142 92 90 85
-123.36543 -113.78142 15.553136 75 85 76
-123.1116 -113.72554 15.557393 67 73 66
-122.94457 -113.67205 15.526347 61 72 63
-122.6642 -113.72689 15.592755 113 119 109
-129.45586 -113.515 15.464215 166 159 171
-129.30019 -113.51681 15.520492 152 144 144
-129.08949 -113.54564 15.519473 155 147 145
-128.93446 -113.5055 15.483327 134 130 129
-128.66142 -113.52445 15.432363 126 128 130
-128.59259 -113.54443 15.461197 117 118 121
-128.27937 -113.53848 15.475904 95 101 103
-128.11621 -113.5656 15.499793 80 91 93
-127.99877 -113.58637 15.436872 90 97 102
-125.06783 -113.50318 15.504226 143 141 145
-124.88654 -113.49348 15.54417 122 123 119
-124.70445 -113.53821 15.562808 111 116 111
-124.48457 -113.50657 15.583609 112 117 110
-124.27888 -113.50171 15.556053 88 96 87
-124.09991 -113.4958 15.507715 85 95 85
-123.8827 -113.53694 15.502854 89 96 88
-123.69601 -113.47943 15.511973 109 113 108
-123.54485 -113.51103 15.515657 118 118 112
-122.96554 -113.59227 15.599014 70 82 72
-122.71352 -113.53269 15.524906 49 54 48
-122.50603 -113.46863 15.551869 80 88 81
-129.64372 -113.28191 15.450548 113 105 118
-129.49594 -113.32339 15.4887 140 133 139
-129.3092 -113.32152 15.504301 159 152 153
-129.13461 -113.26468 15.530557 164 154 155
-128.92377 -113.32631 15.487862 125 124 124
-128.72717 -113.37383 15.437752 125 126 127
-128.09308 -113.2613 15.456553 93 92 102
-127.95502 -113.22026 15.463823 106 108 115
-125.0438 -113.3342 15.498912 163 151 156
-124.867 -113.349 15.52181 152 148 146
-124.7481 -113.33532 15.55237 116 121 118
-124.28431 -113.31189 15.531702 97 103 95
-124.08621 -113.29674 15.513371 84 94 84
-123.95051 -113.25504 15.522881 84 95 85
-123.66748 -113.30154 15.507723 101 108 103
-123.5663 -113.28228 15.524429 120 124 119
-123.34135 -113.23049 15.58817 89 92 85
-122.67336 -113.26846 15.551292 53 63 54
-122.56763 -113.28167 15.547827 64 74 66
-129.25865 -113.0994 15.459335 136 136 139
-129.08691 -113.08883 15.485295 155 148 148
-128.89725 -113.09562 15.490495 128 125 127
-128.72099 -113.09472 15.490137 127 127 130
-128.48312 -113.06913 15.473851 120 117 125
-128.33615 -113.06712 15.484358 119 121 125
-128.09351 -113.07853 15.522255 112 114 121
-127.95448 -113.07067 15.477181 94 100 105
-127.72101 -113.08475 15.493743 93 94 98
-125.06944 -113.10095 15.536215 158 148 154
-124.93348 -113.08906 15.525373 167 155 157
-124.79293 -113.13326 15.584767 174 158 158
-124.45613 -113.06483 15.512501 117 120 115
-124.29236 -113.10412 15.516766 115 121 114
-124.09706 -113.07826 15.523759 93 101 94
-123.92551 -113.11541 15.559474 103 113 106
-123.68738 -113.10793 15.5283 110 115 113
-123.53948 -113.11206 15.518553 104 108 104
-123.31875 -113.02423 15.58452 85 84 79
-122.72401 -113.10961 15.579144 67 75 66
-122.48621 -113.11107 15.523921 116 121 115
-129.87732 -112.85458 15.430187 134 123 136
-129.26501 -112.90442 15.479645 145 142 146
-129.08391 -112.91302 15.485783 142 140 141
-128.88713 -112.93703 15.475227 132 126 127
-128.71819 -112.87629 15.489952 129 128 130
-128.46834 -112.91125 15.484706 130 128 134
-128.27933 -112.8899 15.529071 106 109 113
-128.12567 -112.90173 15.524384 106 110 117
-127.86569 -112.9346 15.462202 105 104 109
-127.6875 -112.91714 15.44157 126 127 132
-124.89625 -112.8966 15.516002 180 165 173
-124.67947 -112.86168 15.553412 163 152 153
-124.45595 -112.89387 15.527755 125 128 124
-124.32943 -112.90215 15.51862 115 120 115
-124.14194 -112.91275 15.548081 111 118 115
-123.84271 -112.89456 15.547174 142 146 146
-123.70365 -112.87637 15.476735 131 121 120
-123.52774 -112.93305 15.471647 167 156 155
-123.31383 -112.90155 15.572941 114 116 107
-123.16263 -112.80253 15.489204 114 116 105
-122.6991 -112.86512 15.536632 70 76 70
-122.5604 -112.88821 15.490144 110 113 107
-122.01725 -112.92122 15.589918 99 99 97
-129.83679 -112.67987 15.415894 171 163 176
-129.6568 -112.7119 15.496435 148 141 152
-129.50516 -112.71616 15.499834 144 139 146
-129.29395 -112.68171 15.498269 127 126 133
-129.08574 -112.71085 15.476433 137 132 137
-128.89636 -112.68486 15.499215 140 139 142
-128.70828 -112.70187 15.509565 112 115 116
-128.51263 -112.70133 15.49677 108 110 116
-128.29597 -112.70712 15.543209 98 104 112
-128.10809 -112.70345 15.507775 113 115 125
-127.6852 -112.79911 15.439634 86 86 96
-124.84441 -112.78634 15.510266 119 113 122
-124.70864 -112.7213 15.515959 135 129 136
-124.52924 -112.69418 15.504517 152 147 150
-124.2859 -112.71664 15.507548 122 124 123
-124.11961 -112.74027 15.555998 106 112 110
-123.84349 -112.68373 15.501295 172 154 152
-123.73096 -112.71249 15.525324 165 152 147
-123.13126 -112.75656 15.549681 137 124 115
-122.6918 -112.68887 15.55052 82 92 83
-122.53749 -112.74074 15.561618 98 102 95
-122.20584 -112.71586 15.562523 104 99 96
-122.05281 -112.67487 15.506338 90 104 95
-121.9205 -112.7504 15.557743 97 103 96
-121.71011 -112.71966 15.59767 71 79 71
-121.39486 -112.72517 15.58199 77 90 81
-129.23734 -112.42666 15.481604 135 131 139
-129.08955 -112.53246 15.47055 130 129 135
-128.93005 -112.50998 15.502412 123 122 127
-128.73289 -112.53011 15.46561 98 102 106
-128.23161 -112.59146 15.45887 98 96 106
-128.16028 -112.59989 15.452338 92 89 98
-127.96419 -112.55135 15.495186 92 91 101
-124.44623 -112.57301 15.507981 164 150 156
-124.31107 -112.54273 15.54849 145 138 142
-123.8692 -112.48622 15.50497 158 141 144
-123.75067 -112.5302 15.515763 163 147 141
-122.67321 -112.51834 15.526366 83 91 83
-122.52094 -112.50493 15.527908 76 85 79
-122.37475 -112.42552 15.533432 63 71 65
-122.10929 -112.50829 15.538948 89 100 91
-121.97622 -112.49906 15.584458 97 104 97
-129.76199 -112.27975 15.451292 99 102 106
-129.45485 -112.28202 15.546103 135 128 138
-129.32639 -112.35593 15.418269 116 114 126
-129.10713 -112.30293 15.501983 133 129 138
-128.90813 -112.27789 15.450095 120 117 125
-128.76247 -112.26784 15.478788 111 111 119
-123.8532 -112.30319 15.506356 183 160 166
-123.76096 -112.22845 15.49392 157 143 148
-122.71179 -112.35681 15.581542 88 94 86
-122.51746 -112.32141 15.520042 108 113 106
-122.30344 -112.29736 15.566224 78 85 77
-122.13071 -112.27032 15.501549 99 109 99
-121.95493 -112.29563 15.593369 81 83 78
-129.42752 -112.04237 15.479176 126 116 131
-129.27675 -112.11295 15.492751 125 120 128
-129.07153 -112.13902 15.448451 114 108 116
-128.92654 -112.13953 15.460152 121 118 125
-128.55614 -112.05591 15.406141 113 112 120
-123.879 -112.18761 15.517417 177 160 168
-123.69324 -112.10646 15.489929 167 152 155
-122.41348 -112.18033 15.545492 94 96 90
-122.28966 -112.05571 15.581449 75 82 74
-122.07481 -112.13981 15.435532 93 93 81
-129.71799 -111.93137 15.418429 139 134 147
-129.47218 -111.87968 15.442225 142 133 145
-129.29558 -111.9035 15.526683 143 136 146
-129.14494 -111.91579 15.488317 120 119 125
-123.6291 -111.95278 15.487001 189 168 173
-123.522 -111.84052 15.514366 153 143 145
-123.39187 -111.84644 15.438629 186 176 175
-123.0346 -111.81985 15.548534 116 112 113
-122.94331 -111.80852 15.515341 120 116 113
-129.28946 -111.67506 15.45734 126 119 128
-123.31871 -111.69271 15.53038 89 90 88
-123.06013 -111.6924 15.484781 98 100 99
-122.95432 -111.75677 15.555897 131 128 126
-122.24008 -111.76753 15.53479 74 75 69
-122.16845 -111.61887 15.587338 85 86 83
-121.90736 -111.78022 15.500959 99 104 97
-123.20256 -111.59615 15.55552 127 119 116
-123.04964 -111.49449 15.532063 137 132 130
-122.91733 -111.47826 15.549962 152 146 144
-122.74948 -111.41737 15.54064 124 108 108
-122.20272 -111.4525 15.560797 105 103 99
-122.11644 -111.45913 15.527948 110 110 107
-123.47648 -111.37589 15.560266 109 117 114
-123.04195 -111.33833 15.494211 133 119 122
-122.92148 -111.33094 15.52412 122 116 117
-122.76717 -111.29781 15.533322 109 104 106
-122.51297 -111.33522 15.555452 104 103 102
-122.2664 -111.33136 15.550823 83 82 81
-122.1628 -111.38951 15.541735 134 129 126
-121.53339 -111.30878 15.584126 148 138 138
-123.76054 -111.0831 15.469963 142 137 133
-122.62069 -111.02602 15.567997 96 95 94
-122.57215 -111.03132 15.559065 73 73 70
-124.04807 -110.8484 15.505758 141 133 139
-123.91587 -110.87774 15.519001 142 129 134
-123.68673 -110.88604 15.516746 116 110 112
-123.51342 -110.85071 15.498633 81 81 81
-123.30486 -110.84882 15.5555 141 137 136
-123.09001 -110.88865 15.5413 105 102 100
-122.87293 -110.83878 15.498374 112 110 110
-122.68925 -110.94956 15.57374 99 96 93
-122.41788 -110.90914 15.58312 96 100 96
-122.34212 -110.9189 15.563456 90 90 88
-122.06924 -110.89841 15.599389 164 153 151
-121.72657 -110.84793 15.560663 146 142 141
-124.21722 -110.63737 15.528693 164 148 156
-124.09935 -110.71902 15.520949 143 132 138
-123.88603 -110.74249 15.555621 114 106 109
-123.6771 -110.66508 15.554177 97 96 97
-123.51643 -110.7142 15.52972 115 110 110
-123.31171 -110.74283 15.483284 126 119 115
-123.00791 -110.68607 15.581966 74 79 72
-122.94155 -110.77885 15.565841 76 78 75
-122.78517 -110.74707 15.513094 97 96 91
-122.54246 -110.71689 15.571047 127 123 120
-124.21539 -110.54858 15.476754 144 134 138
-124.12437 -110.49307 15.521148 130 126 129
-123.86317 -110.50964 15.513065 90 90 89
-123.66761 -110.48557 15.517102 110 106 107
-123.52186 -110.5133 15.504684 99 98 96
-123.37395 -110.58414 15.52647 92 94 89
-122.84722 -110.52901 15.566462 96 98 94
-122.73363 -110.53291 15.546703 161 157 154
-124.2356 -110.27703 15.46838 135 128 132
-124.08506 -110.30621 15.511062 120 115 118
-123.89983 -110.29948 15.505067 98 96 96
-123.7063 -110.31896 15.534083 126 118 120
-122.92464 -110.29209 15.520871 129 125 122
-124.07438 -110.14788 15.485058 121 115 118
-123.90264 -110.09964 15.539926 111 105 110
-123.6721 -110.05991 15.497326 124 119 123
-123.58723 -110.10565 15.467459 118 114 113
-123.0753 -110.11961 15.52079 76 78 74
-122.94755 -110.12755 15.521437 137 139 136
-121.50215 -110.04332 15.57482 99 100 101
-125.62427 -109.87774 15.451587 185 172 170
-125.52619 -109.8504 15.49774 184 170 174
-125.30334 -109.89024 15.476895 142 138 135
-125.02057 -109.89912 15.486946 172 154 150
-124.97439 -109.85098 15.512168 165 152 145
-124.26795 -109.83418 15.485688 132 127 131
-124.09617 -109.84412 15.503655 125 120 123
-123.90643 -109.88916 15.509768 132 126 129
-123.7103 -109.93323 15.461578 111 107 109
-121.56635 -109.84666 15.59938 67 69 73
-125.66194 -109.70302 15.461351 188 174 184
-125.48148 -109.71234 15.488388 164 153 154
-125.30257 -109.72184 15.492778 156 148 146
-125.07735 -109.6693 15.511076 174 163 161
-124.9017 -109.70528 15.494849 148 139 131
-124.27332 -109.69494 15.50822 122 118 120
-124.11877 -109.75572 15.516447 121 113 115
-123.99394 -109.69277 15.595228 114 110 104
-121.52278 -109.64695 15.580921 78 82 83
-125.41747 -109.52743 15.493122 191 176 177
-125.31708 -109.4932 15.515491 189 173 172
-125.11163 -109.48566 15.502201 148 144 138
-124.88841 -109.50425 15.496851 152 146 137
-124.75552 -109.49191 15.443825 128 127 117
-124.42075 -109.49249 15.422976 126 123 124
-124.26643 -109.50183 15.470759 124 119 122
-124.16563 -109.45994 15.501299 91 91 90
-123.92924 -109.43546 15.579448 95 100 96
-121.19327 -109.56057 15.587004 95 94 89
-125.42345 -109.23483 15.545103 153 149 146
-125.297 -109.2805 15.532081 151 143 138
-125.091 -109.28996 15.494948 135 134 124
-124.89991 -109.31041 15.476691 149 145 138
-124.7207 -109.29561 15.454802 162 153 146
-124.57664 -109.24323 15.443547 78 79 80
-124.28037 -109.281 15.427207 107 103 105
-124.14423 -109.28758 15.492122 113 110 107
-123.85774 -109.33626 15.497622 68 74 74
-121.91188 -109.20033 15.547873 95 93 98
-126.45315 -109.13338 15.463376 132 126 125
-126.34666 -109.08189 15.496481 144 132 134
-125.4277 -109.11496 15.494102 170 156 157
-125.30167 -109.11979 15.494085 144 142 137
-125.09717 -109.13169 15.46507 139 137 128
-124.97577 -109.08082 15.43233 123 124 113
-124.71191 -109.12289 15.443973 131 131 124
-124.53233 -109.08757 15.47173 121 119 116
-124.32087 -109.09064 15.500959 135 134 134
-124.16292 -109.15054 15.464043 123 121 119
-122.91147 -109.11584 15.552768 73 74 76
-122.71904 -109.03931 15.558824 69 71 71
-121.92117 -109.14718 15.575418 94 84 92
-125.41787 -108.80975 15.401556 104 112 101
-125.38776 -108.90361 15.460376 158 166 155
-125.07455 -108.885 15.516727 157 149 144
-124.86651 -108.86477 15.503914 144 143 136
-124.71554 -108.84898 15.491763 123 124 121
-124.49421 -108.93201 15.473216 136 132 132
-124.38795 -108.86231 15.438542 112 114 115
-123.28587 -108.87642 15.546524 90 89 90
-122.79848 -108.94035 15.592688 83 74 79
-126.71442 -108.61237 15.506493 192 171 180
-125.41747 -108.631 15.59723 129 132 125
-125.25397 -108.64802 15.507499 191 176 175
-125.16288 -108.7282 15.512612 195 177 176
-124.87857 -108.75082 15.514049 152 145 142
-124.69599 -108.72202 15.530445 122 122 118
-124.44908 -108.69832 15.503972 144 139 142
-121.67352 -108.65975 15.591406 88 89 87
-126.55447 -108.44151 15.429287 183 171 178
-125.4228 -108.50237 15.490504 134 136 129
-125.30911 -108.50851 15.512743 172 166 161
-124.88278 -108.44585 15.563887 118 124 118
-124.70004 -108.52229 15.514321 127 127 124
-124.50889 -108.47504 15.477981 124 115 119
-124.38059 -108.51665 15.432085 177 172 169
-125.60837 -108.22984 15.537178 162 160 154
-125.57684 -108.23107 15.503784 126 132 122
-125.30813 -108.32485 15.497993 171 166 161
-125.05871 -108.28053 15.539645 110 116 109
-124.92205 -108.298 15.478067 115 121 112
-124.70361 -108.31483 15.499144 145 141 137
-124.54518 -108.29366 15.532227 132 128 128
-124.35271 -108.34452 15.560518 118 119 124
-125.6324 -108.08687 15.517499 180 171 168
-125.52644 -108.09023 15.492096 147 144 138
-125.36502 -108.09488 15.503974 168 157 154
-125.05354 -108.11929 15.5053 105 111 102
-124.96491 -108.16594 15.43845 110 113 106
-124.67124 -108.09138 15.513361 170 158 157
-124.48237 -108.103 15.529809 118 117 119
-124.32672 -108.11504 15.49647 138 133 133
-125.65784 -107.93628 15.494918 186 180 174
-125.43301 -107.89862 15.525452 134 132 124
-125.33348 -107.8917 15.524714 143 135 129
-125.08323 -107.85943 15.515578 126 128 123
-124.66153 -107.90336 15.498208 113 114 115
-124.49352 -107.90629 15.521024 94 99 100
-124.34953 -107.85098 15.501988 87 89 90
-123.50366 -107.83707 15.518171 156 153 153
-125.85095 -107.74774 15.472208 190 184 181
-125.40227 -107.77477 15.477646 88 83 77
-125.2621 -107.67837 15.544902 146 146 143
-125.09911 -107.71067 15.519659 142 140 138
-124.90183 -107.68793 15.519994 129 132 126
-124.75983 -107.66709 15.529594 146 149 144
-124.595 -107.62119 15.450964 90 91 93
-124.29509 -107.68497 15.433194 115 113 113
-124.1087 -107.65952 15.503897 110 112 115
-123.9786 -107.64547 15.596082 146 134 144
-125.31824 -107.49819 15.479715 161 156 153
-125.18985 -107.58432 15.5017 161 157 158
-124.86057 -107.48943 15.550788 132 134 128
-124.69093 -107.50639 15.532775 132 134 132
-124.565 -107.50999 15.463852 95 99 99
-124.06358 -107.44059 15.481336 109 110 110
-123.90131 -107.49374 15.54306 106 106 110
-121.21218 -107.56987 15.598082 89 95 93
-125.47065 -107.38882 15.589514 111 105 105
-125.03252 -107.30464 15.530708 137 136 128
-124.8878 -107.29861 15.506363 133 135 127
-124.6957 -107.30222 15.540971 141 141 136
-124.57289 -107.28642 15.476857 114 115 112
-123.74017 -107.2851 15.433719 86 92 89
-123.22057 -107.2513 15.534065 122 123 125
-123.05538 -107.28938 15.451538 124 119 115
-125.09301 -107.09747 15.494509 133 134 124
-124.92128 -107.17152 15.430803 108 113 106
-124.69238 -107.12816 15.490582 137 136 130
-124.5489 -107.08192 15.465131 140 137 131
-123.338 -107.07612 15.578245 93 98 92
-123.00962 -107.16199 15.555967 181 171 179
-122.64848 -107.02702 15.574967 186 171 168
-122.53603 -107.06729 15.584846 114 117 116
-121.922 -107.05779 15.596661 98 102 92
-121.62728 -107.18163 15.575738 76 76 74
-125.1039 -106.90611 15.443642 158 148 142
-124.93466 -106.90314 15.576124 152 142 136
-124.488 -106.93422 15.491939 153 143 140
-124.37197 -106.83849 15.560336 108 109 106
-122.67276 -106.95544 15.557841 117 123 123
-122.58636 -106.93169 15.558426 124 121 119
-122.06981 -106.84325 15.595767 111 111 111
-121.82324 -106.87523 15.55593 83 91 83
-121.74457 -106.95445 15.558016 81 87 80
-121.4941 -106.86488 15.56612 136 137 129
-124.80594 -106.7744 15.544711 122 125 118
-124.32938 -106.74236 15.470416 110 110 107
-122.82014 -106.73469 15.561066 76 86 85
-122.62631 -106.75877 15.529428 146 153 152
-122.52533 -106.68159 15.530884 106 111 109
-122.28496 -106.70045 15.567472 81 87 85
-122.16132 -106.66205 15.512903 58 63 59
-121.88778 -106.77428 15.58065 95 97 92
-121.10872 -106.72075 15.5762 95 106 100
-122.87539 -106.50302 15.548953 126 126 120
-122.67535 -106.50151 15.538954 76 82 80
-122.52657 -106.51517 15.551613 79 90 86
-122.37598 -106.5737 15.521408 85 96 94
-122.8779 -106.29955 15.534671 123 126 117
-122.69945 -106.3045 15.579656 106 112 107
-122.48943 -106.28246 15.575625 79 90 85
-123.49357 -106.02968 15.497178 99 102 100
-123.01399 -106.03682 15.446549 132 134 131
-122.91889 -106.11764 15.516135 106 109 103
-122.75835 -106.10943 15.59505 123 125 120
-122.44025 -106.16251 15.527328 90 97 93
-122.28453 -106.10909 15.572874 82 91 88
-122.12888 -106.07363 15.569561 69 82 77
-123.47314 -105.90396 15.488066 107 110 111
-123.28755 -105.86937 15.556122 79 90 91
-122.85431 -105.95528 15.52741 108 112 106
-122.26127 -105.95074 15.588307 109 115 111
-122.10111 -105.89272 15.565109 104 111 107
-123.26388 -105.72131 15.474354 85 95 94
-123.14782 -105.67744 15.463987 102 108 106
-122.88155 -105.70534 15.533895 107 108 108
-121.91207 -105.7077 15.577485 101 107 103
-123.20815 -105.57544 15.442583 83 92 91
-123.08366 -105.51334 15.472198 95 105 104
-122.91183 -105.47205 15.494825 86 96 97
-122.68088 -105.51121 15.553032 85 91 94
-122.52293 -105.40379 15.592781 93 100 99
-122.87547 -105.36124 15.501796 99 106 109
-122.69094 -105.29984 15.568675 90 99 100
-122.48126 -105.31667 15.545974 89 97 100
-122.47591 -105.14665 15.559808 96 97 97
-122.34439 -105.16747 15.475853 177 179 176
-126.02495 -124.2319 15.784245 149 149 148
-125.82452 -124.22446 15.63146 125 131 129
-126.07802 -124.07768 15.664537 115 121 117
-125.92664 -124.1079 15.646931 109 117 112
-125.76322 -124.06656 15.658882 135 143 143
-125.47652 -124.07233 15.62358 136 139 135
-126.23196 -123.85085 15.712469 116 127 122
-126.14188 -123.94009 15.708064 100 110 102
-125.71504 -123.8774 15.70314 124 131 126
-125.46183 -123.92385 15.703588 116 126 118
-125.33024 -123.91032 15.688782 124 132 126
-126.15619 -123.65292 15.740911 85 96 91
-125.63549 -123.71771 15.63247 106 119 110
-125.5485 -123.66732 15.66634 93 107 96
-125.3121 -123.60345 15.678755 161 162 167
-126.07493 -123.50946 15.650449 82 94 86
-125.43746 -123.56256 15.63142 127 132 134
-125.33765 -123.47102 15.662868 134 138 138
-126.10136 -123.29041 15.66141 110 118 109
-125.75198 -123.35842 15.619596 77 95 85
-125.44707 -123.3271 15.65798 129 134 134
-125.31003 -123.29023 15.672826 130 136 134
-125.09644 -123.20152 15.676836 132 137 130
-124.90659 -123.29693 15.604671 163 167 166
-126.21606 -123.13834 15.626303 85 96 88
-126.09544 -123.08604 15.694168 97 108 99
-125.65404 -123.00887 15.601576 120 132 121
-125.46148 -123.11419 15.658706 124 135 129
-125.2869 -123.10928 15.690303 125 135 128
-125.17873 -123.06419 15.61049 98 113 108
-124.8652 -123.18839 15.623129 122 130 128
-126.07229 -122.90765 15.705365 93 104 94
-125.93999 -122.9549 15.729432 122 133 123
-125.27481 -122.91901 15.633781 101 118 109
-125.12684 -122.93787 15.635252 87 102 94
-126.25668 -122.67149 15.658528 80 96 87
-126.10432 -122.75653 15.718114 86 98 91
-125.53944 -122.73415 15.604373 87 103 92
-125.38822 -122.77836 15.762241 86 99 90
-126.54437 -122.45029 15.610258 87 104 91
-126.32916 -122.45333 15.72526 77 92 79
-127.71471 -122.24797 15.656542 68 85 77
-127.50461 -122.22546 15.67738 62 79 67
-127.28335 -122.26468 15.682756 55 70 58
-127.10724 -122.26276 15.630771 59 74 62
-126.61578 -122.27926 15.707214 76 92 77
-126.50868 -122.31885 15.676808 83 100 87
-126.31385 -122.32819 15.755756 79 96 82
-125.94951 -122.31327 15.61392 94 107 100
-127.65751 -122.08315 15.684248 74 90 81
-127.49275 -122.12505 15.69136 57 75 63
-127.30306 -122.13457 15.713484 64 82 71
-127.10826 -122.13853 15.737461 55 74 62
-126.893 -122.03857 15.709672 79 94 83
-126.66411 -122.08469 15.656873 89 104 93
-126.55088 -122.12417 15.669634 86 103 89
-126.39789 -122.17817 15.629745 97 114 104
-125.92355 -122.14687 15.632429 108 119 108
-125.71004 -122.0681 15.641973 136 146 137
-127.63632 -121.88197 15.706347 67 85 76
-127.53932 -121.89577 15.71202 69 86 78
-127.28094 -121.9229 15.688878 77 93 86
-127.12451 -121.88018 15.69698 70 89 79
-126.8895 -121.89885 15.678945 69 86 77
-126.71602 -121.93003 15.701323 78 95 85
-126.56997 -121.90054 15.769765 69 89 79
-126.05721 -121.85327 15.606796 98 118 107
-125.87379 -121.93635 15.696132 123 131 123
-125.71545 -121.93586 15.623488 142 149 139
-125.57561 -121.94034 15.704652 144 155 146
-128.1084 -121.64731 15.68866 81 97 89
-127.63573 -121.7261 15.716729 74 91 85
-127.54021 -121.67278 15.744394 93 107 101
-127.01456 -121.78851 15.734076 75 91 84
-126.90373 -121.75366 15.763061 83 99 91
-126.669 -121.71018 15.696654 82 97 87
-126.4804 -121.63148 15.6724 88 103 93
-128.06548 -121.5357 15.732635 117 130 124
-127.88684 -121.44551 15.665718 96 109 105
-127.68525 -121.48531 15.716678 93 109 101
-127.56725 -121.4767 15.785292 87 108 102
-127.27786 -121.4234 15.601754 83 104 90
-127.13757 -121.41222 15.633771 82 89 82
-126.60127 -121.44256 15.792917 125 135 125
-126.47973 -121.51192 15.727761 119 132 118
-126.33453 -121.48475 15.692472 99 114 102
-124.88092 -121.45374 15.611135 118 129 131
-124.63799 -121.47733 15.631403 100 104 108
-128.47723 -121.24178 15.693944 103 109 113
-128.05963 -121.25906 15.693344 106 118 114
-127.91878 -121.30033 15.696676 105 114 110
-127.65191 -121.29382 15.723213 95 109 104
-127.52055 -121.2891 15.696177 92 106 102
-127.30048 -121.27454 15.685565 101 115 110
-127.09233 -121.26792 15.715074 79 91 85
-126.47355 -121.28447 15.697218 105 115 102
-126.34735 -121.29156 15.729897 116 128 114
-124.81576 -121.34145 15.639587 107 115 113
-124.73915 -121.28944 15.645716 92 108 106
-124.51448 -121.28093 15.642611 83 99 95
-124.02818 -121.35367 15.693539 103 120 112
-128.70952 -121.02547 15.642365 96 111 119
-128.53302 -121.08437 15.677376 81 88 87
-128.07225 -121.07007 15.685091 105 121 111
-127.90147 -121.09366 15.678349 104 119 110
-127.74068 -121.06087 15.695895 100 115 107
-127.49961 -121.08765 15.699572 92 109 103
-127.39177 -121.19299 15.662495 65 81 78
-127.04443 -121.15329 15.699972 111 122 117
-126.94769 -121.05606 15.717244 93 101 98
-126.48931 -121.09187 15.68277 109 121 108
-126.35587 -121.09482 15.739406 113 126 113
-125.92478 -121.10447 15.686377 119 133 118
-124.84824 -121.14079 15.725513 44 58 57
-124.65698 -121.11265 15.647033 93 110 108
-124.51431 -121.03921 15.690002 97 114 118
-124.2435 -121.17956 15.622001 93 109 109
-124.08517 -121.12742 15.661881 94 106 109
-123.97291 -121.12817 15.671234 85 97 95
-128.85486 -120.82421 15.700463 96 113 120
-128.70262 -120.89581 15.670672 90 102 112
-128.46288 -120.92311 15.708863 87 92 97
-128.34924 -120.83745 15.738945 111 111 114
-128.05887 -120.87192 15.6841 107 119 110
-127.9306 -120.92458 15.728107 102 115 107
-127.70901 -120.92806 15.678452 98 111 106
-127.58082 -120.86227 15.644304 97 111 108
-127.35399 -120.8357 15.634983 70 86 78
-127.0459 -120.91179 15.745918 119 130 122
-126.87348 -120.87506 15.713662 128 139 137
-126.64804 -120.83991 15.685128 113 123 111
-126.49117 -120.92603 15.687529 116 128 117
-126.36009 -120.94405 15.686716 92 106 95
-124.65049 -120.84904 15.719769 84 98 98
-124.32875 -120.85808 15.624701 71 90 88
-124.00219 -120.9212 15.653847 74 85 87
-123.96765 -120.91919 15.602346 101 111 112
-129.04607 -120.62698 15.719299 78 86 97
-128.84491 -120.72295 15.715767 97 110 118
-128.70523 -120.70637 15.706952 94 105 112
-128.52145 -120.69051 15.684051 101 109 116
-128.28932 -120.69924 15.711208 121 123 126
-128.10434 -120.69142 15.706659 114 121 120
-127.90527 -120.67277 15.708816 115 123 122
-127.72161 -120.69354 15.675183 111 124 118
-127.50902 -120.6807 15.676477 107 122 114
-127.3145 -120.64983 15.665567 132 146 138
-127.08966 -120.66431 15.674227 128 140 137
-126.87939 -120.73324 15.70907 135 144 141
-126.71889 -120.71844 15.708589 127 136 129
-126.5368 -120.75886 15.68867 118 128 118
-124.24603 -120.74394 15.635393 126 144 148
-124.06762 -120.69904 15.728798 95 113 112
-123.79568 -120.66737 15.63231 91 105 106
-129.06995 -120.4733 15.687813 97 114 121
-128.64204 -120.51113 15.697882 98 109 116
-128.5004 -120.52325 15.69788 95 107 115
-128.27739 -120.53423 15.669122 105 115 125
-128.0833 -120.50555 15.696373 109 114 117
-127.90014 -120.49705 15.728716 119 125 125
-127.70184 -120.5038 15.705523 121 131 128
-127.50748 -120.53251 15.730986 107 121 120
-127.27451 -120.51843 15.668974 134 142 135
-127.0892 -120.50375 15.687273 144 151 148
-126.91411 -120.51628 15.733038 143 149 149
-126.73741 -120.57925 15.742059 119 134 133
-123.52998 -120.46744 15.76437 83 97 95
-123.35653 -120.47368 15.736532 85 91 91
-129.27216 -120.25482 15.667446 99 110 118
-129.09644 -120.29311 15.678932 94 106 109
-128.95132 -120.24146 15.655639 99 110 117
-128.67862 -120.29935 15.674103 97 104 110
-128.52147 -120.28333 15.683287 100 109 117
-128.24718 -120.27927 15.644252 127 136 146
-128.09412 -120.27867 15.684808 121 127 136
-127.88888 -120.32859 15.694235 118 125 128
-127.73089 -120.31553 15.713713 124 130 133
-127.57323 -120.36827 15.709692 101 113 114
-127.35838 -120.3473 15.628939 124 133 127
-127.1026 -120.26721 15.645221 116 131 134
-126.8992 -120.35023 15.714634 128 139 139
-124.49663 -120.21868 15.758175 70 84 87
-124.05262 -120.34042 15.678408 73 79 88
-123.92758 -120.22904 15.678794 78 92 98
-123.71646 -120.31474 15.630427 78 87 94
-123.5589 -120.26678 15.704909 97 108 114
-129.45915 -120.17718 15.752886 113 114 126
-129.2579 -120.14759 15.717226 94 102 113
-129.13405 -120.13328 15.750858 93 102 109
-128.87602 -120.11251 15.709283 106 119 124
-128.68562 -120.12924 15.730006 101 110 117
-128.51044 -120.12277 15.704492 98 110 114
-128.32249 -120.17181 15.665615 105 116 121
-128.09346 -120.13113 15.710761 120 128 138
-127.97766 -120.09315 15.722322 113 120 128
-124.08574 -120.05618 15.766086 92 100 111
-123.92088 -120.08009 15.72444 124 125 142
-123.73727 -120.16861 15.716856 142 157 164
-123.44968 -120.07955 15.771789 82 96 99
-129.63705 -119.89854 15.678571 91 98 109
-129.50749 -119.90214 15.676814 90 101 112
-129.2944 -119.86602 15.663672 89 105 108
-129.10469 -119.85162 15.70401 102 115 121
-128.90071 -119.87213 15.704227 102 116 121
-128.70103 -119.93674 15.67556 98 111 119
-128.57791 -119.94066 15.724018 80 95 102
-130.05321 -119.61601 15.656034 66 75 82
-129.80075 -119.63821 15.736677 71 83 95
-129.66806 -119.67316 15.660293 125 132 145
-129.50238 -119.70216 15.705057 118 128 139
-129.30032 -119.69812 15.704996 101 114 123
-129.10046 -119.70419 15.736165 96 107 118
-128.88332 -119.73064 15.657801 109 122 134
-128.70593 -119.70299 15.697083 106 116 130
-128.42334 -119.66176 15.796226 102 116 129
-127.8276 -119.65235 15.649722 108 122 130
-127.73894 -119.63234 15.71166 103 118 127
-124.23376 -119.6431 15.615742 104 119 124
-124.07061 -119.68667 15.748058 80 92 90
-123.78819 -119.71547 15.787167 43 61 63
-129.82211 -119.50712 15.670794 103 110 124
-129.6965 -119.50326 15.692224 120 127 140
-129.51436 -119.51346 15.698392 120 129 141
-129.34372 -119.49111 15.701216 109 118 130
-129.14424 -119.56806 15.771664 108 119 131
-128.92264 -119.55109 15.604288 122 132 141
-128.72382 -119.49378 15.780028 90 101 113
-128.54242 -119.57286 15.676815 94 105 113
-128.08525 -119.45463 15.632618 115 126 140
-127.91915 -119.46133 15.634976 111 123 130
-127.64718 -119.48004 15.624722 116 124 133
-127.47028 -119.45821 15.651088 145 158 164
-124.23116 -119.56721 15.735563 65 89 93
-124.13782 -119.52319 15.764133 92 105 110
-123.99196 -119.5866 15.770945 99 110 102
-130.24982 -119.31562 15.644691 111 117 125
-129.83229 -119.37064 15.690886 75 87 103
-129.76024 -119.36092 15.672577 85 92 107
-129.548 -119.27035 15.644703 126 134 149
-129.38689 -119.35951 15.708672 103 111 127
-128.67397 -119.25611 15.654082 108 115 130
-128.54108 -119.24546 15.700294 131 139 153
-128.29454 -119.27503 15.628491 100 110 123
-128.0878 -119.31938 15.669725 124 129 138
-127.90114 -119.28096 15.686065 110 121 128
-127.5253 -119.38564 15.675368 126 139 144
-124.05447 -119.33748 15.795331 144 147 152
-121.96522 -119.31924 15.798456 94 108 109
-130.26489 -119.08614 15.641313 114 131 141
-130.1188 -119.082 15.68129 112 118 131
-129.87094 -119.00948 15.706837 96 94 104
-129.51604 -119.04057 15.606844 132 139 147
-129.16919 -119.0352 15.713705 98 105 121
-128.83366 -119.13898 15.619922 109 116 132
-128.73193 -119.05613 15.675286 110 116 130
-128.49483 -119.10364 15.654235 112 123 137
-128.2878 -119.08533 15.661213 116 125 141
-128.10571 -119.0622 15.660163 99 110 118
-127.95031 -119.04588 15.627043 100 112 114
-127.45653 -119.05704 15.640893 70 85 92
-124.73448 -119.08659 15.737672 88 96 97
-124.54561 -119.1559 15.737329 109 110 116
-124.31344 -119.11166 15.768039 148 150 155
-121.93367 -119.10661 15.705296 64 74 78
-130.21585 -118.88785 15.703821 112 118 132
-130.13342 -118.8823 15.671329 116 121 134
-129.95569 -118.89281 15.710731 105 112 120
-129.21422 -118.98363 15.710016 112 115 132
-129.05704 -118.87913 15.624875 136 145 154
-128.89294 -118.92263 15.607469 92 92 107
-128.69138 -118.934 15.683049 128 133 148
-128.50072 -118.8993 15.653088 121 129 142
-128.30609 -118.88793 15.691345 116 123 133
-128.1167 -118.92739 15.705572 109 116 127
-127.97242 -118.87634 15.681668 102 111 121
-127.40973 -118.82785 15.682596 120 124 137
-127.36329 -118.97741 15.633154 94 109 114
-124.80092 -118.85146 15.778305 184 184 182
-124.7231 -118.96445 15.718405 163 166 166
-121.37872 -118.86565 15.610146 52 67 72
-120.99031 -118.87141 15.789312 66 80 83
-130.64836 -118.68014 15.630398 194 194 222
-130.49426 -118.65585 15.665238 111 117 136
-130.29434 -118.72345 15.684275 104 107 125
-130.10547 -118.70903 15.644133 99 104 116
-129.2347 -118.61621 15.608744 124 130 138
-129.0598 -118.70353 15.629428 112 117 127
-128.90268 -118.71466 15.678938 128 129 147
-128.67711 -118.71468 15.711785 123 123 140
-128.51093 -118.70497 15.688349 126 127 143
-128.29282 -118.69887 15.674522 114 118 130
-128.12221 -118.69619 15.669153 119 125 138
-127.91656 -118.70946 15.671356 141 142 156
-127.53239 -118.64426 15.608246 122 134 148
-127.32981 -118.68651 15.675211 108 122 135
-124.84235 -118.68793 15.715895 103 118 119
-124.75808 -118.65488 15.712327 136 144 146
-123.95123 -118.71909 15.776569 73 82 84
-123.51071 -118.72281 15.788769 82 92 91
-121.03614 -118.66523 15.758881 48 67 64
-130.45016 -118.54859 15.675473 95 98 111
-130.3299 -118.48523 15.734169 66 68 76
