ply
format ascii 1.0
comment PCL generated
element vertex 1148
property float x
property float y
property float z
property uchar red
property uchar green
property uchar blue
element face 0
element camera 0
property float view_px
property float view_py
property float view_pz
property float x_axisx
property float x_axisy
property float x_axisz
property float y_axisx
property float y_axisy
property float y_axisz
property float z_axisx
property float z_axisy
property float z_axisz
property float focal
property float scalex
property float scaley
property float centerx
property float centery
property int viewportx
property int viewporty
property float k1
property float k2
end_header
3.6111619 -76.427528 19.663954 139 147 132
5.5611205 -76.484398 19.689659 141 149 135
5.711349 -76.496292 19.686806 147 151 143
5.8743086 -76.497498 19.701393 136 141 130
6.12327 -76.457222 19.706305 136 141 132
6.2805166 -76.491814 19.676376 137 140 130
6.7581491 -76.436935 19.742149 103 107 93
6.881897 -76.467812 19.713802 60 83 62
7.019485 -76.498108 19.763124 86 98 81
7.3264599 -76.500481 19.720091 75 90 75
7.498971 -76.472763 19.669434 83 101 83
7.66008 -76.48317 19.677814 88 98 93
7.8045888 -76.582443 19.756027 53 77 63
-0.26217762 -76.314034 19.700663 47 72 41
-0.088224068 -76.305061 19.717806 82 96 76
0.08841721 -76.289192 19.709806 112 118 105
0.30016938 -76.306198 19.722483 129 131 126
0.50893718 -76.287392 19.691916 104 111 100
0.71003485 -76.294746 19.704458 126 128 120
0.88128173 -76.292641 19.713934 130 133 122
1.7088306 -76.360527 19.715734 84 89 87
1.8564993 -76.339455 19.72928 51 67 54
2.0999718 -76.306435 19.719685 97 103 93
2.298501 -76.296631 19.742273 78 83 76
2.4944828 -76.33075 19.739044 123 120 112
2.6929774 -76.27713 19.690565 112 115 111
2.8494022 -76.299736 19.675501 99 101 97
3.1489899 -76.230339 19.64068 70 95 74
3.4977515 -76.350655 19.744017 98 109 102
3.669301 -76.370758 19.680321 93 105 96
4.1021857 -76.318268 19.618776 64 80 69
5.5601325 -76.381142 19.720627 176 185 168
5.7454371 -76.334381 19.672478 129 135 126
5.8831625 -76.294785 19.688063 130 135 125
6.0901227 -76.306328 19.722532 133 139 131
6.2390242 -76.290894 19.769403 140 144 139
6.44871 -76.320602 19.643019 181 177 165
6.7536178 -76.277679 19.751696 65 88 69
6.8345585 -76.263168 19.637764 68 93 72
7.1933436 -76.395454 19.691742 76 97 78
7.3240886 -76.268929 19.790915 60 73 64
7.4837375 -76.288078 19.691004 164 163 163
-0.41806832 -76.176773 19.777729 6 32 7
-0.28208748 -76.088181 19.72348 81 101 77
-0.095340326 -76.109322 19.703163 86 100 78
0.114425 -76.108818 19.699759 109 118 103
0.28219029 -76.074852 19.714161 132 132 129
0.50766355 -76.122574 19.713676 98 104 96
0.73662108 -76.1063 19.719696 112 117 106
0.84900272 -76.130272 19.683956 127 130 117
1.9087057 -76.149841 19.771446 67 78 67
2.1085267 -76.132019 19.716156 61 70 61
2.292871 -76.107109 19.715422 109 107 106
2.4619749 -76.174225 19.73884 136 131 132
2.6789205 -76.057266 19.651228 86 87 85
3.1956503 -76.111595 19.744856 104 107 100
3.2711346 -76.042213 19.72822 98 108 105
3.5118246 -76.143753 19.638866 70 82 83
3.9153702 -76.095161 19.684326 106 116 112
4.070632 -76.191566 19.738405 151 160 155
5.7686133 -76.154099 19.726883 110 118 101
5.8921423 -76.097305 19.689869 145 146 136
6.0467911 -76.115395 19.697102 171 168 163
6.2208414 -76.190285 19.745588 104 117 99
6.7131662 -76.08403 19.720139 54 78 57
6.9008737 -76.117943 19.720331 75 96 76
7.0756626 -76.082352 19.615086 41 69 42
7.3058243 -76.092773 19.713547 96 109 106
7.7670164 -76.122993 19.695763 96 93 86
7.8971109 -76.109459 19.774563 155 160 146
-0.30368531 -75.945381 19.748674 109 118 109
-0.10701314 -75.88533 19.6828 66 90 66
0.11468265 -75.920387 19.724997 120 126 112
0.28628403 -75.891365 19.701075 119 127 111
0.46376124 -75.928665 19.700232 114 114 108
0.75384015 -75.89637 19.723475 105 107 106
0.91812241 -75.87413 19.714867 82 90 81
3.3014736 -75.968636 19.736315 51 68 50
3.5766969 -75.892487 19.700066 112 118 117
3.6822162 -75.837868 19.705797 47 69 57
3.87185 -75.88813 19.668478 0 7 0
4.5710568 -75.954353 19.652462 189 182 176
5.152441 -75.833908 19.61586 140 147 129
5.7676711 -75.894234 19.733601 149 153 134
5.8893557 -75.891792 19.686222 158 157 145
6.0490675 -75.903236 19.659197 155 147 145
6.2969055 -75.895477 19.715773 135 135 130
6.546598 -75.858681 19.745327 133 134 129
6.7263083 -75.901108 19.720638 77 96 77
6.896359 -75.933975 19.677715 37 69 41
7.0739646 -75.842155 19.679468 14 51 17
7.2805705 -75.948776 19.789858 35 49 36
7.8222251 -75.875206 19.685112 100 117 104
8.0019855 -75.921089 19.712656 192 182 181
8.22087 -75.941536 19.764761 1 37 1
-0.092967659 -75.752708 19.617668 142 136 136
0.050762553 -75.661438 19.692928 114 113 114
0.33238092 -75.737 19.728954 113 120 109
0.44874576 -75.684822 19.713726 98 111 91
0.65150064 -75.640953 19.646557 67 88 60
3.3268871 -75.668327 19.729326 46 68 61
3.482605 -75.671005 19.6826 65 79 77
3.6736319 -75.679367 19.695433 68 94 77
3.8664773 -75.733376 19.719564 64 92 63
4.4700623 -75.652916 19.713467 72 74 73
4.9043698 -75.756378 19.655312 75 89 65
5.0757456 -75.679283 19.674183 83 96 76
5.3383818 -75.616867 19.66851 133 134 130
5.432518 -75.609894 19.675768 130 129 125
5.7903743 -75.762886 19.66523 102 101 81
5.9436159 -75.708664 19.692732 155 158 142
6.0620012 -75.694923 19.666214 165 160 155
6.6968117 -75.757759 19.706427 98 112 97
6.9337673 -75.752144 19.795179 52 86 69
7.3021426 -75.610291 19.669153 121 127 115
7.6044693 -75.632172 19.778744 51 72 55
7.8215046 -75.737717 19.633429 38 59 40
8.1266403 -75.613922 19.773834 36 57 42
0.13994287 -75.462189 19.703838 48 80 40
0.31663519 -75.47554 19.701408 65 89 56
0.52364242 -75.494621 19.727734 92 107 84
0.62336457 -75.524536 19.667091 99 112 95
3.3408887 -75.471039 19.719597 44 69 53
3.5024114 -75.530106 19.782404 29 56 37
3.7253506 -75.491974 19.682774 34 66 37
3.8793249 -75.499939 19.6999 55 85 57
4.1262918 -75.475761 19.654753 38 67 49
4.2405477 -75.533585 19.628916 79 92 77
4.5770035 -75.446136 19.704372 183 185 186
4.779284 -75.46003 19.742735 107 121 102
4.9252138 -75.46994 19.716383 124 130 121
5.0630431 -75.475418 19.670834 124 130 115
5.2969427 -75.557251 19.645231 67 69 65
5.5344796 -75.496941 19.600227 113 117 120
5.9623923 -75.512665 19.665756 139 141 130
6.0703435 -75.509064 19.682304 151 149 144
6.2286835 -75.475449 19.62151 167 165 162
6.8265381 -75.581573 19.73373 32 57 36
7.1417599 -75.429291 19.68627 0 36 0
7.5132723 -75.466026 19.696112 37 63 44
7.620986 -75.509933 19.77137 21 54 35
0.1448265 -75.275581 19.777218 78 99 66
0.33523139 -75.298386 19.658663 81 98 75
0.45942527 -75.296638 19.691509 116 125 107
0.72016084 -75.253403 19.747574 93 108 86
0.87229174 -75.27124 19.675905 91 103 84
2.1245456 -75.319199 19.654936 45 72 49
2.2758954 -75.246033 19.710247 49 79 54
2.4603395 -75.222496 19.657967 26 54 30
3.3209736 -75.301117 19.71851 19 55 29
3.4589748 -75.263748 19.678591 47 75 54
3.7419901 -75.279495 19.696743 17 55 21
3.8891089 -75.289268 19.714964 26 61 35
4.1073861 -75.295189 19.682169 35 65 41
4.258707 -75.267952 19.683846 31 61 35
4.5606017 -75.30024 19.668547 95 109 88
4.6962743 -75.289619 19.676653 104 116 102
4.9132419 -75.293449 19.701895 103 115 101
5.0881233 -75.297455 19.712034 124 128 122
5.2427907 -75.317505 19.687702 153 150 151
5.7564492 -75.213173 19.618021 159 160 147
5.9462051 -75.302147 19.690037 145 143 139
6.1081109 -75.319542 19.677057 165 160 160
6.2447147 -75.276871 19.620869 145 145 142
6.7502623 -75.328667 19.636286 95 119 106
6.9985852 -75.384094 19.710697 21 57 19
7.2863951 -75.352821 19.771893 12 52 20
-0.4709025 -75.045288 19.665768 70 92 62
-0.23718385 -75.009094 19.652485 43 70 27
-0.12681806 -75.014847 19.66477 123 129 112
0.13153748 -75.077759 19.720827 123 131 117
0.33259958 -75.111794 19.718014 120 131 109
0.46214196 -75.07869 19.693136 130 136 121
0.71105856 -75.123344 19.736717 98 108 88
0.82016969 -75.094788 19.784016 80 88 70
2.1471493 -75.119003 19.727333 30 62 35
2.3135664 -75.099976 19.700344 13 47 16
2.4662883 -75.068924 19.719341 12 49 13
2.6551929 -75.033081 19.643513 0 42 1
3.3373735 -75.135712 19.735106 14 50 19
3.4636383 -75.079475 19.721113 17 52 26
3.733408 -75.056343 19.662617 23 56 25
3.8899186 -75.096268 19.723627 25 60 35
4.0949426 -75.113495 19.701307 35 66 44
4.2822561 -75.1119 19.689032 31 61 41
4.5214267 -75.093735 19.696177 56 80 57
4.695776 -75.094261 19.696556 57 78 60
4.8910203 -75.082153 19.697727 86 100 88
5.0717773 -75.100037 19.67255 91 102 93
5.2590308 -75.125237 19.705301 134 135 135
5.7562909 -75.090706 19.648804 149 145 138
5.924789 -75.106964 19.702896 164 159 155
6.1053867 -75.122528 19.685991 163 158 158
6.6817999 -75.110497 19.743187 160 159 155
6.8828406 -75.057274 19.689951 73 88 75
7.0822158 -75.084908 19.720377 88 101 90
-0.64640588 -74.887695 19.764236 31 68 27
-0.46308297 -74.906303 19.711893 89 102 84
-0.29416928 -74.885986 19.707739 114 122 106
-0.13045815 -74.869339 19.665722 119 125 113
0.062242016 -74.888252 19.691584 123 124 120
0.28651094 -74.891716 19.741903 106 119 96
0.51886564 -74.876556 19.705421 110 120 101
0.6810084 -74.922455 19.702356 132 140 128
1.3637152 -74.812508 19.657459 2 42 1
1.4858315 -74.874329 19.633793 69 97 66
1.6601526 -74.958481 19.710066 79 90 82
1.9739323 -74.93438 19.681595 21 50 24
2.15539 -74.98838 19.673132 2 40 5
2.3131566 -74.992012 19.735054 17 53 14
2.5072486 -74.822975 19.670401 9 43 8
2.7229156 -74.898796 19.688719 2 29 3
2.8316023 -74.809067 19.654503 0 31 0
3.3243601 -74.880722 19.709579 11 49 13
3.5162709 -74.900627 19.69869 17 48 16
3.7027462 -74.900711 19.693489 5 42 9
3.8954957 -74.898682 19.707062 10 50 22
4.0969591 -74.921448 19.720478 23 61 40
4.3096623 -74.921394 19.706038 21 57 42
4.5156713 -74.889977 19.702194 24 62 27
4.6987972 -74.892197 19.701931 29 61 39
4.8887129 -74.906418 19.711847 56 76 63
5.1168256 -74.922554 19.698812 103 106 105
5.3370142 -74.904221 19.690493 138 131 137
5.4768691 -74.86657 19.74329 204 191 198
5.7224054 -74.852921 19.726425 149 150 133
5.9092026 -74.895767 19.710146 160 153 150
6.1019378 -74.901756 19.710709 180 172 177
6.2738605 -74.89933 19.704237 169 161 165
7.0097651 -74.884171 19.73542 80 91 87
-0.44277909 -74.654625 19.717258 116 126 108
-0.2893517 -74.680969 19.708458 115 122 110
-0.095388554 -74.699364 19.709688 118 124 113
0.10048535 -74.691528 19.676083 113 121 108
0.28854626 -74.679573 19.67898 112 118 108
0.52486175 -74.711113 19.710793 123 129 112
0.66597438 -74.648582 19.701754 125 134 115
0.90106702 -74.674789 19.641722 32 65 20
1.1510255 -74.682945 19.735582 30 73 26
1.3351325 -74.690262 19.704325 62 82 59
1.4601594 -74.709824 19.674303 54 74 52
2.5084083 -74.697159 19.759245 17 51 16
2.6347325 -74.709976 19.68832 0 32 2
3.1815434 -74.765167 19.674824 67 95 75
3.3169479 -74.705315 19.673229 6 35 6
3.5177073 -74.705986 19.722502 1 36 2
3.7243588 -74.699173 19.69198 1 39 5
3.9034247 -74.716011 19.714165 4 45 14
4.0946379 -74.707474 19.688927 18 52 32
4.3007402 -74.676788 19.693586 16 52 21
4.5016103 -74.712769 19.697001 14 56 26
4.7032604 -74.702095 19.675789 15 53 28
4.8584809 -74.685486 19.69372 25 57 42
5.1170225 -74.681381 19.697123 72 87 88
5.2947798 -74.644661 19.676693 70 84 86
5.4828658 -74.738838 19.702755 168 161 174
5.6823764 -74.652931 19.676321 139 139 135
5.9101224 -74.690399 19.715406 151 144 143
6.0654736 -74.700333 19.701479 156 150 149
6.2852502 -74.719933 19.661236 108 110 104
-0.46682101 -74.490364 19.709316 123 127 124
-0.27537334 -74.506943 19.701797 130 136 125
-0.10065018 -74.499115 19.682117 115 119 114
0.12276963 -74.509422 19.69598 119 128 112
0.27780679 -74.503754 19.69981 118 123 114
0.52962542 -74.477081 19.721413 110 116 100
0.68252492 -74.480705 19.687506 108 119 99
0.91428089 -74.49913 19.709417 29 66 26
1.1153624 -74.493286 19.751152 58 86 52
1.2958441 -74.499626 19.733112 61 84 56
1.4883028 -74.490242 19.678057 76 96 76
1.6475266 -74.447037 19.68988 100 111 94
1.9222224 -74.455711 19.662262 62 78 63
2.08845 -74.473015 19.692911 15 44 18
2.3337021 -74.516121 19.716713 72 94 83
2.5197904 -74.482727 19.723219 23 54 29
2.7011015 -74.458992 19.695009 21 53 26
2.8761268 -74.444916 19.682602 15 51 20
3.4222693 -74.560722 19.66522 0 33 2
3.7314293 -74.54348 19.74106 3 39 8
3.8727026 -74.519867 19.70978 4 39 7
4.1349521 -74.493599 19.721222 22 60 25
4.3083777 -74.458389 19.693352 5 44 8
4.5084577 -74.492424 19.662956 8 48 14
4.711679 -74.510674 19.693462 23 55 30
4.8789692 -74.465935 19.669298 28 55 35
5.0269523 -74.481873 19.728462 15 49 33
5.3207726 -74.548706 19.637695 47 70 65
5.5127535 -74.463821 19.67922 82 93 79
5.7606983 -74.521439 19.680882 139 139 132
5.9042215 -74.496315 19.700945 118 120 118
6.0802717 -74.510887 19.659937 146 140 140
6.5044284 -74.429642 19.639668 191 180 186
-0.48100924 -74.309708 19.716705 129 131 130
-0.28087419 -74.325859 19.714006 112 123 108
-0.13506941 -74.328468 19.671633 133 137 131
0.11716316 -74.320602 19.668797 97 112 95
0.2859638 -74.306213 19.692251 105 113 102
0.50967944 -74.323334 19.725229 112 121 101
0.70597416 -74.299393 19.704857 117 127 107
0.90520531 -74.28904 19.707632 46 76 40
1.1111463 -74.271896 19.709673 41 68 36
1.2998574 -74.299698 19.729767 68 88 64
1.4851345 -74.313339 19.736279 83 99 83
1.6770756 -74.295052 19.68359 30 56 33
1.9020747 -74.275917 19.708971 53 72 51
2.0812418 -74.302246 19.705444 57 75 54
2.3007355 -74.295303 19.67425 43 60 47
2.5028319 -74.286957 19.721167 19 47 19
2.6779416 -74.31105 19.731123 15 48 14
2.9127233 -74.316879 19.696148 21 54 26
3.0840442 -74.302017 19.724133 10 47 20
3.2653244 -74.249451 19.699562 8 42 9
3.795754 -74.345261 19.792791 14 42 20
3.9261999 -74.300751 19.700665 9 39 9
4.1117601 -74.279144 19.720316 3 39 7
4.3057289 -74.316368 19.729239 13 48 17
4.4973764 -74.285217 19.697247 9 45 12
4.6685896 -74.272728 19.655302 25 56 30
4.8805265 -74.359154 19.681314 42 65 48
5.1847353 -74.20874 19.684414 149 153 136
5.2924471 -74.243729 19.693214 103 113 98
5.4626751 -74.239014 19.67342 106 113 102
5.7142019 -74.257248 19.690773 82 93 77
5.9029036 -74.312561 19.712368 121 126 119
6.0971484 -74.296547 19.72751 130 127 127
6.3625731 -74.376579 19.760546 141 140 136
-0.33028421 -74.130562 19.781399 156 160 159
-0.11702448 -74.171974 19.69108 121 127 118
0.13664234 -74.087975 19.645399 89 108 86
0.28636482 -74.106682 19.684423 100 107 98
0.50158793 -74.075768 19.672647 85 95 78
0.7315529 -74.120689 19.665707 105 113 98
0.91343409 -74.087273 19.685522 88 101 82
1.1172104 -74.104324 19.69825 83 98 76
1.2622094 -74.081215 19.68952 62 81 53
1.4905701 -74.091896 19.735113 62 82 55
1.6073189 -74.128433 19.78149 28 56 32
1.9001868 -74.123169 19.682289 53 74 56
2.1534526 -74.111168 19.685768 80 96 83
2.2792764 -74.035324 19.678207 27 54 26
2.5039194 -74.097969 19.683027 11 44 12
2.6935685 -74.071938 19.700365 43 71 44
2.8704882 -74.057663 19.700909 33 58 31
3.0821354 -74.093124 19.713413 70 90 72
3.265286 -74.107666 19.690876 46 75 45
3.488471 -74.178673 19.785652 26 46 21
3.9564505 -74.093689 19.72197 39 68 45
4.0951304 -74.109543 19.705364 16 46 20
4.2997417 -74.082954 19.702032 52 73 53
4.4948955 -74.117683 19.728508 36 62 41
4.7106643 -74.097923 19.695152 30 59 34
4.8683343 -74.060463 19.654175 29 56 35
5.107264 -74.050209 19.663418 60 81 59
5.3131204 -74.072708 19.688395 84 94 78
5.5048137 -74.086174 19.667673 94 104 90
5.686152 -74.090454 19.663052 90 98 91
5.8968058 -74.082306 19.678894 142 141 136
6.0354619 -74.071159 19.671673 167 163 165
6.2819309 -74.041809 19.771042 125 119 129
6.6694341 -74.015381 19.727819 130 132 120
8.2584248 -74.091797 19.723049 52 88 58
8.5922327 -74.039795 19.674587 60 88 73
8.6818085 -74.093094 19.68833 63 87 68
-1.6608195 -73.840149 19.635004 118 121 90
-0.26060379 -73.993401 19.679531 122 133 137
0.15219244 -73.945259 19.64739 117 131 114
0.29870737 -73.877739 19.672127 112 120 108
0.49684379 -73.941696 19.680086 117 123 115
0.70092922 -73.911995 19.655037 135 136 132
0.88459909 -73.941589 19.691372 106 114 102
1.1292495 -73.901192 19.701061 96 107 89
1.2795169 -73.869926 19.710508 104 113 95
1.4586455 -73.852371 19.713127 110 119 99
1.7554367 -73.925873 19.707661 81 100 78
1.9166273 -73.883018 19.723783 53 69 49
2.122174 -73.888573 19.708513 24 48 22
2.2825272 -73.906265 19.678785 18 44 17
2.4954002 -73.857613 19.687529 58 80 52
2.7225654 -73.885086 19.704525 83 99 77
2.888345 -73.895561 19.689665 86 96 81
3.1156266 -73.897888 19.701611 93 101 92
3.2261746 -73.923615 19.712976 99 114 92
3.4047694 -73.921234 19.613377 52 58 56
3.9328001 -73.92923 19.735994 33 55 37
4.1166306 -73.929398 19.719906 18 47 22
4.3037782 -73.90432 19.695093 29 57 36
4.5073338 -73.885406 19.700041 43 66 47
4.7174287 -73.897957 19.721228 47 70 50
4.8977523 -73.901237 19.689026 54 75 56
5.0763741 -73.89547 19.687288 49 71 52
5.311841 -73.898537 19.713299 76 87 75
5.5024791 -73.899139 19.707714 118 120 113
5.6781564 -73.923836 19.662498 114 117 110
5.893292 -73.865044 19.693254 147 146 144
6.0732765 -73.890091 19.7194 147 140 146
7.3923163 -73.922508 19.633331 63 84 65
7.7018147 -73.848709 19.784508 38 75 44
7.9116368 -73.857147 19.693161 21 56 24
8.1442451 -73.86264 19.730511 70 97 68
8.4383402 -73.962463 19.657871 64 86 75
-1.0507988 -73.67347 19.648563 97 108 100
-0.90332061 -73.690727 19.700733 125 130 137
-0.77984011 -73.675209 19.731726 131 136 141
0.18994281 -73.74794 19.619156 150 145 141
0.30314848 -73.775452 19.760706 111 123 110
0.53887701 -73.606293 19.650011 134 134 132
0.77038413 -73.667007 19.675827 100 110 91
0.93643707 -73.682304 19.709154 116 121 107
1.0926 -73.703468 19.706827 144 142 131
1.2871735 -73.697266 19.753569 144 139 133
1.4715747 -73.698257 19.688236 121 126 111
1.7098153 -73.685387 19.700262 92 102 88
1.8741833 -73.701866 19.727976 82 93 78
2.1032536 -73.684471 19.711794 35 65 35
2.3012331 -73.681541 19.703781 27 53 27
2.5168304 -73.715141 19.730854 44 65 41
2.7321665 -73.694901 19.706745 60 82 59
2.8778875 -73.692535 19.685225 46 65 45
3.1341558 -73.697746 19.663233 80 93 79
3.3055308 -73.686928 19.676765 110 114 107
3.460233 -73.68972 19.755135 150 151 141
4.1532445 -73.669548 19.710772 70 86 76
4.3137341 -73.708961 19.710587 27 56 34
4.4990554 -73.730797 19.682533 25 55 30
4.6982155 -73.716301 19.690462 47 66 50
4.8744097 -73.704399 19.707088 81 90 82
5.0992002 -73.676376 19.716515 112 116 109
5.3066311 -73.730843 19.727455 144 142 139
5.5037627 -73.705879 19.722008 130 128 124
5.6685438 -73.716614 19.71804 138 130 133
5.8735433 -73.728653 19.699404 147 141 141
6.0425582 -73.716331 19.673559 134 135 128
6.2472534 -73.636803 19.732121 118 127 109
7.5392542 -73.713425 19.742516 59 82 56
7.7421718 -73.795197 19.736752 26 59 32
7.9113789 -73.677475 19.729452 36 72 46
8.1365566 -73.66806 19.756147 55 81 63
8.274065 -73.680496 19.725487 17 51 30
-1.4424454 -73.486145 19.68919 115 129 119
-1.299873 -73.455711 19.706137 115 122 120
-1.0852205 -73.474724 19.681139 89 102 94
-0.89716196 -73.491608 19.695168 93 104 98
-0.77026737 -73.467674 19.715031 85 98 89
-0.55092674 -73.428406 19.616282 86 102 76
0.52561796 -73.43145 19.602682 84 96 84
0.72828346 -73.513596 19.70116 108 118 103
0.89998841 -73.526764 19.701756 121 131 108
1.0612926 -73.500145 19.712299 148 147 134
1.2838184 -73.489265 19.687979 113 119 105
1.5043325 -73.476891 19.685448 117 126 104
1.6926068 -73.486473 19.691586 115 124 107
1.9096358 -73.477783 19.717749 84 96 79
2.1256552 -73.491325 19.727819 40 64 42
2.2920356 -73.494415 19.704504 38 64 42
2.4827676 -73.485359 19.690435 46 68 46
2.7186105 -73.519112 19.700258 28 55 24
2.8700485 -73.52256 19.695684 38 65 37
3.0768783 -73.483818 19.701941 96 106 94
3.2404606 -73.484558 19.692245 108 116 102
3.4828382 -73.57885 19.720043 97 111 86
4.1898251 -73.504684 19.734732 36 57 43
4.2976489 -73.527763 19.693096 59 76 65
4.4986677 -73.527428 19.660521 52 72 61
4.7246537 -73.552177 19.707336 90 101 90
4.9097509 -73.548019 19.714197 128 128 124
5.1177039 -73.512108 19.70965 120 121 113
5.2686629 -73.497681 19.687983 128 128 118
5.4821219 -73.536697 19.730766 102 106 100
5.7224998 -73.514267 19.72883 148 147 143
5.9012299 -73.473335 19.702848 129 130 119
6.0880008 -73.513229 19.708836 112 118 102
6.2778692 -73.424362 19.620617 102 103 95
7.2186532 -73.560265 19.745148 78 86 68
8.1467981 -73.505898 19.771061 22 58 37
8.2957335 -73.464386 19.745087 25 59 37
8.4253559 -73.599258 19.635155 59 94 62
9.5328188 -73.428726 19.742039 144 153 152
-1.4729799 -73.295868 19.691181 104 116 104
-1.2918615 -73.291512 19.693985 114 118 117
-1.10531 -73.316116 19.708744 120 125 122
-0.90505403 -73.306679 19.701918 95 102 102
-0.70866889 -73.284904 19.699236 73 88 82
-0.53197634 -73.266762 19.686237 47 65 49
0.72833341 -73.266304 19.719648 135 146 140
0.97379005 -73.276024 19.707378 129 137 116
1.0813351 -73.320061 19.703783 119 121 108
1.2936082 -73.29821 19.700584 111 120 103
1.4993862 -73.298729 19.719894 119 121 110
1.6907395 -73.310371 19.678904 132 133 122
1.9278246 -73.315063 19.688765 113 120 108
2.1090238 -73.298973 19.719416 85 93 84
2.3404584 -73.300247 19.743599 61 77 60
2.4909141 -73.342941 19.700089 46 64 45
2.6992176 -73.309677 19.693836 40 59 39
2.8872125 -73.306816 19.69031 68 85 60
3.0841498 -73.307297 19.699707 91 94 89
4.1413641 -73.341782 19.716534 107 117 100
4.2980561 -73.325844 19.67975 39 61 45
4.490509 -73.322495 19.688503 40 62 44
4.6588335 -73.327133 19.70048 33 59 37
4.9126167 -73.282768 19.661385 16 49 18
5.1024528 -73.318565 19.698906 37 59 44
5.3182306 -73.298431 19.683214 114 118 111
5.5115695 -73.26368 19.683048 133 135 128
5.647953 -73.297089 19.745691 103 101 103
5.8916259 -73.278862 19.71887 107 110 104
6.0941439 -73.274277 19.699524 129 130 123
6.2328849 -73.274612 19.720434 144 144 139
7.0934777 -73.288078 19.792439 116 121 116
8.1900311 -73.277756 19.759525 33 59 48
8.2943449 -73.308495 19.764416 27 59 39
8.455842 -73.341278 19.682585 21 52 30
-1.6762779 -73.019775 19.69837 100 114 103
-1.4824294 -73.106583 19.711678 115 123 121
-1.3307381 -73.093445 19.688732 135 137 136
-1.1078467 -73.081215 19.728979 123 127 125
-0.91996229 -73.085289 19.721897 115 120 118
-0.69562131 -73.09967 19.704741 86 98 94
-0.51259792 -73.089317 19.705715 51 69 64
-0.33408242 -73.079323 19.695129 26 60 43
0.75116765 -73.084579 19.71891 93 104 91
0.93174165 -73.093758 19.679531 85 100 78
1.1041189 -73.092567 19.690956 103 110 97
1.2919831 -73.103775 19.689718 123 125 115
1.5122148 -73.080452 19.69591 137 136 125
1.7228696 -73.10096 19.688417 165 162 149
1.9110118 -73.051582 19.694468 124 136 118
2.08478 -73.107574 19.73633 69 81 68
2.2937551 -73.11882 19.715441 56 68 55
2.4792957 -73.10585 19.707644 48 63 48
2.700917 -73.120132 19.686443 39 59 40
2.8681386 -73.09819 19.649977 29 47 27
3.0451031 -73.107437 19.626707 67 77 66
4.1137414 -73.082672 19.653303 24 48 27
4.3400359 -73.083336 19.714087 62 79 65
4.5276918 -73.05822 19.7339 54 75 60
4.694572 -73.07653 19.651604 13 46 22
4.9322295 -73.062798 19.760553 20 51 26
5.1206298 -73.169777 19.742163 71 88 71
5.3497257 -73.077324 19.694006 106 109 106
5.5076861 -73.076027 19.692818 130 132 127
5.6874495 -73.076828 19.698994 137 138 129
5.9191194 -73.096619 19.71821 90 98 90
6.0941868 -73.127403 19.702553 103 109 101
6.2631226 -73.077995 19.718147 157 154 150
6.5155587 -73.012512 19.704782 101 105 85
8.1799774 -73.167152 19.754524 37 67 52
8.3234615 -73.145187 19.661922 28 54 38
8.4444685 -73.180801 19.633841 6 50 15
-1.6384726 -72.924042 19.621437 108 119 106
-1.4624497 -72.874733 19.698566 130 133 130
-1.2960879 -72.894737 19.718052 131 134 136
-1.0988145 -72.898567 19.713387 112 118 122
-0.89534402 -72.902153 19.702263 77 90 86
-0.71577936 -72.915314 19.702166 104 113 118
-0.52411431 -72.944756 19.659653 104 119 114
-0.32583845 -72.914345 19.613964 37 69 51
0.77116668 -72.982346 19.673685 112 137 118
0.95161074 -72.906113 19.665134 89 104 85
1.1071237 -72.88353 19.703279 132 136 125
1.2944314 -72.906151 19.709946 117 123 107
1.4814682 -72.898407 19.668165 127 131 116
1.7209883 -72.897247 19.710564 108 119 98
1.8576795 -72.888847 19.700369 90 104 80
2.0628476 -72.887611 19.73118 46 62 47
2.3320601 -72.965698 19.705801 31 49 34
2.5218525 -72.941498 19.697924 37 55 39
2.6624532 -72.870468 19.673716 55 79 48
2.9305849 -72.92112 19.730957 70 88 58
3.0611963 -72.954117 19.676115 77 93 66
3.2094183 -72.829796 19.784044 136 156 129
4.341959 -72.835236 19.680317 33 53 34
4.4696531 -72.900566 19.656256 21 46 25
4.6736426 -72.863602 19.675482 14 47 22
4.8823838 -72.903313 19.654514 14 49 21
5.0964813 -72.932449 19.743092 17 51 26
5.3322549 -72.895615 19.697327 97 105 98
5.5051613 -72.891647 19.670399 96 104 93
5.6603312 -72.918961 19.706944 105 110 102
5.8890271 -72.890816 19.709873 147 143 139
6.0926547 -72.906097 19.703024 101 104 99
6.317029 -72.881668 19.703129 162 156 150
6.453269 -72.868713 19.680374 150 148 137
6.6858997 -72.903152 19.685299 141 139 123
6.8837757 -72.873779 19.735693 118 122 111
7.3840923 -72.81855 19.737766 73 84 76
7.4860992 -72.844482 19.687643 83 93 81
7.7079453 -72.902176 19.781515 120 126 110
7.9099541 -72.886612 19.760235 66 88 74
8.1373854 -72.9104 19.760489 30 63 41
8.2607908 -72.90136 19.697725 19 55 32
8.4143085 -72.989014 19.644463 26 61 31
9.1895742 -72.931908 19.794163 117 128 130
9.3250389 -72.957603 19.663645 61 81 76
9.8855953 -72.855515 19.750799 188 188 199
-1.6409211 -72.625687 19.683044 95 109 105
-1.5285416 -72.697182 19.691887 115 125 118
-1.2794093 -72.72142 19.693872 112 121 117
-1.1093099 -72.693848 19.691828 107 113 118
-0.92609394 -72.726509 19.698296 78 93 89
-0.73082459 -72.759857 19.685211 83 96 98
-0.34791124 -72.749886 19.613029 34 58 45
0.78728598 -72.611046 19.66272 116 124 107
0.90702575 -72.662483 19.691576 125 130 122
1.1125406 -72.701683 19.705881 136 139 128
1.3003193 -72.695404 19.706522 122 127 113
1.4942766 -72.701668 19.690174 111 116 104
1.7186558 -72.711357 19.700476 97 110 91
1.887923 -72.688293 19.695469 110 118 102
2.0894427 -72.692955 19.722557 87 97 82
2.264919 -72.714302 19.712622 101 107 97
2.9414139 -72.716125 19.76791 34 62 30
3.1698771 -72.670013 19.748095 43 64 35
4.2828822 -72.694099 19.717253 9 35 14
4.4904656 -72.700371 19.683197 17 45 26
4.7059994 -72.717171 19.718674 19 48 28
4.8911352 -72.689957 19.648716 12 45 23
5.106967 -72.701469 19.62269 12 47 25
5.3273854 -72.723175 19.739614 78 91 78
5.4706435 -72.701385 19.676147 77 87 80
5.7320914 -72.728371 19.721783 155 151 151
5.8572049 -72.707115 19.687531 136 130 129
6.1222 -72.757584 19.781153 160 147 156
6.346333 -72.736015 19.70759 173 164 158
6.4943767 -72.695778 19.693209 152 150 142
6.691617 -72.722946 19.68858 172 167 158
6.9020743 -72.661942 19.719666 124 122 115
7.0928936 -72.656303 19.748892 70 87 76
7.2731361 -72.726479 19.747423 55 75 66
7.5309091 -72.722717 19.721506 60 80 67
7.6724272 -72.697716 19.736698 94 108 100
7.8878942 -72.734962 19.729399 93 104 100
8.1077614 -72.725494 19.71644 64 81 73
8.3018074 -72.649704 19.702507 44 74 53
8.5434608 -72.629051 19.745264 45 72 55
8.6375256 -72.690453 19.760691 77 96 79
8.9363966 -72.66378 19.767519 179 173 175
9.0383987 -72.695763 19.742508 166 164 161
9.2936401 -72.742485 19.77037 100 98 102
9.4432783 -72.671417 19.773237 194 195 190
9.7858562 -72.76889 19.77672 163 163 177
-1.6206177 -72.577713 19.686768 102 115 107
-1.4697611 -72.516617 19.70611 103 110 105
-1.2756604 -72.542046 19.659607 117 126 118
-1.1001779 -72.534203 19.675533 110 120 118
-0.99499381 -72.576141 19.794561 132 144 144
-0.090388358 -72.419449 19.657328 93 108 79
0.755557 -72.509773 19.682625 120 128 109
0.89660764 -72.521156 19.669996 122 129 117
1.1175157 -72.507309 19.676516 118 124 115
1.2986888 -72.502693 19.69137 114 119 109
1.4811906 -72.509644 19.687504 94 104 91
1.7040287 -72.476585 19.69906 97 107 87
1.8773433 -72.504784 19.706673 121 126 113
2.0810552 -72.492508 19.722071 130 132 118
2.2588274 -72.494049 19.703541 135 137 117
2.745496 -72.450638 19.694916 85 84 87
3.13657 -72.523857 19.795698 189 187 187
3.2151315 -72.520599 19.730587 140 141 135
4.3361592 -72.546623 19.709785 22 49 34
4.5614982 -72.514198 19.718084 34 55 46
4.6419983 -72.53669 19.685049 77 84 86
4.9619431 -72.545387 19.668602 11 45 23
5.0527296 -72.507729 19.704655 12 42 25
5.3182669 -72.487007 19.702568 34 55 38
5.4710379 -72.496048 19.685816 39 61 45
5.6903129 -72.47506 19.708307 70 92 71
5.8511887 -72.540878 19.701941 106 100 97
6.4828506 -72.559349 19.654259 174 161 164
6.7269001 -72.554146 19.707787 150 144 138
6.8813915 -72.526978 19.700281 157 152 152
7.052393 -72.525391 19.685005 145 143 133
7.3289618 -72.468025 19.70932 147 144 146
7.5036955 -72.50766 19.727877 80 94 89
7.7106261 -72.551277 19.664377 40 68 54
8.1665783 -72.516563 19.767853 48 75 62
8.3256435 -72.502121 19.733299 82 100 91
8.4717398 -72.537178 19.75441 83 97 90
8.6570997 -72.53376 19.772541 122 125 124
8.9355478 -72.423569 19.770271 77 95 81
-1.1145406 -72.352356 19.734858 112 116 114
-0.94550943 -72.2416 19.66507 102 112 87
-0.28549311 -72.304001 19.777967 144 161 127
-0.092708662 -72.311569 19.690796 53 74 49
0.095911823 -72.308586 19.690203 85 99 75
0.26868582 -72.259369 19.651993 63 72 52
0.74871653 -72.316574 19.714338 78 92 65
0.9266631 -72.320183 19.710165 124 131 112
1.0986347 -72.304787 19.70038 125 130 116
1.2960277 -72.31237 19.696968 115 119 109
1.4554459 -72.307495 19.666248 76 91 70
1.7117833 -72.30835 19.700932 125 131 119
1.8752472 -72.315117 19.715101 114 116 108
2.0924985 -72.315544 19.73205 99 103 96
2.2934232 -72.320969 19.677397 119 128 108
2.4234457 -72.261452 19.616755 30 56 27
2.6657441 -72.27581 19.689791 65 80 58
2.8503897 -72.350792 19.73859 82 82 79
4.4124589 -72.241417 19.730974 160 166 156
4.7108097 -72.274284 19.710508 39 69 50
4.9205804 -72.26664 19.680538 45 69 48
5.0888252 -72.290306 19.673166 24 52 33
5.3554869 -72.319191 19.736572 26 49 32
5.5001526 -72.282104 19.702518 77 95 86
5.6936607 -72.260818 19.767893 28 50 38
6.6973281 -72.399078 19.784851 133 132 138
6.86167 -72.328201 19.693867 184 174 182
7.0584683 -72.33754 19.76972 200 189 187
7.3361712 -72.257454 19.691755 130 127 134
7.9569869 -72.246307 19.750443 152 156 152
8.081727 -72.28614 19.756437 137 139 139
8.2555447 -72.356674 19.773451 147 148 154
8.4572115 -72.311768 19.748919 113 119 120
8.762619 -72.226418 19.748566 190 184 183
8.9446249 -72.257896 19.740078 116 119 124
9.0803032 -72.315506 19.775997 43 64 46
-0.27552202 -72.014748 19.698334 110 126 107
-0.082481988 -72.069458 19.723448 106 119 103
0.092268929 -72.063011 19.704237 110 117 112
0.2856814 -72.082344 19.709259 103 108 102
0.43534872 -72.04332 19.738333 87 97 96
0.70805049 -72.035271 19.719339 91 101 94
0.93185991 -72.066505 19.694441 120 128 111
1.0862939 -72.093437 19.701912 116 123 109
1.3025696 -72.116302 19.700241 104 113 98
1.5106994 -72.105072 19.715099 94 104 87
1.6965771 -72.109383 19.683224 135 132 129
1.8570019 -72.137978 19.70174 157 153 149
2.0670612 -72.185059 19.722483 72 73 69
2.3255084 -72.097237 19.728945 56 74 50
2.4566331 -72.11937 19.689617 55 75 48
2.6859789 -72.104057 19.758465 34 60 25
2.8187315 -72.134499 19.75655 68 88 61
3.9094129 -72.016968 19.647808 33 59 40
4.1101255 -72.067352 19.737085 62 88 63
4.3451438 -72.128098 19.721283 84 100 83
4.4851041 -72.095314 19.713408 45 77 46
4.7176452 -72.119545 19.697113 66 93 68
4.8769288 -72.108566 19.709272 30 58 40
5.0843282 -72.122185 19.706955 48 73 59
5.2823386 -72.063393 19.697273 42 59 52
5.4954987 -72.133308 19.699507 53 71 62
5.7144256 -72.05883 19.694342 13 42 20
5.9667101 -72.181252 19.691578 50 67 51
7.3279042 -72.156342 19.769812 37 49 39
7.9652534 -72.162155 19.748446 152 151 152
8.071167 -72.086586 19.727539 155 150 157
8.3618307 -72.050545 19.764292 101 107 108
8.5519085 -72.196747 19.744871 76 88 78
8.6404476 -72.095261 19.749271 120 124 124
8.8680258 -72.129288 19.67234 116 122 117
-0.61767828 -71.862526 19.7822 129 144 123
-0.3054283 -71.890289 19.713156 58 79 56
-0.086145841 -71.895943 19.715424 118 125 116
0.11196276 -71.878937 19.714811 101 112 98
0.32406777 -71.89003 19.700794 81 93 83
0.495592 -71.89444 19.683603 73 87 75
0.68293494 -71.903534 19.688927 89 99 91
0.90703571 -71.893166 19.71426 121 125 117
1.1111588 -71.917816 19.706909 96 104 93
1.2799528 -71.917007 19.70915 89 97 86
1.4749086 -71.927818 19.700232 110 111 104
1.6526335 -71.879089 19.71006 100 99 90
1.9604371 -71.830559 19.704716 54 81 51
2.0778499 -71.857376 19.688829 49 76 48
2.3120646 -71.876701 19.691727 104 121 99
2.4375248 -71.896332 19.67325 89 106 80
2.8250346 -71.999466 19.797165 68 77 68
3.8950233 -71.954956 19.650612 24 50 26
4.0509052 -71.868454 19.65414 15 45 15
4.3412218 -71.836998 19.795855 0 42 1
4.467205 -71.930069 19.7512 73 89 64
4.6760597 -71.87793 19.693817 66 88 69
4.9625058 -71.984085 19.761332 22 49 37
5.0826311 -71.957397 19.67565 23 58 49
5.2913775 -71.920135 19.692324 54 70 66
5.5041289 -71.956001 19.750332 44 64 59
5.7553377 -71.950447 19.790005 23 43 31
8.1308212 -71.93399 19.743961 198 189 201
8.2977142 -71.916016 19.737837 106 112 113
8.5014019 -71.892815 19.748005 99 109 106
8.6410112 -71.85112 19.724827 57 80 72
9.1146736 -71.890381 19.747396 141 139 138
-0.85920322 -71.629395 19.733017 111 136 106
-0.47771326 -71.767982 19.663593 79 96 78
-0.28716105 -71.731705 19.718624 100 113 101
-0.079748474 -71.715431 19.699743 124 129 123
0.10532615 -71.698586 19.693359 105 114 105
0.30181193 -71.698608 19.701145 94 103 92
0.49157706 -71.713211 19.697884 91 100 91
0.72128046 -71.684624 19.690184 108 112 107
0.89425117 -71.714668 19.703018 115 119 113
1.0704348 -71.711342 19.690838 116 117 114
1.3733722 -71.694229 19.704269 62 79 58
1.494186 -71.750481 19.737816 93 101 87
1.9225925 -71.678093 19.686621 39 67 37
2.115711 -71.714539 19.703676 63 82 60
2.285022 -71.710281 19.67947 64 85 59
2.500674 -71.685928 19.691938 99 115 93
2.6187716 -71.70121 19.628784 100 119 94
3.9153495 -71.666969 19.736258 32 56 37
4.0558219 -71.771736 19.715366 0 38 1
4.3593807 -71.672592 19.673365 29 53 32
4.5111175 -71.708969 19.662399 79 94 81
4.6794515 -71.694801 19.687967 81 92 87
5.2769032 -71.71344 19.678904 18 45 40
5.6376004 -71.732048 19.638382 4 37 22
8.3667707 -71.756111 19.655956 181 178 173
8.5167971 -71.794991 19.77952 122 128 121
8.7896004 -71.642853 19.760536 163 157 143
8.8207273 -71.631973 19.753494 187 180 175
-3.6517844 -71.542007 19.650372 98 111 100
-3.5821314 -71.404305 19.602749 117 131 124
-0.23902692 -71.505302 19.702881 95 103 98
-0.085131153 -71.480797 19.693516 107 114 108
0.09295781 -71.499222 19.697336 104 111 105
0.28703782 -71.512138 19.684034 95 102 98
0.52577221 -71.516586 19.712862 113 115 110
0.70338207 -71.542953 19.709934 144 142 141
0.89020276 -71.518646 19.732656 65 81 64
1.0893586 -71.519936 19.754366 91 106 89
1.3122789 -71.520294 19.725376 59 78 61
1.5097612 -71.46093 19.705545 51 70 50
1.7253915 -71.488464 19.751513 48 72 48
1.8864698 -71.571838 19.714598 28 57 29
2.1853616 -71.514626 19.700806 22 50 18
2.310415 -71.528961 19.704416 26 54 23
2.5236206 -71.532738 19.715906 33 56 39
2.6554248 -71.495461 19.724253 49 64 51
3.8807135 -71.495552 19.705482 12 37 19
4.1658435 -71.470695 19.683558 15 44 24
4.4530401 -71.519608 19.704113 10 43 19
4.726325 -71.489838 19.644314 40 63 47
4.8319674 -71.531677 19.642218 92 95 90
8.7886686 -71.519524 19.746536 102 96 108
8.8964767 -71.584923 19.790365 150 145 141
-4.0902929 -71.371964 19.719761 144 148 150
-3.9489331 -71.273148 19.699013 106 114 109
-3.6863194 -71.279839 19.734793 99 109 103
-3.4968081 -71.282333 19.616611 70 86 76
-2.9535301 -71.201202 19.602509 87 99 77
-1.2242036 -71.204254 19.655947 149 154 158
-1.1052564 -71.236397 19.733063 75 84 87
-0.865547 -71.313408 19.649843 83 95 92
-0.68843734 -71.26001 19.76609 82 100 85
-0.48873603 -71.314156 19.67881 100 118 97
-0.28371501 -71.286285 19.718464 127 129 126
-0.12710696 -71.337929 19.702965 115 120 111
0.11008193 -71.338654 19.701124 83 94 86
0.29436055 -71.304222 19.693426 86 96 89
0.48416603 -71.323814 19.690399 105 108 110
0.67072594 -71.346268 19.641275 163 159 158
1.1139371 -71.281105 19.708443 97 114 98
1.306272 -71.317688 19.689844 52 72 56
1.5137935 -71.318657 19.712202 55 72 57
1.7123426 -71.254021 19.679697 53 73 56
1.871928 -71.261635 19.713545 56 74 60
2.1376779 -71.303307 19.698219 36 64 37
2.2723513 -71.336769 19.626783 28 60 26
2.4667492 -71.324661 19.70899 61 88 62
2.609859 -71.38974 19.675011 13 42 15
3.742732 -71.270889 19.780478 33 51 39
3.9001505 -71.366539 19.671324 22 43 31
4.0852494 -71.307373 19.749054 84 107 88
4.3077178 -71.319931 19.657764 43 71 57
4.5007582 -71.258644 19.681192 79 99 86
4.6973662 -71.281197 19.672407 60 78 69
4.8726058 -71.297081 19.65391 55 71 68
5.095305 -71.324852 19.61091 23 47 39
-4.0890365 -71.0532 19.677 110 118 111
-3.9132061 -71.088684 19.718243 94 104 100
-3.6835952 -71.084213 19.721468 86 101 92
-3.54916 -71.132263 19.75473 69 86 78
-3.2778823 -71.081467 19.715086 84 96 86
-3.1285789 -71.096672 19.689325 64 84 74
-2.9058726 -71.052559 19.699411 48 76 61
-2.780549 -71.110855 19.624603 14 50 15
-1.2257267 -71.155884 19.648815 125 131 137
-1.1026485 -71.095451 19.677738 93 107 104
-0.92268294 -71.085396 19.67404 86 100 94
-0.66967916 -71.145325 19.701969 95 110 94
-0.51358074 -71.085739 19.692852 116 122 120
-0.33778492 -71.12011 19.695225 121 123 117
-0.098446183 -71.188423 19.708649 99 108 95
0.13277993 -71.182014 19.678909 81 93 81
0.35281768 -71.141701 19.750738 48 71 55
0.71378416 -71.084717 19.703854 15 44 16
1.154484 -71.09903 19.704672 36 61 41
1.3018939 -71.108894 19.716846 37 60 40
1.5285699 -71.152725 19.704712 47 68 50
1.7186813 -71.136055 19.694551 43 64 48
1.8942419 -71.11293 19.669163 33 58 36
2.0491576 -71.116547 19.721041 72 93 71
2.3197331 -71.087952 19.671688 46 70 45
2.4552774 -71.107719 19.711576 95 106 95
3.3371019 -71.144981 19.645557 34 55 38
3.58742 -71.025406 19.607424 129 115 115
3.7383573 -71.103363 19.766483 46 63 51
3.9023445 -71.099609 19.646797 38 53 42
4.1537352 -71.177002 19.696678 20 44 26
4.3005171 -71.088074 19.710041 45 68 55
4.505702 -71.100464 19.696739 67 88 74
4.6973023 -71.101891 19.668522 96 106 101
4.8694372 -71.057602 19.657207 33 59 37
5.0638046 -71.001617 19.65226 4 38 14
-4.4360695 -70.833191 19.667999 132 128 144
-4.280654 -70.892181 19.705961 124 128 124
-4.1230168 -70.945663 19.69179 114 117 109
-3.8910859 -70.908783 19.693047 87 97 89
-3.701642 -70.909523 19.682442 74 88 77
-3.4818594 -70.917221 19.694592 79 93 81
-3.2968678 -70.880325 19.713968 88 95 85
-3.1321669 -70.935432 19.692179 73 88 82
-2.9647868 -70.881676 19.709072 78 91 84
-2.7406025 -70.996574 19.610376 44 82 45
-1.247268 -70.861382 19.71553 79 89 87
-1.1114539 -70.903481 19.69977 63 80 73
-0.87888241 -70.881592 19.711159 114 122 116
-0.68247807 -70.887115 19.694708 139 138 135
-0.51032495 -70.920242 19.703968 126 131 117
-0.29497519 -70.887352 19.692137 112 120 107
-0.1150322 -70.872269 19.70303 123 132 120
0.042201072 -70.872131 19.671684 146 146 149
0.75590312 -70.914223 19.7981 42 65 47
0.9868809 -70.857994 19.734867 45 68 40
1.1114935 -70.88488 19.704483 32 60 34
1.300876 -70.887421 19.684261 21 51 23
1.4595089 -70.874985 19.697031 22 50 23
1.6887568 -70.891487 19.694725 21 49 21
1.9160774 -70.884758 19.712433 30 51 30
2.1187894 -70.923225 19.716232 30 59 33
2.2712898 -70.895927 19.695278 21 50 23
2.4810312 -70.838737 19.659029 20 56 27
3.1558437 -70.888107 19.718504 32 46 36
3.5735393 -70.898949 19.630035 54 64 53
3.6949487 -70.867416 19.657322 54 63 53
3.8858294 -70.940765 19.668472 25 51 32
4.103395 -70.878883 19.688536 48 67 56
4.3497515 -70.889694 19.721254 89 99 94
4.5057311 -70.916069 19.703835 137 142 131
4.6932344 -70.960228 19.677509 111 114 109
4.8896236 -70.915474 19.650219 42 60 48
5.0814848 -70.967712 19.632812 70 91 70
5.6424632 -70.869118 19.692484 11 42 0
6.8551965 -70.840004 19.65217 89 106 92
7.3248167 -70.871979 19.706232 137 129 127
7.4845967 -70.874878 19.697886 172 162 157
7.8001366 -70.842354 19.727003 159 160 154
-4.6182928 -70.708443 19.781929 122 101 134
-4.4889092 -70.704781 19.722406 128 119 136
-4.2755661 -70.68232 19.683399 97 100 87
-4.0798588 -70.700844 19.697802 120 120 120
-3.8746777 -70.693405 19.670507 104 114 104
-3.6983881 -70.707443 19.722635 89 97 94
-3.4749711 -70.686089 19.643497 75 89 81
-3.3074625 -70.731308 19.668444 85 96 84
-3.0849619 -70.708199 19.68762 53 76 56
-2.9439785 -70.625549 19.711973 98 115 90
-2.745074 -70.633629 19.709713 24 56 31
-1.9795569 -70.679359 19.765678 29 65 27
-1.2679287 -70.719124 19.674006 44 66 54
-1.091756 -70.69799 19.707891 84 105 86
-0.90253299 -70.70002 19.706928 115 121 110
-0.69432825 -70.70697 19.729342 127 135 118
-0.50465626 -70.708435 19.699425 106 117 102
-0.31690955 -70.68811 19.671679 87 102 85
-0.11649118 -70.735924 19.675005 115 122 113
0.094684154 -70.71743 19.684141 145 151 145
0.30603647 -70.667435 19.638195 72 89 64
0.98208952 -70.6036 19.753786 44 69 44
1.1131692 -70.697906 19.702641 34 64 36
1.3123606 -70.720329 19.720766 12 43 11
1.4910909 -70.698158 19.701157 10 41 11
1.7258734 -70.688705 19.710676 26 50 31
1.8837515 -70.696754 19.702826 19 46 24
2.1038024 -70.691826 19.705263 19 45 27
2.3068089 -70.727478 19.670094 11 44 19
2.4585965 -70.76915 19.687874 12 51 20
2.9185636 -70.699028 19.692518 6 43 13
3.0547783 -70.663132 19.72612 5 36 11
3.2106304 -70.710335 19.721712 5 24 5
3.5180461 -70.669617 19.717701 12 43 24
3.6709991 -70.693344 19.669186 19 44 25
3.8886969 -70.701424 19.686769 38 60 47
4.0938849 -70.702065 19.688766 54 75 65
4.2983437 -70.697456 19.697645 50 69 59
4.4855585 -70.656937 19.689095 29 55 30
4.6938353 -70.646812 19.70516 133 145 131
4.9184432 -70.678406 19.613466 44 66 48
5.0719047 -70.670372 19.646879 25 49 33
5.285778 -70.622063 19.73328 94 115 100
5.4968767 -70.62088 19.637554 32 46 28
5.7033663 -70.702446 19.645571 83 103 78
5.852015 -70.653282 19.690632 152 156 143
6.0804429 -70.716621 19.649115 120 123 118
6.6707659 -70.616684 19.63105 141 141 132
6.8327065 -70.799911 19.686069 170 182 182
7.116559 -70.686523 19.74102 201 190 195
7.3040123 -70.692329 19.737585 183 176 183
7.5037284 -70.680893 19.745956 163 159 162
7.6710119 -70.711517 19.751474 164 158 155
-4.6346855 -70.54055 19.607431 178 168 174
-4.4853654 -70.510155 19.634287 174 160 194
-4.2997265 -70.500984 19.674051 112 115 97
-4.1365643 -70.523956 19.699968 117 118 112
-3.8835604 -70.511467 19.695093 111 114 104
-3.7083719 -70.486916 19.702232 79 92 75
-3.5097797 -70.490761 19.697868 60 80 64
-3.3027706 -70.476234 19.683578 61 83 62
-3.0905573 -70.504799 19.686588 73 91 76
-2.9279065 -70.480301 19.705107 60 81 60
-2.6656723 -70.474579 19.680622 3 40 9
-2.5193996 -70.435608 19.717539 0 44 16
-2.0509202 -70.550552 19.676893 4 36 3
-1.895654 -70.459518 19.62569 57 74 53
-1.5348575 -70.495361 19.682297 91 118 99
-1.280499 -70.439789 19.683439 41 73 49
-1.054915 -70.501015 19.713369 119 120 120
-0.90132165 -70.541023 19.704889 126 127 127
-0.71746087 -70.438309 19.733946 71 89 68
-0.49621168 -70.501556 19.676075 52 70 53
-0.33551574 -70.482513 19.687447 61 81 62
-0.087965183 -70.540016 19.665039 77 93 73
0.12378943 -70.50827 19.674587 117 123 112
0.30801907 -70.513741 19.64246 77 90 71
0.74121165 -70.450081 19.756935 83 104 87
0.93882465 -70.455376 19.725132 43 69 45
1.0852034 -70.521179 19.731846 23 53 25
1.2814649 -70.506386 19.710575 37 61 42
1.5166583 -70.577065 19.673681 5 37 7
1.6743224 -70.543617 19.694601 7 41 15
1.8993809 -70.516541 19.713284 26 50 33
2.0902588 -70.485626 19.725285 10 39 17
2.2688546 -70.532005 19.743999 21 50 31
3.1479526 -70.478874 19.684738 10 40 18
3.2902632 -70.502235 19.72333 19 45 29
3.5623994 -70.599007 19.777824 17 41 27
3.7606368 -70.488358 19.764793 34 55 50
3.9063091 -70.51284 19.689753 3 36 18
4.1156626 -70.501526 19.688835 27 51 40
4.2955437 -70.498131 19.682308 30 55 45
4.4937015 -70.491051 19.676443 29 56 44
4.642272 -70.467812 19.652477 32 60 44
4.9286594 -70.479866 19.688591 75 87 82
5.0761323 -70.477272 19.690479 72 86 83
5.2837882 -70.4571 19.665646 50 72 57
5.4947205 -70.485115 19.673851 93 107 95
5.7049165 -70.512695 19.696922 136 139 129
5.8910651 -70.50692 19.689241 125 130 118
6.0762744 -70.510201 19.658117 175 182 164
6.5516686 -70.447708 19.662655 190 186 177
6.6487288 -70.433731 19.671093 167 163 159
6.9180031 -70.484978 19.741697 174 168 163
7.0929561 -70.544716 19.712751 181 170 174
7.2950664 -70.558044 19.767115 204 193 208
7.4773397 -70.527847 19.744137 179 176 187
7.6446519 -70.563248 19.752832 139 140 144
7.8505688 -70.47802 19.74577 79 79 87
-4.4965978 -70.328323 19.689629 3 27 2
-4.2567835 -70.3078 19.690483 93 103 79
-4.1263862 -70.294533 19.701025 122 120 119
-3.8947709 -70.302223 19.70381 99 104 94
-3.6960242 -70.286278 19.681581 66 83 64
-3.4987595 -70.302505 19.689497 47 71 50
-3.2959969 -70.270432 19.69075 54 78 58
-3.1138015 -70.305382 19.693935 42 65 51
-2.9097707 -70.310799 19.691973 76 94 74
-2.6958506 -70.305344 19.663027 55 82 55
-2.5298176 -70.306427 19.703211 67 96 74
-2.3879755 -70.373642 19.789888 0 44 19
-1.6811613 -70.238007 19.608261 66 92 72
-1.4808476 -70.204422 19.745167 55 76 63
-1.2795039 -70.279991 19.690945 99 108 104
-1.101835 -70.315521 19.708204 129 129 125
-0.8659935 -70.309677 19.689989 107 117 104
-0.71191323 -70.311356 19.708488 82 98 81
-0.50733423 -70.29213 19.698547 92 101 93
-0.34370813 -70.313217 19.709442 70 80 72
-0.11490422 -70.275772 19.718058 100 112 102
0.098931015 -70.313126 19.663769 106 110 103
0.21097639 -70.241745 19.719017 148 149 143
0.46376348 -70.251343 19.677618 145 149 142
0.71993327 -70.281113 19.69379 91 104 88
0.87069958 -70.318459 19.699085 66 86 68
1.0684397 -70.29351 19.688696 60 80 64
1.3185625 -70.350777 19.740189 30 61 36
1.4951335 -70.253174 19.734455 29 50 32
1.7289815 -70.298561 19.722916 26 53 36
1.9029431 -70.293938 19.73258 19 45 24
2.087796 -70.360611 19.746065 12 39 19
2.2678494 -70.319412 19.651255 25 47 35
2.4092236 -70.394791 19.679148 42 59 53
2.9739761 -70.37175 19.709831 1 35 5
3.1584466 -70.240379 19.660683 0 34 8
3.27247 -70.203217 19.689976 9 51 27
3.7064669 -70.341599 19.72101 6 40 22
3.9144409 -70.30349 19.718571 6 43 25
4.0899639 -70.307442 19.707058 14 47 33
4.3327861 -70.292892 19.717211 15 48 35
4.4933252 -70.308342 19.684523 33 61 51
4.7169347 -70.289932 19.658768 16 51 37
4.9154067 -70.301926 19.669806 41 66 57
5.0958204 -70.301994 19.685724 40 65 56
5.3109541 -70.318069 19.699741 42 65 53
5.5213132 -70.283836 19.705463 58 78 71
5.6716313 -70.310204 19.689667 37 63 50
5.8851442 -70.286018 19.667063 88 101 90
6.1028109 -70.29126 19.615831 85 99 90
6.3563037 -70.259575 19.703943 199 191 191
6.5065188 -70.293625 19.719215 180 173 177
6.6873465 -70.282936 19.718487 150 147 146
6.8849974 -70.277695 19.723608 131 131 131
7.0674663 -70.260277 19.713594 113 118 116
7.2511053 -70.223007 19.693151 74 80 71
-4.4943743 -70.098648 19.649708 55 69 49
-4.2667546 -70.152664 19.716068 88 98 72
-4.1269565 -70.156731 19.715174 115 119 100
-3.8775065 -70.086235 19.711964 91 102 81
-3.7176027 -70.078796 19.689957 63 82 62
-3.5001721 -70.116821 19.711081 57 76 58
-3.3137105 -70.095894 19.707586 46 67 49
-3.1051056 -70.098854 19.695312 49 71 58
-2.8889716 -70.076324 19.673992 36 67 37
-2.7075541 -70.079948 19.693419 40 70 44
-2.5822284 -70.015701 19.755156 116 156 130
-2.2705073 -70.045837 19.64856 0 33 0
-1.4819672 -70.084236 19.711126 52 67 61
-1.2958039 -70.135262 19.706516 115 120 126
-1.098677 -70.111755 19.710381 115 115 112
-0.92859882 -70.153893 19.729628 78 94 77
-0.67009383 -70.074486 19.690956 59 66 62
-0.52953219 -70.147568 19.692913 62 68 66
-0.32329404 -70.10379 19.688433 92 105 93
0.32806614 -70.161903 19.632473 148 151 145
0.4552272 -70.155594 19.696575 124 128 119
0.72023082 -70.087761 19.693968 81 98 80
0.92486542 -70.117943 19.697945 81 96 82
1.1299598 -70.053688 19.706335 70 85 75
1.3258699 -70.095688 19.689772 57 76 63
1.5047313 -70.131264 19.684181 45 65 47
1.6804495 -70.135834 19.715174 39 60 48
1.8757368 -70.175446 19.655025 20 46 29
2.1347826 -70.122864 19.758505 30 52 40
2.2068133 -70.144119 19.694668 33 58 38
3.1763539 -70.169106 19.743105 2 37 7
3.2924428 -70.084618 19.73741 8 40 15
3.7898142 -70.174156 19.722609 3 42 20
