ply
format ascii 1.0
comment PCL generated
element vertex 1149
property float x
property float y
property float z
property uchar red
property uchar green
property uchar blue
element face 0
element camera 0
property float view_px
property float view_py
property float view_pz
property float x_axisx
property float x_axisy
property float x_axisz
property float y_axisx
property float y_axisy
property float y_axisz
property float z_axisx
property float z_axisy
property float z_axisz
property float focal
property float scalex
property float scaley
property float centerx
property float centery
property int viewportx
property int viewporty
property float k1
property float k2
end_header
-191.58286 -158.11157 14.690598 39 50 56
-190.02293 -158.12807 14.775337 42 52 54
-193.68253 -157.83249 14.785809 25 44 47
-193.40387 -157.86514 14.613436 40 54 54
-193.3681 -157.81778 14.601357 32 44 40
-193.13011 -157.81328 14.71239 54 67 69
-192.67297 -157.82298 14.739338 50 62 69
-192.29428 -157.83597 14.6654 39 54 58
-192.07921 -157.88747 14.723327 46 57 64
-191.73021 -157.95169 14.78212 67 76 86
-191.54614 -157.98007 14.782699 49 57 63
-193.93048 -157.60124 14.797802 66 74 77
-193.65399 -157.64717 14.745789 49 60 63
-193.48291 -157.70316 14.760834 49 64 67
-193.31041 -157.69719 14.723007 41 56 58
-193.12413 -157.72081 14.757039 35 50 52
-192.9059 -157.72287 14.741921 36 50 51
-192.78731 -157.68333 14.765041 50 60 65
-192.47917 -157.71698 14.704296 52 61 67
-192.30785 -157.70969 14.731099 46 59 62
-192.13945 -157.75208 14.741061 44 57 66
-191.98495 -157.7614 14.771363 61 70 79
-193.81152 -157.59061 14.740381 40 44 56
-193.49292 -157.52084 14.679859 44 57 56
-193.13043 -157.50757 14.793343 36 49 50
-192.91286 -157.58369 14.775455 30 46 46
-192.71292 -157.54027 14.787598 45 56 64
-192.48276 -157.55434 14.720568 47 60 64
-192.27383 -157.52887 14.75135 50 62 70
-192.1084 -157.48109 14.733758 69 76 89
-191.93806 -157.47125 14.763033 66 73 81
-193.78027 -157.2747 14.758148 38 45 53
-193.38855 -157.39992 14.708857 31 43 41
-192.8797 -157.26424 14.778979 48 64 69
-192.71773 -157.24989 14.732326 48 60 64
-192.47571 -157.30806 14.742839 43 56 63
-192.3569 -157.31195 14.735102 49 57 66
-192.09869 -157.3278 14.737696 88 98 118
-191.90572 -157.32605 14.724872 50 58 67
-190.74434 -157.26437 14.740488 52 61 66
-193.48758 -157.10098 14.713593 27 42 44
-192.67664 -157.15405 14.795355 30 44 47
-192.49432 -157.15221 14.728551 43 55 63
-192.2834 -157.08488 14.724347 88 97 107
-192.12903 -157.01846 14.763661 68 78 90
-193.35927 -156.90617 14.74736 30 37 45
-192.64828 -156.96028 14.729219 36 42 40
-192.5022 -156.86855 14.778766 51 60 67
-192.27629 -156.87859 14.745232 61 71 83
-191.83713 -156.97314 14.752348 108 117 132
-191.42496 -156.89241 14.715527 51 61 62
-191.32388 -156.85913 14.739829 56 70 71
-190.53691 -156.90984 14.780348 70 70 75
-193.98451 -156.73288 14.703365 42 52 51
-193.79475 -156.62323 14.786031 51 62 66
-192.0925 -156.7523 14.777171 62 71 74
-191.2798 -156.7021 14.781001 53 61 72
-191.1451 -156.69302 14.797953 83 86 93
-190.56573 -156.64772 14.774101 84 94 95
-193.28633 -156.48045 14.741772 65 65 75
-192.16353 -156.4957 14.778708 57 54 65
-191.17032 -156.55954 14.788262 85 98 104
-190.5372 -156.41275 14.763378 77 89 103
-193.28018 -156.30466 14.765763 34 52 52
-193.14622 -156.30298 14.770146 152 153 160
-192.93724 -156.3542 14.760973 82 91 100
-194.02692 -156.11388 14.7745 49 54 60
-193.4285 -156.14897 14.787526 24 44 43
-187.90134 -155.95328 14.786743 43 55 64
-191.02637 -160.56934 14.962942 47 62 67
-190.92972 -159.69205 14.887386 46 59 60
-190.72423 -159.67036 14.86803 48 63 66
-191.71844 -159.5036 14.858524 36 51 52
-191.3373 -159.53053 14.817312 38 52 52
-191.14757 -159.4003 14.822665 34 43 50
-190.8746 -159.48413 14.92512 44 56 60
-190.72366 -159.5134 14.890322 60 73 81
-190.54988 -159.43141 14.919963 40 54 61
-190.84747 -159.30338 14.914833 74 87 100
-190.69983 -159.29001 14.862088 73 86 98
-192.05463 -159.18602 14.805272 30 42 42
-191.93904 -159.05376 14.931036 36 52 52
-190.83513 -159.0732 14.912636 103 115 130
-190.74748 -159.11311 14.880956 111 120 138
-190.45842 -159.03146 14.899148 48 60 67
-190.3399 -159.12427 14.868891 44 55 55
-192.0423 -158.96996 14.970576 44 56 54
-190.8241 -158.85756 14.917386 115 117 125
-190.43776 -158.88933 14.914226 58 68 70
-190.29735 -158.87877 14.913522 41 52 51
-189.98633 -158.87717 14.967661 41 47 45
-192.42911 -158.61346 14.869831 24 35 37
-192.2655 -158.65393 14.837119 37 48 46
-192.11142 -158.64713 14.920723 48 59 62
-190.72063 -158.72621 14.938076 63 70 77
-190.23508 -158.74588 14.857991 41 52 53
-190.16943 -158.71365 14.898188 57 67 68
-192.27554 -158.47958 14.937818 48 58 60
-192.09123 -158.50816 14.869503 42 54 53
-191.88278 -158.4516 14.866969 53 63 71
-191.76486 -158.44174 14.95988 85 90 109
-190.30376 -158.46466 14.939746 109 119 135
-190.10136 -158.50697 14.900249 46 60 64
-189.80666 -158.46776 14.916197 48 60 60
-193.51335 -158.30573 14.857574 34 56 53
-193.20914 -158.3705 14.897541 23 43 44
-193.08801 -158.34482 14.904715 21 39 43
-192.84221 -158.3177 14.990387 42 57 60
-192.7943 -158.39886 14.932161 32 43 45
-192.50594 -158.29539 14.855336 49 65 68
-192.27415 -158.30885 14.888341 45 59 65
-192.08163 -158.27797 14.911848 56 67 69
-191.9122 -158.29912 14.868251 62 74 80
-191.72263 -158.29962 14.894711 76 86 99
-190.27534 -158.35239 14.901633 103 108 116
-190.1474 -158.32219 14.920761 63 74 76
-189.92216 -158.3839 14.975521 46 62 62
-192.48943 -158.18617 14.968772 51 65 66
-192.23807 -158.09354 14.863449 38 54 59
-192.08943 -158.11211 14.934082 57 69 77
-191.89806 -158.1096 14.900847 59 72 81
-191.72537 -158.10202 14.855011 71 82 94
-191.57878 -158.09021 14.8679 80 91 100
-190.43636 -158.10709 14.995795 59 68 75
-190.10866 -158.13054 14.90715 47 56 57
-189.886 -158.05592 14.979584 62 70 71
-193.0166 -157.82465 14.935396 25 39 40
-192.95409 -157.82468 14.905613 41 55 58
-192.60966 -157.80714 14.863436 33 46 52
-192.53873 -157.90227 14.900577 53 67 72
-192.25456 -157.95819 14.937721 34 47 49
-192.08998 -157.88766 14.898217 64 76 87
-191.89262 -157.88312 14.888572 65 77 88
-191.69214 -157.92278 14.938745 80 92 103
-191.55716 -157.84464 14.876406 65 76 87
-189.3271 -157.9248 14.990446 47 59 55
-194.57297 -157.65283 14.875382 82 81 92
-194.35741 -157.62294 14.920696 53 72 86
-194.13947 -157.62473 14.934708 44 48 56
-193.86725 -157.72327 14.923547 44 59 63
-193.63071 -157.64053 14.879379 53 63 68
-193.50255 -157.6877 14.900983 34 50 52
-193.27982 -157.66692 14.8825 39 55 57
-193.09161 -157.68417 14.865694 35 50 53
-192.89006 -157.67548 14.89723 42 54 57
-192.69405 -157.73155 14.903567 43 55 61
-192.48802 -157.68521 14.898573 45 57 65
-192.3085 -157.7186 14.890918 54 66 73
-192.06435 -157.70816 14.9086 67 78 89
-191.916 -157.71837 14.914174 65 76 90
-191.69946 -157.71313 14.947102 73 84 98
-191.49722 -157.68465 14.920852 57 70 71
-194.20589 -157.41794 14.951084 68 66 77
-194.03566 -157.48172 14.884416 88 90 101
-193.8582 -157.5197 14.897308 55 62 70
-193.62526 -157.52637 14.911155 83 88 96
-193.46863 -157.53627 14.934159 51 59 61
-193.30215 -157.56091 14.954753 48 58 61
-193.13141 -157.52988 14.913227 40 53 56
-192.85527 -157.51102 14.885422 36 49 51
-192.67474 -157.46045 14.910757 46 60 64
-192.49365 -157.48662 14.89362 53 63 70
-192.29796 -157.49136 14.887514 51 61 69
-192.10954 -157.47743 14.883902 67 77 90
-191.89551 -157.47615 14.951228 78 87 100
-191.74507 -157.56526 14.97644 58 68 81
-191.5347 -157.5728 14.997505 65 78 85
-193.91217 -157.27492 14.955327 74 78 87
-193.56377 -157.31448 14.944855 132 148 148
-193.25636 -157.29477 14.911611 62 73 75
-193.09344 -157.30278 14.931246 57 73 77
-192.86667 -157.26999 14.87906 59 72 79
-192.7188 -157.2626 14.873489 44 58 63
-192.48325 -157.29958 14.875541 57 66 75
-192.30841 -157.28751 14.924973 70 78 91
-192.11494 -157.27632 14.889928 97 105 124
-191.86385 -157.24104 14.913521 60 62 72
-194.0764 -157.03856 14.880303 140 136 151
-193.42191 -157.00119 14.893682 36 46 45
-193.28181 -157.11394 14.92263 40 44 45
-192.93755 -157.16612 14.934773 67 81 90
-192.69377 -157.09558 14.906297 53 66 73
-192.48479 -157.09047 14.910264 56 67 79
-192.30582 -157.09927 14.892297 72 82 96
-192.12109 -157.06944 14.886333 104 115 131
-191.92445 -157.11343 14.894583 80 86 97
-191.75598 -157.02176 14.99563 59 64 70
-190.66998 -157.04099 14.893932 49 62 68
-190.56125 -157.08844 14.87149 71 82 89
-194.20856 -156.99046 14.896601 48 57 64
-194.09459 -156.84601 14.982971 52 55 70
-193.8519 -156.80127 14.941851 139 124 143
-193.7191 -156.89384 14.86167 64 69 75
-193.41341 -156.84116 14.857573 41 48 56
-193.34819 -156.89302 14.891308 29 44 51
-193.13318 -156.94847 14.8631 36 33 40
-192.97955 -156.85315 14.948177 56 60 72
-192.68558 -156.86963 14.908293 81 89 97
-192.48535 -156.895 14.898837 58 68 77
-192.33606 -156.9113 14.873112 62 71 81
-192.07593 -156.93263 14.905946 82 92 105
-191.91832 -156.92342 14.91659 78 87 100
-191.7175 -156.86455 14.885718 71 80 93
-191.38512 -156.84567 14.871546 58 63 66
-191.02863 -156.81747 14.952572 66 64 78
-190.98181 -156.8916 14.870897 113 110 131
-190.67473 -156.8385 14.919946 51 58 60
-190.46349 -156.88852 14.929356 55 60 64
-193.74863 -156.72055 14.925039 67 69 75
-193.48531 -156.66866 14.965076 61 64 74
-193.25575 -156.70914 14.964886 51 56 59
-193.11835 -156.6783 14.891203 94 101 109
-192.87946 -156.71669 14.936565 72 70 82
-192.68994 -156.73245 14.946562 71 79 85
-192.48653 -156.68919 14.90978 65 72 82
-192.3017 -156.6649 14.893037 86 92 103
-192.04398 -156.68513 14.90064 53 63 68
-191.88629 -156.7299 14.930051 46 57 62
-191.68571 -156.68933 14.933617 56 64 69
-191.48004 -156.74251 14.90673 53 63 66
-191.29451 -156.73637 14.879532 62 71 76
-191.12668 -156.61288 14.829578 82 87 99
-190.66536 -156.65778 14.857704 43 51 53
-190.43927 -156.72995 14.85146 126 114 126
-190.32568 -156.69713 14.888885 48 59 61
-189.28508 -156.74677 14.912724 42 52 53
-194.49536 -156.58578 14.92736 71 75 87
-194.24776 -156.50305 14.867476 94 94 110
-194.11731 -156.45132 14.92767 75 81 88
-193.952 -156.47142 14.948615 43 53 63
-193.67973 -156.55957 14.887329 73 77 87
-193.496 -156.44801 14.900909 60 65 75
-193.3269 -156.42522 14.898911 99 102 113
-193.12891 -156.48361 14.912462 65 72 79
-192.97855 -156.46342 14.969639 85 83 95
-192.66156 -156.51434 14.945309 82 82 92
-192.48154 -156.53474 14.960754 99 100 112
-192.29527 -156.50298 14.911953 81 85 94
-192.07101 -156.48505 14.931017 61 67 73
-191.92763 -156.4745 14.917768 54 60 62
-191.70671 -156.48888 14.936268 50 55 57
-191.49942 -156.48491 14.925674 51 56 64
-191.13611 -156.49315 14.92256 89 98 103
-190.67746 -156.55096 14.94139 62 72 73
-190.47896 -156.51567 14.916564 54 63 66
-189.97963 -156.40822 14.971918 29 41 37
-194.3062 -156.26892 14.944125 85 89 106
-194.19383 -156.35576 14.953451 99 106 114
-193.81674 -156.31348 14.900831 49 59 61
-193.756 -156.32661 14.950451 39 42 46
-193.44083 -156.35254 14.964964 63 65 72
-193.30017 -156.31535 14.919383 65 72 78
-193.09787 -156.2935 14.930086 89 97 106
-192.90869 -156.27979 14.932498 83 92 102
-192.68723 -156.24057 14.941667 136 145 155
-192.49196 -156.30818 14.940886 111 106 118
-192.33235 -156.30655 14.97238 98 92 103
-192.17267 -156.30672 14.945195 90 96 96
-191.43028 -156.29724 14.907329 66 70 84
-190.7029 -156.37265 14.92804 125 133 144
-190.55298 -156.31113 14.853943 114 124 139
-190.31006 -156.38106 14.850725 46 55 50
-196.18633 -156.02083 14.971394 145 142 161
-194.24683 -156.13046 14.97251 68 72 89
-194.08887 -156.04913 14.944515 92 96 106
-193.99681 -156.18486 14.990022 39 48 55
-193.43796 -156.06403 14.961555 73 84 93
-193.26561 -156.11908 14.905832 77 81 92
-193.10394 -156.07094 14.949048 88 90 101
-192.90416 -156.12413 14.940905 79 88 96
-192.73827 -156.12497 14.976254 102 108 118
-192.51599 -156.11687 14.962059 131 127 140
-192.32291 -156.09357 14.921528 97 93 101
-192.08789 -156.07037 14.936661 77 81 84
-191.43549 -156.14856 14.946484 53 59 73
-191.37958 -156.04321 14.93012 84 91 100
-191.06602 -156.05646 14.917131 49 48 56
-190.92561 -156.06799 14.926601 70 76 84
-190.67303 -156.04395 14.962767 58 65 69
-190.55698 -156.07867 14.918982 62 73 79
-190.28101 -156.1055 14.91615 58 68 72
-189.83279 -156.06454 14.970762 54 62 68
-189.65375 -156.04701 14.960238 43 52 51
-189.5247 -156.07701 14.868895 43 54 53
-187.52147 -156.08572 14.987085 114 127 143
-194.25539 -155.88809 14.972556 82 86 98
-194.07753 -155.84648 14.910552 68 75 81
-193.27454 -155.94128 14.887595 95 99 109
-193.12213 -155.90329 14.961587 132 131 146
-192.80804 -155.92831 14.997725 110 116 126
-192.70168 -155.91101 14.933606 89 95 102
-192.46899 -155.86197 14.954167 78 83 93
-192.30382 -155.93497 14.975068 103 108 114
-192.1434 -155.87306 14.938131 70 75 82
-191.07651 -155.89279 14.992506 91 89 97
-190.93814 -155.88168 14.93703 48 54 56
-190.75328 -155.93958 14.916475 56 65 68
-190.47795 -155.86241 14.965777 91 101 108
-190.34473 -155.82333 14.971561 56 66 69
-189.89386 -155.90962 14.991597 66 77 82
-189.67473 -155.88765 14.931651 48 59 63
-189.43015 -155.97369 14.981992 29 45 35
-189.33218 -155.8006 14.873107 39 49 50
-187.993 -155.83603 14.876444 38 55 62
-187.79361 -155.84879 14.845617 44 64 73
-187.50996 -155.98979 14.953191 85 103 107
-196.05099 -155.6386 14.987299 161 163 175
-195.72171 -155.61508 14.860619 75 81 93
-195.59416 -155.60507 14.986391 52 59 67
-194.61482 -155.73212 14.951237 62 69 77
-194.21468 -155.65497 14.950291 74 76 84
-194.12975 -155.71468 14.896445 60 66 73
-193.51338 -155.67757 14.945365 46 54 57
-193.28815 -155.7285 14.928905 107 110 117
-193.13437 -155.68959 14.955287 127 133 139
-192.50586 -155.77106 14.954931 100 102 117
-192.38652 -155.73534 14.929861 106 105 113
-191.99998 -155.74466 14.991985 55 64 63
-190.9301 -155.77008 14.958863 61 64 67
-190.77005 -155.60208 14.96794 41 59 61
-190.44124 -155.69054 14.961511 66 75 82
-190.29802 -155.68192 14.967931 51 59 62
-190.16948 -155.61473 14.968658 48 54 57
-189.89473 -155.69846 14.947617 48 60 60
-189.71812 -155.74754 14.923961 53 64 66
-189.4696 -155.71632 14.927734 43 54 54
-189.33121 -155.71141 14.93438 95 97 100
-188.02278 -155.67783 14.955251 62 77 82
-195.62871 -155.59837 14.864222 47 58 64
-195.50366 -155.50031 14.938957 77 81 93
-195.32355 -155.43518 14.956684 56 65 72
-195.14882 -155.43965 14.983791 51 62 68
-194.40039 -155.53334 14.956547 51 54 63
-194.12004 -155.54048 14.933754 84 88 96
-193.28621 -155.50684 14.88666 89 93 98
-193.13348 -155.50549 14.97476 103 107 115
-192.09523 -155.52637 14.966277 90 94 95
-191.88051 -155.48698 14.947935 60 63 66
-191.3298 -155.52991 14.944811 29 39 40
-190.58409 -155.50165 14.947897 47 58 65
-190.2621 -155.4709 14.97072 61 70 72
-190.09395 -155.521 14.952394 59 64 67
-189.92999 -155.55527 14.959874 55 66 65
-189.53015 -155.50127 14.89739 46 57 56
-189.31314 -155.5739 14.924096 48 55 56
-188.93954 -155.55893 14.934213 64 72 74
-188.0759 -155.44894 14.857329 44 57 69
-187.9429 -155.46153 14.860846 114 126 140
-195.30589 -155.3504 14.983853 93 100 114
-195.05139 -155.25853 14.94706 53 63 73
-194.9223 -155.22121 14.981138 56 62 70
-194.75749 -155.21481 14.988977 48 55 64
-194.17635 -155.30022 14.906581 88 95 103
-193.92545 -155.25409 14.903734 122 128 142
-193.28697 -155.30067 14.964027 131 128 142
-193.15974 -155.2901 14.96093 63 73 79
-192.1189 -155.33453 14.969978 74 75 79
-192 -155.25903 14.960135 59 57 62
-191.66261 -155.22768 14.98609 47 52 55
-190.45941 -155.35596 14.956777 51 62 63
-190.39232 -155.27074 14.962328 43 53 55
-189.80212 -155.21162 14.953637 54 55 57
-189.71826 -155.29422 14.985403 56 61 63
-189.52534 -155.32281 14.931747 59 67 65
-188.28406 -155.33469 14.899247 44 54 54
-194.53258 -155.06448 14.945466 73 82 88
-194.36543 -155.09827 14.9504 62 73 76
-193.91978 -155.17303 14.940277 119 126 133
-193.31442 -155.1059 14.952832 98 98 107
-193.17766 -155.12959 14.950679 124 124 138
-190.53133 -155.0844 14.996122 74 83 82
-190.31386 -155.12476 14.967269 55 63 61
-189.72827 -155.14435 14.894561 57 59 58
-188.23692 -155.07394 14.987627 50 62 64
-194.34584 -154.98535 14.972347 52 61 66
-193.09904 -154.88522 14.934334 135 127 142
-191.47565 -154.92967 14.917397 60 60 70
-190.45789 -154.89862 14.985489 110 88 100
-189.68781 -154.89322 14.981526 35 44 42
-189.24365 -154.8252 14.952771 56 61 65
-188.68863 -154.83452 14.962986 58 71 72
-188.27032 -154.94592 14.864414 53 53 56
-188.14154 -154.99654 14.918393 45 53 56
-193.37437 -154.70872 14.972829 140 138 148
-193.056 -154.77367 14.966057 161 141 153
-192.44109 -154.73746 14.97234 91 91 101
-192.0551 -154.70129 14.972437 77 71 74
-191.96286 -154.7149 14.994467 129 124 144
-189.53647 -154.65895 14.968393 49 59 59
-189.33224 -154.78516 14.918553 67 75 78
-189.17065 -154.76062 14.987799 85 87 86
-188.61684 -154.77672 14.969839 39 55 56
-188.24442 -154.68048 14.890844 127 142 149
-193.33569 -154.57899 14.986848 125 119 130
-193.15407 -154.53899 14.982449 131 131 142
-190.74356 -154.48228 14.999823 59 69 70
-189.05702 -154.40582 14.983593 55 69 69
-188.62471 -154.42984 14.94165 33 51 51
-194.24156 -154.2784 14.991248 61 71 72
-193.43326 -154.38823 14.9972 53 53 63
-193.00395 -154.37569 14.996361 87 86 91
-191.70509 -154.26462 14.97803 37 48 44
-191.55319 -154.32346 14.946875 39 48 43
-190.90854 -154.33142 14.966311 83 81 82
-189.60365 -154.38217 14.987028 59 70 66
-193.65057 -154.07306 14.993246 79 86 94
-189.5361 -154.15915 14.987712 76 87 91
-188.16664 -153.88411 14.970139 64 71 87
-188.72124 -153.62216 14.979973 40 53 62
-188.44394 -153.75311 14.975056 49 64 69
-190.72981 -153.51526 14.958183 93 98 115
-190.06554 -153.38391 14.965388 61 70 77
-195.71155 -152.63124 14.980183 44 54 63
-195.36948 -152.28134 14.98091 74 78 90
-195.65485 -152.18422 14.894339 49 56 63
-195.4183 -152.06282 14.989363 41 50 58
-195.35191 -152.0143 14.995333 44 55 61
-194.77983 -151.70219 14.942066 50 49 65
-194.22488 -151.48212 14.994295 66 72 88
-195.18777 -151.37852 14.945498 69 66 85
-194.77077 -151.33203 14.974504 65 62 83
-191.63538 -160.5126 15.044896 32 48 50
-191.57706 -160.49464 15.129683 57 68 74
-191.07845 -160.45464 15.042814 26 41 44
-191.84821 -160.28041 15.103053 40 54 55
-191.48071 -160.3136 15.126356 40 55 54
-191.22997 -160.36057 15.127968 62 67 70
-190.88989 -160.27939 15.071749 36 52 49
-191.5446 -160.09229 15.145651 54 63 66
-191.48975 -159.8782 15.108522 46 54 57
-192.35399 -159.60341 15.135607 46 59 57
-191.68903 -159.73 15.102458 41 55 54
-191.58681 -159.62175 15.143332 36 52 55
-192.47496 -159.44649 15.176661 47 61 64
-192.02823 -159.52274 15.107375 42 57 56
-191.74426 -159.44215 15.142939 46 57 59
-191.86914 -159.39275 15.120337 47 59 63
-191.20021 -159.26604 15.0474 44 51 57
-190.8058 -159.23453 15.072441 151 164 172
-190.69908 -159.31906 15.087127 55 66 77
-190.58643 -159.28177 15.070524 121 139 149
-192.52191 -159.19141 15.188332 72 86 87
-191.69147 -159.15601 15.114059 37 49 47
-191.42012 -159.13235 15.13089 35 46 40
-190.8876 -159.09839 15.048141 93 103 119
-190.65526 -159.15329 15.128681 59 71 79
-192.01129 -158.8007 15.09112 48 56 55
-191.98201 -158.86566 15.082152 31 44 41
-191.00406 -158.98468 15.16868 60 70 82
-190.87105 -158.86969 15.093852 107 113 128
-190.73177 -158.88481 15.080169 79 88 104
-190.45302 -158.89897 15.042115 60 75 77
-190.32671 -158.83597 15.113358 53 64 64
-190.15945 -158.83311 15.070618 54 64 65
-192.04901 -158.69005 15.088201 42 53 52
-191.96339 -158.75554 15.110508 44 53 53
-190.89151 -158.77983 15.159405 99 106 118
-190.72934 -158.70551 15.105942 61 63 72
-190.24933 -158.70125 15.10702 72 83 79
-190.12589 -158.69388 15.070902 47 57 59
-189.97635 -158.61821 15.13077 36 48 48
-192.24292 -158.42082 15.078794 66 74 70
-192.07146 -158.47389 15.069252 45 55 59
-191.96208 -158.51698 15.093898 33 44 43
-190.73189 -158.42264 15.139763 44 50 50
-190.29871 -158.48747 15.076545 76 88 94
-190.07227 -158.51608 15.106784 55 66 69
-189.97746 -158.4966 15.138224 47 60 60
-193.11252 -158.22191 15.085773 34 56 61
-192.81653 -158.31023 15.146252 30 42 45
-192.79362 -158.24686 15.152222 43 53 54
-192.50058 -158.27028 15.090022 40 59 64
-192.28365 -158.27028 15.098819 64 75 82
-192.185 -158.29088 15.08573 48 61 62
-191.86293 -158.28075 15.099791 49 59 66
-191.73044 -158.29536 15.116761 97 106 117
-190.42462 -158.34772 15.184173 60 80 91
-190.22762 -158.34132 15.078707 47 62 66
-190.09839 -158.30664 15.130116 45 58 60
-189.92688 -158.32394 15.132897 41 55 57
-189.76199 -158.21996 15.174307 39 50 52
-193.53374 -158.09897 15.116656 45 64 68
-193.29094 -158.16777 15.130032 42 63 68
-193.09125 -158.15723 15.116512 72 91 95
-192.95618 -158.11267 15.169273 41 56 59
-192.68422 -158.09856 15.144299 44 59 61
-192.49939 -158.09538 15.088486 41 55 58
-192.26604 -158.11377 15.094401 42 55 60
-192.11978 -158.09894 15.108015 56 68 71
-191.88792 -158.03041 15.018973 77 84 95
-191.68716 -158.0723 15.123677 98 106 122
-191.53307 -158.06885 15.056901 121 134 148
-190.4404 -158.10196 15.051167 118 131 147
-190.30807 -158.02148 15.109295 108 111 130
-190.09268 -158.08691 15.123922 53 65 68
-189.94748 -158.13071 15.057634 46 57 58
-193.56485 -157.95172 15.192106 44 59 64
-193.14278 -157.89819 15.0137 24 33 42
-192.93546 -157.91327 15.106623 43 58 62
-192.76659 -157.82588 15.094597 36 54 54
-192.52817 -157.95914 15.10111 40 54 56
-192.27086 -157.83017 15.167059 48 56 58
-192.09218 -157.91971 15.113171 64 77 87
-191.89722 -157.8609 15.082947 51 62 73
-191.68932 -157.87056 15.06747 64 75 83
-191.49979 -157.93317 15.075924 89 99 106
-190.09845 -157.9352 15.082893 38 50 50
-189.936 -157.97101 15.178982 29 43 44
-189.38322 -157.93359 15.082359 34 45 47
-194.2242 -157.73344 15.057929 40 53 69
-194.00615 -157.61911 15.182057 37 49 49
-193.47939 -157.65564 15.098056 39 53 55
-193.30853 -157.63914 15.067727 41 57 60
-193.13609 -157.67221 15.083946 40 54 56
-192.89874 -157.72989 15.061274 40 56 55
-192.73105 -157.6954 15.136538 44 58 61
-192.57103 -157.64743 15.101944 56 64 71
-192.30441 -157.68185 15.075995 57 72 80
-192.07254 -157.67883 15.084818 58 71 84
-191.85875 -157.72112 15.13291 66 78 90
-191.72716 -157.72578 15.10167 62 74 83
-191.5396 -157.69534 15.100176 50 60 70
-194.44168 -157.53049 15.053768 78 82 91
-194.26575 -157.49446 15.115281 121 134 145
-194.08815 -157.46936 15.13588 52 53 68
-193.938 -157.46451 15.131332 43 47 58
-193.69217 -157.44873 15.078836 64 73 81
-193.54054 -157.49496 15.108315 41 51 55
-193.29007 -157.54533 15.099134 43 57 61
-193.11697 -157.53581 15.097317 41 56 58
-192.90018 -157.53728 15.092516 41 55 56
-192.75534 -157.48944 15.096797 49 59 65
-192.4738 -157.49318 15.125828 39 50 57
-192.29004 -157.50162 15.094769 60 69 77
-192.10803 -157.46938 15.114194 69 78 91
-191.90102 -157.52547 15.093523 78 89 107
-191.70967 -157.50348 15.136727 78 90 103
-191.53958 -157.48413 15.134948 82 97 105
-190.68105 -157.45819 15.172553 54 62 75
-193.94566 -157.26822 15.027289 111 110 125
-193.72662 -157.37099 15.140423 58 72 78
-193.53194 -157.3224 15.079572 90 99 103
-193.27635 -157.30649 15.082526 37 46 46
-192.67863 -157.3618 15.123496 57 69 75
-192.49709 -157.31508 15.110123 69 79 87
-192.28435 -157.27216 15.107064 81 89 104
-192.09134 -157.34854 15.098421 107 114 133
-191.91411 -157.33455 15.123829 85 94 107
-191.69621 -157.30685 15.140882 74 85 97
-191.52519 -157.35054 15.134959 46 61 64
-193.81097 -157.06992 15.171129 48 55 65
-193.66451 -157.05402 15.128428 59 66 74
-193.32118 -157.11658 15.085495 59 67 64
-192.82912 -157.16447 15.021434 48 65 72
-192.67517 -157.0246 15.100356 45 56 68
-192.4886 -157.08809 15.110368 60 73 86
-192.28197 -157.12621 15.071192 73 82 99
-192.09885 -157.09958 15.073584 114 122 142
-191.88104 -157.09256 15.116357 70 78 87
-191.76938 -157.0773 15.139329 70 81 84
-190.94342 -157.15654 15.127672 34 47 55
-190.78813 -157.02863 15.193007 30 43 51
-194.04236 -156.8699 15.183073 116 117 136
-193.92563 -156.9041 15.039009 47 56 67
-193.71542 -156.81926 15.097064 92 90 101
-193.23914 -156.89331 15.099705 28 39 36
-193.06003 -156.81705 15.047266 108 107 112
-192.61003 -156.85895 15.124513 52 63 77
-192.47375 -156.92525 15.076473 61 70 83
-192.33716 -156.91722 15.069878 63 73 84
-192.09152 -156.92313 15.103344 96 105 120
-191.89211 -156.8719 15.113483 87 93 104
-191.71419 -156.87094 15.116845 61 70 77
-191.10701 -156.88618 15.132426 69 75 91
-190.54185 -156.83904 15.097195 89 90 93
-190.14839 -156.84015 15.006321 35 45 44
-193.7034 -156.62514 15.053332 49 53 63
-193.29736 -156.69402 15.115894 64 72 72
-193.10585 -156.67017 15.070958 82 84 95
-192.87947 -156.67433 15.074235 125 126 137
-192.68642 -156.65414 15.094875 77 81 86
-192.50632 -156.67628 15.085802 71 76 86
-192.2728 -156.7457 15.116961 67 76 89
-192.07489 -156.68811 15.127215 47 55 69
-191.92303 -156.72691 15.085283 55 66 77
-191.68849 -156.69989 15.082733 53 64 71
-191.49655 -156.68785 15.093754 56 65 67
-191.29964 -156.63884 15.07256 47 57 61
-191.09824 -156.64415 15.036678 49 50 70
-190.88655 -156.6434 15.138628 69 72 85
-190.73717 -156.66895 15.129335 71 74 80
-190.54634 -156.6597 15.124697 76 73 82
-190.26999 -156.64601 15.053399 47 59 60
-190.1841 -156.74843 15.173482 71 81 82
-189.2793 -156.61679 15.117626 86 94 97
-194.30576 -156.44305 15.076212 61 65 77
-194.19342 -156.41963 15.035655 52 58 72
-193.82281 -156.4686 15.150585 112 109 118
-193.75284 -156.46283 15.081387 58 63 71
-193.5011 -156.49149 15.068141 64 66 74
-193.28308 -156.44666 15.114187 105 104 117
-193.09398 -156.48486 15.109041 113 114 129
-192.88426 -156.50352 15.128629 104 106 116
-192.7001 -156.51276 15.097807 92 94 104
-192.50217 -156.50804 15.105336 101 102 114
-192.31929 -156.4763 15.096313 98 102 112
-192.14668 -156.45067 15.088565 72 76 83
-191.90073 -156.50497 15.077436 53 58 65
-191.69681 -156.46768 15.116526 45 53 53
-191.52164 -156.55917 15.14139 42 54 57
-191.29195 -156.48062 15.120066 56 66 69
-191.13686 -156.49672 15.114336 70 78 87
-190.89729 -156.47183 15.103088 78 83 88
-190.69557 -156.45409 15.155597 63 71 74
-190.59122 -156.47733 15.135479 60 72 72
-188.60208 -156.53563 15.08526 109 127 131
-194.81358 -156.38101 15.009018 63 69 83
-194.47632 -156.21312 15.15593 50 53 72
-194.28839 -156.27408 15.099836 87 86 103
-194.14052 -156.30608 15.093935 65 67 78
-193.95728 -156.354 15.103749 72 77 83
-193.67163 -156.32576 15.092146 52 57 63
-193.49098 -156.32101 15.125482 64 65 76
-193.28566 -156.33104 15.090652 94 96 109
-193.10167 -156.29279 15.114696 103 107 120
-192.89 -156.28246 15.122132 105 109 119
-192.69228 -156.30269 15.127185 112 113 124
-192.5007 -156.29939 15.093112 120 114 128
-192.31898 -156.31755 15.07775 114 111 122
-192.11069 -156.31915 15.142042 96 96 102
-191.92329 -156.33398 15.12585 87 93 97
-191.68674 -156.35037 15.117261 58 62 66
-191.55408 -156.28711 15.12972 54 57 62
-191.32703 -156.29602 15.116018 62 65 76
-191.10236 -156.31772 15.113199 59 67 74
-190.88112 -156.31653 15.107651 74 79 92
-190.67432 -156.31032 15.131774 77 78 90
-190.49133 -156.30493 15.07398 71 75 84
-189.85423 -156.21118 15.09259 24 38 38
-196.17046 -156.09731 15.114729 45 54 59
-194.62683 -156.17197 15.064678 74 75 98
-194.49368 -156.08075 15.121727 60 66 80
-194.2903 -156.14549 15.097868 97 96 118
-194.15318 -156.12547 15.122869 92 95 109
-193.9568 -156.04025 15.061874 72 82 84
-193.7114 -156.13733 15.183939 29 39 31
-193.43015 -156.04785 15.0765 61 52 71
-193.2756 -156.10924 15.091765 73 78 89
-193.08636 -156.12193 15.106057 85 89 101
-192.89218 -156.11397 15.09929 103 109 120
-192.6954 -156.11308 15.110701 116 119 130
-192.50299 -156.10822 15.111835 127 121 135
-192.2601 -156.13327 15.122152 129 115 125
-192.11011 -156.07243 15.121463 102 99 103
-191.47787 -156.1012 15.132595 69 71 78
-191.25041 -156.11642 15.1156 100 103 112
-190.92209 -156.10938 15.117619 34 45 54
-190.68529 -156.10036 15.108385 81 88 98
-190.52592 -156.11169 15.148272 87 96 105
-190.32541 -156.07065 15.068153 61 66 70
-189.80496 -156.03331 15.190048 42 50 53
-189.70125 -156.08391 15.143806 64 71 75
-187.71288 -156.11037 15.085263 69 81 89
-187.56868 -156.18425 15.057717 110 120 133
-196.22867 -155.84625 15.085587 57 63 73
-196.13895 -155.90065 15.106203 43 41 46
-194.67963 -155.82567 15.018423 67 65 86
-194.25967 -155.89828 15.092145 79 84 99
-194.12975 -155.91357 15.117813 82 88 100
-193.97057 -155.87541 15.119854 93 102 109
-193.60941 -155.95628 15.122965 57 58 73
-193.43707 -155.85559 15.186201 87 70 98
-193.28381 -155.94604 15.077564 126 122 142
-193.10448 -155.89064 15.088373 109 108 122
-192.90797 -155.89796 15.114375 122 122 135
-192.69978 -155.87166 15.08888 112 113 122
-192.51947 -155.89639 15.090943 113 116 125
-192.3221 -155.92744 15.097307 115 111 120
-192.10789 -155.86014 15.125535 84 89 93
-191.97012 -155.90988 15.172122 67 71 72
-191.21295 -155.95259 15.056128 91 84 97
-191.11703 -155.89186 15.116987 83 82 89
-190.93044 -155.90523 15.067718 47 56 59
-190.65268 -155.9549 15.113041 89 98 104
-190.52199 -155.89682 15.12158 72 83 88
-190.32379 -155.96355 15.132401 54 66 69
-190.10074 -155.86894 15.117666 55 65 67
-189.88486 -155.92584 15.100925 78 85 96
-189.70583 -155.87756 15.117172 51 63 64
-189.5318 -155.89496 15.099657 45 55 53
-188.73497 -155.94286 15.180433 146 139 157
-187.86671 -155.88666 15.120088 68 78 82
-187.71574 -155.91887 15.100474 75 82 88
-195.65938 -155.60135 15.020753 52 54 66
-194.85002 -155.7354 15.106813 48 57 70
-194.68336 -155.69983 15.080531 63 69 79
-194.58705 -155.65871 15.176649 51 56 63
-194.28331 -155.67911 15.123602 77 81 93
-194.1147 -155.68684 15.122853 79 87 94
-193.45457 -155.6947 15.089304 99 100 108
-193.29483 -155.69022 15.085333 128 126 139
-193.08516 -155.6978 15.111052 99 101 110
-192.87344 -155.75201 15.150702 122 121 132
-192.68997 -155.72768 15.13485 114 111 122
-192.48535 -155.74989 15.128235 98 101 113
-192.31709 -155.71248 15.108585 99 101 110
-192.13254 -155.70187 15.092319 108 113 120
-191.97386 -155.7236 15.097636 88 98 96
-191.32021 -155.75293 15.111187 80 80 89
-191.04199 -155.68452 15.119736 62 70 78
-190.93721 -155.73592 15.148648 66 71 76
-190.68561 -155.67725 15.106699 54 63 68
-190.49179 -155.71698 15.1179 73 81 90
-190.30096 -155.66614 15.111942 57 65 70
-190.08348 -155.64775 15.108093 59 66 69
-189.92375 -155.73256 15.088641 49 61 63
-189.69652 -155.74809 15.092834 57 69 72
-189.45593 -155.72343 15.141764 60 64 66
-189.30933 -155.71626 15.034077 64 69 70
-188.13591 -155.69247 15.091394 98 107 104
-187.89955 -155.66573 15.101079 50 60 68
-187.76202 -155.73975 15.10779 117 115 123
-195.63452 -155.49567 15.078959 62 67 78
-195.57428 -155.43323 15.093866 89 99 116
-195.34805 -155.46991 15.109341 36 45 53
-194.99068 -155.42831 15.134453 54 60 66
-194.56346 -155.50764 15.187786 90 97 103
-194.28256 -155.51848 15.102512 72 74 87
-194.09393 -155.50017 15.120049 90 92 100
-193.91656 -155.46696 15.119331 68 74 90
-193.4771 -155.47365 15.083509 28 36 39
-193.29929 -155.52983 15.08687 99 99 105
-193.12779 -155.51273 15.078251 120 121 130
-192.9799 -155.51405 15.114841 68 71 76
-192.65186 -155.57648 15.188331 101 94 102
-192.45528 -155.43388 15.139923 108 106 118
-192.3035 -155.44014 15.116488 122 118 131
-192.11557 -155.47812 15.154745 82 85 87
-191.90524 -155.4493 15.138054 86 90 92
-191.42525 -155.41393 15.072716 41 39 44
-191.35916 -155.44923 15.117042 144 138 140
-191.02402 -155.59601 15.025061 23 34 38
-190.90123 -155.49686 15.104795 43 51 55
-190.66939 -155.51953 15.125895 42 53 54
-190.53038 -155.48091 15.132092 47 56 60
-190.29767 -155.52208 15.102691 56 64 69
-190.09935 -155.5537 15.097319 55 63 66
-189.96341 -155.51891 15.123128 50 60 62
-189.67961 -155.46921 15.078321 48 57 60
-189.53539 -155.51495 15.105497 76 78 80
-189.29648 -155.49442 15.089697 38 45 43
-189.05344 -155.53427 15.183273 33 43 46
-188.94336 -155.49059 15.10802 65 75 76
-188.01369 -155.49745 15.10588 85 96 103
-187.93434 -155.43674 15.093682 117 109 124
-187.688 -155.50111 15.136703 131 140 151
-195.67052 -155.29739 15.081912 66 69 82
-195.46117 -155.26891 15.092232 70 78 95
-195.2683 -155.25587 15.128314 88 94 106
-195.19925 -155.37807 15.078859 45 53 59
-194.65532 -155.22157 15.058211 39 48 53
-194.43506 -155.3237 15.066024 67 76 82
-194.26607 -155.27228 15.11154 68 74 86
-194.11514 -155.32011 15.125234 93 101 108
-193.7906 -155.30193 15.177996 46 50 59
-193.49823 -155.22205 15.117661 149 149 157
-193.27882 -155.29897 15.093657 103 99 113
-193.06497 -155.31285 15.097605 115 119 125
-192.96138 -155.26317 15.15235 104 101 107
-192.63533 -155.2498 15.187752 125 129 140
-192.47095 -155.27773 15.120299 124 122 136
-192.2998 -155.33675 15.121297 116 112 124
-192.07271 -155.30988 15.09446 79 79 83
-191.89566 -155.30692 15.093176 66 70 73
-191.79686 -155.327 15.180385 75 81 85
-191.41461 -155.22684 15.091139 64 63 69
-191.28085 -155.31137 15.14771 79 83 87
-191.19429 -155.36646 15.070539 110 117 122
-190.8515 -155.37238 15.158412 51 57 70
-190.66005 -155.3456 15.164827 83 90 98
-190.48708 -155.26799 15.140141 49 59 62
-190.29123 -155.28011 15.137019 51 60 60
-190.12727 -155.31631 15.063579 49 59 60
-189.75652 -155.31453 15.048738 104 109 115
-189.51315 -155.2533 15.06719 38 45 46
-189.18518 -155.22577 15.181925 24 39 36
-188.49004 -155.306 15.105713 40 51 55
-188.2504 -155.38327 15.08767 105 109 121
-188.08484 -155.26254 15.119879 87 95 102
-187.92258 -155.31511 15.131151 92 99 107
-187.74236 -155.32329 15.119606 107 102 109
-195.74544 -155.136 15.156942 118 117 131
-195.2863 -155.18756 15.099025 85 89 102
-195.13326 -155.18237 15.078938 64 69 78
-194.85236 -155.1272 15.158756 60 67 77
-194.67741 -155.06558 15.128609 58 65 72
-194.47552 -155.091 15.074667 60 68 75
-194.28175 -155.12363 15.119645 73 81 89
-194.08051 -155.11314 15.122647 87 91 103
-193.92548 -155.09355 15.106718 101 106 116
-193.74155 -155.16777 15.156643 94 94 110
-193.43652 -155.09279 15.070442 114 113 125
-193.28233 -155.08257 15.086266 165 157 168
-193.09195 -155.09642 15.092472 104 108 117
-192.94458 -155.11249 15.113451 76 77 86
-192.47229 -155.0773 15.17737 117 110 119
-192.04787 -155.1501 15.102921 117 108 113
-191.92822 -155.13055 15.104752 90 86 92
-191.74905 -155.10068 15.089415 69 72 74
-191.53467 -155.04495 15.143888 60 66 73
-191.32259 -155.13567 15.151547 79 78 86
-191.16026 -155.13188 15.199728 93 98 102
-190.62927 -155.04773 15.077971 64 66 68
-190.50078 -155.07817 15.054003 49 60 59
-190.27954 -155.11378 15.082923 63 69 71
-190.10263 -155.09244 15.091745 54 59 62
-189.91425 -155.12547 15.076096 56 60 63
-189.72786 -155.08688 15.087091 75 80 79
-189.43909 -155.02757 15.102776 59 67 69
-188.23767 -155.13333 15.17345 38 50 51
-188.08179 -155.08603 15.11666 75 84 93
-194.87032 -154.86021 15.157249 51 54 69
-194.73589 -154.89629 15.151345 70 75 89
-194.51402 -154.93784 15.133594 63 71 80
-194.2886 -154.86191 15.054451 121 119 131
-194.10788 -154.86569 15.136569 106 112 122
-193.94415 -154.90163 15.13166 68 76 83
-193.54666 -154.84085 15.152641 97 88 119
-193.30785 -154.89404 15.115047 144 139 151
-193.09267 -154.91307 15.099757 119 119 129
-192.92767 -154.87836 15.124032 100 105 115
-192.42339 -154.9966 15.151767 168 162 173
-192.07924 -154.84468 15.122198 149 143 157
-191.95689 -154.84 15.151975 77 73 88
-191.71826 -154.87375 15.154674 77 71 81
-191.4986 -154.88092 15.12478 76 75 82
-191.35356 -154.85146 15.145605 78 77 83
-191.07513 -154.91296 15.123485 71 73 77
-190.67697 -154.92451 15.165148 54 58 61
-190.52087 -154.89774 15.109575 68 67 70
-190.24663 -154.85609 15.145837 91 87 87
-190.0632 -154.94727 15.103691 74 75 78
-189.82951 -154.90469 15.113873 73 78 79
-189.68745 -154.89922 15.098946 48 56 56
-189.46619 -154.91643 15.087784 51 60 62
-189.36243 -154.89282 15.088717 61 69 73
-188.58447 -154.85799 15.045401 47 57 58
-188.24292 -154.9736 15.186258 61 75 78
-188.14554 -154.90292 15.108397 50 60 63
-194.44821 -154.79321 15.057674 52 55 64
-194.21693 -154.63654 15.097741 91 94 102
-194.10564 -154.75163 15.121356 93 96 105
-193.91245 -154.73708 15.18209 82 86 95
-193.62274 -154.65036 15.166981 78 72 95
-193.43539 -154.66351 15.150697 142 139 149
-193.31622 -154.67621 15.127615 128 125 136
-193.05345 -154.67725 15.109317 137 134 141
-192.92027 -154.70728 15.102072 103 100 107
-192.69209 -154.65514 15.12825 82 80 88
-192.47891 -154.6759 15.136254 87 82 89
-192.28984 -154.67783 15.101282 80 77 81
-192.10266 -154.70454 15.136045 78 77 84
-191.9218 -154.70512 15.131798 74 73 80
-191.68213 -154.73264 15.123049 90 82 90
-191.51828 -154.69847 15.132846 59 57 63
-191.29054 -154.69859 15.138844 87 81 89
-191.12172 -154.69678 15.175484 82 80 89
-190.86855 -154.70119 15.15237 62 64 68
-190.73471 -154.67665 15.08596 56 60 62
-190.50508 -154.69682 15.100827 50 56 58
-190.22379 -154.76178 15.01998 84 82 83
-189.89539 -154.65469 15.150303 31 40 38
-189.67126 -154.72049 15.131813 56 62 62
-189.52122 -154.68633 15.12422 63 70 73
-189.29051 -154.64429 15.034423 71 77 79
-189.17294 -154.77217 15.033495 98 113 110
-188.65736 -154.62303 15.139704 39 51 52
-188.45717 -154.72395 15.148104 40 55 57
-188.20929 -154.76952 15.112357 74 71 78
-188.17676 -154.66841 15.188771 79 78 92
-194.45761 -154.43372 15.159962 92 94 106
-194.28841 -154.47119 15.107779 68 76 83
-194.17097 -154.52562 15.078873 75 79 87
-193.46545 -154.50824 15.112253 83 81 92
-193.30171 -154.51318 15.156606 132 124 140
-193.14218 -154.46971 15.117466 127 123 135
-192.90517 -154.50227 15.135045 80 73 81
-192.71352 -154.53473 15.150686 89 82 90
-192.51202 -154.50902 15.124561 95 92 97
-192.27339 -154.49034 15.076298 88 80 85
-192.12047 -154.46216 15.113836 95 88 98
-191.90805 -154.47781 15.167233 84 83 89
-191.69948 -154.47231 15.144452 88 90 97
-191.49236 -154.51823 15.146313 56 57 63
-191.29671 -154.51588 15.131038 88 81 86
-191.10017 -154.49138 15.14077 68 67 70
-190.90727 -154.4958 15.138444 62 64 67
-190.74086 -154.50133 15.133931 55 59 61
-190.50037 -154.56879 15.157743 88 87 90
-190.31865 -154.51357 15.057831 60 59 59
-189.88795 -154.507 15.167026 37 49 46
-189.71399 -154.51282 15.124784 55 64 64
-189.50409 -154.49411 15.126642 67 74 73
-189.31366 -154.50047 15.136346 58 67 66
-189.17285 -154.43808 15.055428 68 79 80
-188.69934 -154.58786 15.082053 63 77 80
-188.52821 -154.46846 15.128415 50 64 68
-188.08676 -154.47 15.116421 32 46 47
-194.45193 -154.34637 15.172941 91 92 113
-194.25328 -154.29987 15.120884 95 102 110
-194.12521 -154.33655 15.122847 61 69 76
-193.29054 -154.33589 15.140271 109 105 119
-193.07806 -154.33339 15.130727 121 116 127
-192.89328 -154.29274 15.123755 84 80 83
-192.68887 -154.30753 15.166895 106 92 99
-192.49629 -154.32449 15.157837 85 81 83
-192.30208 -154.30927 15.144802 71 67 69
-192.09311 -154.34102 15.124373 99 89 98
-191.85237 -154.25548 15.128317 79 84 92
-191.65849 -154.30496 15.137258 44 54 55
-191.46594 -154.304 15.11823 56 62 65
-191.2749 -154.34113 15.114464 59 64 66
-191.07199 -154.31805 15.144073 52 60 61
-190.92522 -154.33374 15.132217 45 55 53
-190.69035 -154.2872 15.143437 65 70 73
-190.51323 -154.27812 15.15153 66 70 75
-190.24385 -154.39951 15.044562 59 63 66
-190.09897 -154.28076 15.183241 41 52 50
-189.87885 -154.30101 15.144585 46 56 58
-189.74031 -154.29114 15.147774 78 82 86
-189.49809 -154.31184 15.118836 61 69 67
-189.3187 -154.33664 15.06139 50 59 58
-189.13095 -154.28041 15.120834 81 90 90
-188.8748 -154.37018 15.130274 69 77 80
-188.70735 -154.21507 15.151174 37 52 55
-188.10535 -154.29901 15.10697 25 32 33
-187.9431 -154.3313 15.13136 78 80 87
-194.46806 -154.04988 15.13458 58 62 70
-194.29338 -154.13213 15.125259 68 77 83
-193.68802 -154.12347 15.043663 122 118 142
-193.5345 -154.07149 15.116093 100 105 126
-193.28131 -154.09782 15.121007 85 84 97
-193.08916 -154.11176 15.168074 124 117 115
-192.82971 -154.15865 15.100621 45 48 48
-192.69211 -154.10666 15.165715 64 60 61
-192.51259 -154.07967 15.157188 77 74 75
-192.30017 -154.13727 15.142641 75 74 73
-192.14912 -154.10468 15.153272 83 80 85
-191.9082 -154.0827 15.164022 159 151 172
-191.73328 -154.16661 15.143231 53 62 65
-191.57501 -154.17995 15.0987 55 67 65
-191.31357 -154.17314 15.147728 38 50 43
-191.11333 -154.13417 15.163704 25 38 38
-190.85907 -154.12798 15.137839 95 100 103
-190.72546 -154.02649 15.155432 74 75 77
-190.5011 -154.12471 15.145077 31 38 43
-190.36182 -154.11533 15.123801 61 67 79
-190.11421 -154.138 15.157153 77 80 84
-189.8736 -154.12631 15.173231 75 80 85
-189.67146 -154.10555 15.129578 63 69 70
-189.49878 -154.09575 15.126777 72 80 80
-189.28941 -154.12776 15.159755 67 75 76
-189.16331 -154.12318 15.070543 58 64 64
-188.81461 -154.1729 15.067749 45 56 58
-188.72865 -154.16011 15.132895 50 63 65
-188.58487 -154.12708 15.093616 46 53 59
-188.0659 -154.07465 15.154051 35 44 50
-187.89519 -154.08429 15.146159 68 74 81
-187.73914 -154.105 15.154374 101 103 113
-196.88721 -153.931 15.173535 58 59 74
-194.46634 -153.90268 15.125158 69 78 83
-194.33696 -153.95358 15.120065 68 75 80
-193.90625 -153.93146 15.101462 57 55 77
-193.71553 -153.87418 15.132408 121 116 136
-193.47955 -153.87128 15.105773 108 110 130
-193.28935 -153.89676 15.121408 98 99 114
-193.08812 -153.88495 15.134549 98 91 100
-192.85667 -153.89479 15.194603 84 64 73
-192.74332 -153.90959 15.148304 94 80 77
-191.88557 -153.81126 15.159199 107 112 110
-191.69453 -153.86885 15.115451 154 154 163
-191.4912 -153.83768 15.11013 146 142 156
-191.36127 -153.86609 15.196051 54 54 64
-191.01456 -153.92442 15.125579 63 68 72
-190.93747 -153.92197 15.077737 46 54 55
-190.66881 -153.881 15.150474 49 58 63
-190.5251 -153.88571 15.16353 47 56 63
-190.26462 -153.91783 15.151785 52 58 64
-190.11859 -153.94611 15.091805 82 84 89
-189.89645 -153.8223 15.12226 73 77 82
-189.70663 -153.87796 15.1218 64 70 73
-189.49876 -153.88945 15.168892 74 80 82
-188.91185 -153.91281 15.122477 38 52 55
-188.68953 -153.89398 15.12352 63 72 81
-188.56561 -153.89989 15.154053 73 83 90
-188.07521 -153.87959 15.14136 89 95 106
-187.96902 -153.91911 15.14576 94 105 110
-187.67856 -153.96814 15.156356 90 95 99
-194.65575 -153.72449 15.107281 53 58 64
-194.41949 -153.62843 15.150068 179 180 198
-194.34383 -153.64876 15.117063 141 136 159
-194.18634 -153.63809 15.064939 149 149 175
-193.55701 -153.77243 15.084949 76 74 85
-193.27725 -153.71536 15.165338 114 111 127
-193.11446 -153.74062 15.177936 128 126 125
-192.75098 -153.67894 15.103082 121 114 118
-191.92236 -153.72571 15.165739 76 84 78
-191.69577 -153.69827 15.123078 110 114 117
-191.49463 -153.7075 15.149733 122 124 136
-190.96591 -153.73514 15.071109 55 61 65
-190.605 -153.72649 15.186663 49 60 66
-190.57881 -153.6875 15.095451 52 59 68
-190.30562 -153.68399 15.159745 87 93 99
-190.07089 -153.68849 15.158121 76 80 84
-189.91377 -153.70857 15.148572 90 94 97
-189.71703 -153.73766 15.143726 68 73 77
-189.5247 -153.66882 15.158404 65 70 73
-188.88315 -153.71768 15.130985 42 56 59
-188.66699 -153.69524 15.130751 84 91 92
-188.49469 -153.64594 15.110956 137 147 159
-188.01378 -153.78185 15.092373 74 79 88
-196.47571 -153.5022 15.090942 60 60 69
-196.29646 -153.47505 15.119956 55 61 70
-196.10861 -153.49203 15.078297 66 70 79
-195.82559 -153.42432 15.195419 52 56 62
-194.54027 -153.53346 15.004551 51 65 68
-194.24792 -153.45776 15.16066 153 149 170
-194.16277 -153.49757 15.127087 111 110 128
-193.98833 -153.54987 15.071613 78 80 103
-193.70117 -153.52917 15.135948 163 154 156
-192.47633 -153.55128 15.18205 82 84 89
-191.88206 -153.47699 15.163917 78 85 89
-191.67529 -153.51489 15.148295 114 122 132
-191.50912 -153.52296 15.14893 98 103 116
-191.33153 -153.41144 15.118903 47 56 51
-190.83864 -153.4174 15.030951 43 52 61
-190.43311 -153.56628 15.112445 83 81 95
-190.30267 -153.56805 15.134375 74 74 86
-190.05383 -153.50058 15.114864 45 55 59
-189.88855 -153.50534 15.17685 70 76 81
-189.70483 -153.47502 15.148817 65 70 74
-189.55473 -153.50401 15.138469 77 82 86
-189.0887 -153.44136 15.128474 57 65 71
-188.93936 -153.46359 15.121664 72 82 84
-188.68359 -153.45264 15.151225 55 64 72
-188.45215 -153.56696 15.183037 90 102 115
-187.80516 -153.47093 15.126434 87 86 84
-187.62833 -153.46396 15.025902 89 87 101
-194.25345 -153.308 15.188547 89 92 102
-192.95644 -153.22485 15.174314 80 81 83
-192.00848 -153.2045 15.185092 90 97 109
-191.84537 -153.32007 15.140127 66 70 84
-191.68654 -153.29111 15.168615 98 106 119
-191.49945 -153.34116 15.148 92 100 105
-191.0376 -153.30133 15.140617 45 49 52
-190.95363 -153.36996 15.088034 153 156 171
-190.75252 -153.22485 15.138576 34 44 53
-190.46803 -153.24403 15.141269 61 62 66
-190.3333 -153.27312 15.13065 62 64 67
-190.06319 -153.3329 15.02517 54 64 69
-189.91272 -153.24094 15.065176 58 67 73
-189.75342 -153.24504 15.114943 50 54 63
-189.49112 -153.28658 15.124059 70 76 80
-189.33301 -153.34888 15.13966 63 71 75
-188.89192 -153.30548 15.172008 70 77 80
-188.18292 -153.21356 15.105126 40 41 46
-187.80276 -153.26181 15.059183 54 63 73
-187.7368 -153.35103 15.070987 72 78 92
-196.08675 -153.14125 15.164321 88 85 94
-195.33611 -153.1132 15.141208 53 58 67
-194.21471 -153.11542 15.06288 200 197 226
-194.08984 -153.0842 15.106964 200 206 218
-193.08148 -153.11363 15.172216 106 105 101
-192.89783 -153.12427 15.171879 73 71 71
-191.93431 -153.02209 15.116834 64 68 77
-191.68924 -153.15503 15.144932 84 93 102
-191.57513 -153.1086 15.172674 98 106 109
-191.34932 -153.18051 15.15729 55 60 64
-191.06125 -153.14832 15.13973 153 146 175
-190.84422 -153.1653 15.107443 45 43 44
-190.45325 -153.02435 15.193573 36 44 46
-190.31735 -153.03239 15.186615 249 242 234
-190.15637 -153.17509 15.125129 72 69 76
-189.67175 -153.18114 15.103851 56 64 70
-189.50005 -153.15007 15.143613 63 65 67
-189.35379 -153.16574 15.169407 42 51 53
-189.022 -153.09869 15.147558 130 129 135
-195.89986 -152.93976 15.136559 69 73 81
-195.66306 -152.82666 15.132874 86 91 97
-192.06618 -152.91206 15.145078 71 76 94
-191.57805 -152.85437 15.178559 161 155 157
-191.33702 -152.87889 15.160299 77 57 56
-191.03345 -152.81973 15.190809 101 89 100
-190.91687 -152.91417 15.193514 149 136 145
-190.50113 -152.94182 15.1998 90 91 96
-189.90018 -152.87773 15.13017 50 58 54
-188.75092 -152.9407 15.190056 129 128 136
-188.54169 -152.80025 15.189932 44 48 49
-195.86987 -152.69083 15.164632 60 66 73
-192.16211 -152.76031 15.158027 52 57 72
-191.82071 -152.63423 15.182947 58 58 68
-191.76483 -152.7953 15.162739 49 53 65
-191.08443 -152.67274 15.159827 106 104 110
-190.83907 -152.76352 15.174195 157 150 168
-190.51944 -152.677 15.169542 136 135 138
-189.84145 -152.79007 15.154804 55 62 72
-189.70631 -152.64342 15.15563 114 106 113
-189.59941 -152.74811 15.114422 51 57 57
-188.52931 -152.7883 15.10803 85 80 77
-195.55316 -152.46342 15.051153 54 57 73
-194.65785 -152.43156 15.187475 157 147 155
-192.22444 -152.53076 15.178535 66 64 77
-192.08305 -152.47513 15.150664 67 68 84
-191.88565 -152.5674 15.184031 48 56 66
-191.02037 -152.55386 15.114592 180 172 183
-190.87192 -152.49692 15.173405 148 143 146
-189.49673 -152.45549 15.19199 84 87 87
-189.33603 -152.48453 15.174665 32 42 34
-195.90607 -152.24927 15.037497 56 62 75
-195.67175 -152.22215 15.182768 54 61 72
-195.23795 -152.3298 15.129727 41 52 58
-195.17238 -152.24414 15.137411 43 51 63
-192.86041 -152.31769 15.165211 107 104 135
-192.32799 -152.31758 15.187407 56 63 77
-192.03587 -152.30161 15.194538 52 54 67
-191.99648 -152.39525 15.152159 64 69 75
-188.71826 -152.33746 15.176819 104 108 119
-195.66197 -152.08795 15.153809 53 59 73
-195.506 -152.01888 15.024644 50 52 66
-195.3381 -152.16402 15.165438 39 48 57
-195.09203 -152.09789 15.175587 48 57 68
-193.2081 -152.17029 15.178524 52 60 70
-191.75272 -152.15419 15.195557 234 219 250
-190.93915 -152.07983 15.1717 112 111 115
-189.56467 -152.05684 15.182105 43 44 36
-195.49698 -151.90189 15.133541 58 61 74
-193.2352 -151.82593 15.1145 92 89 108
-193.17522 -151.99449 15.14465 90 96 108
-192.5811 -151.882 15.157625 63 64 82
-191.93343 -151.83662 15.19161 53 63 64
-191.13936 -151.98145 15.177979 63 67 66
-189.94429 -151.98065 15.194311 145 148 147
-189.58173 -151.96896 15.140173 59 57 58
-195.62999 -151.78183 15.009519 47 47 57
-195.55768 -151.74751 15.15696 55 59 69
-194.90892 -151.69522 15.040552 76 80 94
-194.64084 -151.67554 15.175441 59 60 71
-193.80463 -151.70966 15.10248 64 67 84
-192.26613 -151.74396 15.156558 59 60 77
