ply
format ascii 1.0
comment PCL generated
element vertex 1096
property float x
property float y
property float z
property uchar red
property uchar green
property uchar blue
element face 0
element camera 0
property float view_px
property float view_py
property float view_pz
property float x_axisx
property float x_axisy
property float x_axisz
property float y_axisx
property float y_axisy
property float y_axisz
property float z_axisx
property float z_axisy
property float z_axisz
property float focal
property float scalex
property float scaley
property float centerx
property float centery
property int viewportx
property int viewporty
property float k1
property float k2
end_header
-98.328636 -49.309372 25.283543 130 129 122
-98.16153 -49.279324 25.240049 121 122 113
-96.039169 -49.391235 25.243155 64 78 71
-95.869781 -49.332787 25.301178 108 110 108
-95.710236 -49.303417 25.307508 100 100 96
-95.504715 -49.284813 25.319443 130 124 119
-95.300911 -49.295197 25.301006 127 127 119
-95.079002 -49.29887 25.267313 136 133 131
-94.899246 -49.28648 25.32193 145 138 136
-94.702728 -49.276611 25.308935 128 118 115
-94.512939 -49.311779 25.311777 135 127 123
-94.297592 -49.277222 25.292027 119 117 112
-94.080841 -49.285515 25.330147 131 123 121
-93.896347 -49.315678 25.297913 125 126 121
-93.717415 -49.297012 25.300249 105 108 101
-93.566803 -49.343895 25.292202 93 97 91
-93.228539 -49.317467 25.305166 95 94 89
-93.125175 -49.329746 25.339521 112 112 105
-92.894783 -49.22649 25.250521 121 131 124
-92.684883 -49.296997 25.378588 104 109 101
-92.471329 -49.265392 25.312347 95 99 93
-92.279976 -49.277584 25.335989 116 118 113
-92.102631 -49.303963 25.316801 109 116 111
-91.911201 -49.30468 25.305635 122 127 124
-91.765617 -49.353619 25.312714 136 140 137
-91.253807 -49.323898 25.322884 142 145 142
-91.135437 -49.331867 25.287868 139 142 138
-90.946327 -49.265175 25.277885 136 140 138
-101.22527 -49.193623 25.235025 79 89 78
-100.93445 -49.107128 25.252468 100 102 91
-100.78823 -49.006393 25.2069 35 49 34
-100.00694 -49.101894 25.253265 110 113 102
-99.857208 -49.104488 25.296423 108 114 106
-99.663925 -49.124939 25.318031 106 108 105
-99.506561 -49.12944 25.330193 119 119 117
-99.375404 -49.152866 25.296251 133 131 128
-99.089287 -49.094643 25.366623 141 139 135
-98.920906 -49.158619 25.31584 131 133 127
-98.716438 -49.100906 25.341869 123 125 116
-98.481903 -49.105465 25.314327 120 122 111
-98.283386 -49.092827 25.288662 123 126 117
-98.128937 -49.071236 25.257118 111 112 105
-97.941849 -49.0989 25.281376 123 122 118
-95.956635 -49.166462 25.286728 59 74 63
-95.67701 -49.121353 25.282013 84 87 82
-95.484421 -49.111053 25.319477 110 109 103
-95.293869 -49.100819 25.304955 106 110 103
-95.089676 -49.083183 25.282017 125 121 119
-94.91655 -49.109741 25.294744 136 130 129
-94.704155 -49.108261 25.29283 126 124 121
-94.47831 -49.093658 25.320436 128 127 123
-94.317154 -49.08971 25.332319 120 122 119
-94.097603 -49.09594 25.33153 144 139 137
-93.891617 -49.093803 25.31023 116 117 112
-93.711754 -49.127594 25.294247 128 129 119
-93.090027 -49.084316 25.319489 177 180 173
-92.637207 -49.082439 25.355556 117 118 111
-92.489426 -49.079563 25.316072 107 113 106
-92.271683 -49.090961 25.334379 128 131 127
-92.106674 -49.083225 25.299698 106 113 110
-91.906342 -49.114269 25.301468 119 125 122
-91.682541 -49.059998 25.319723 121 126 123
-91.43248 -49.047916 25.278118 131 137 139
-91.266365 -49.123672 25.323305 120 124 121
-91.113548 -49.105293 25.271305 98 108 103
-90.922691 -49.121464 25.286737 107 116 114
-100.9722 -48.988308 25.21254 121 121 112
-100.62036 -48.830063 25.221397 54 66 54
-100.04471 -48.834248 25.308502 128 126 118
-99.910477 -48.84901 25.300514 101 101 93
-99.706345 -48.93306 25.343746 76 82 72
-99.523109 -48.860661 25.358122 94 96 88
-99.279251 -48.871849 25.37286 109 110 105
-99.093147 -48.902695 25.387007 118 121 117
-98.925377 -48.883167 25.372519 116 118 112
-98.6474 -48.893215 25.338961 122 125 110
-98.481514 -48.905468 25.311272 113 116 104
-98.293777 -48.926659 25.279182 117 120 111
-98.150085 -48.855804 25.252308 101 102 93
-97.946747 -48.899323 25.258249 89 93 86
-97.405952 -48.809521 25.328115 147 151 143
-97.286003 -48.830708 25.384724 143 147 143
-97.011879 -48.844257 25.255392 104 115 116
-96.812431 -48.842037 25.260332 98 103 106
-96.694725 -48.847538 25.331003 146 147 146
-96.530701 -48.853916 25.339411 147 147 146
-96.33213 -48.85025 25.287186 153 152 153
-96.190346 -48.818329 25.257217 149 152 157
-95.690422 -48.964748 25.321913 74 82 81
-95.503632 -48.928261 25.279551 85 96 86
-95.32103 -48.927307 25.279261 92 103 96
-95.079048 -48.925732 25.261925 98 104 100
-94.905609 -48.931927 25.31778 96 104 102
-94.66259 -48.900574 25.256874 108 110 106
-94.519073 -48.898968 25.319393 114 118 115
-94.300102 -48.911976 25.328995 124 128 124
-94.084015 -48.872208 25.297112 122 115 113
-93.901382 -48.864494 25.318501 120 116 109
-93.7323 -48.875744 25.280519 115 114 110
-93.550331 -48.897194 25.302067 74 77 74
-93.388123 -48.809578 25.274109 116 119 118
-92.641388 -48.883526 25.34651 111 122 114
-92.505577 -48.909607 25.321142 115 123 117
-92.293007 -48.924637 25.320599 106 115 110
-92.100937 -48.896469 25.296787 111 118 113
-91.889999 -48.905331 25.326864 134 137 136
-91.729591 -48.914127 25.280546 124 128 124
-91.540276 -48.902935 25.310221 133 136 131
-91.293015 -48.878704 25.300404 116 123 116
-91.040527 -48.973251 25.232456 93 105 99
-90.925934 -48.950958 25.220083 72 86 77
-100.30029 -48.705322 25.277294 109 113 108
-100.11272 -48.739719 25.29727 130 131 125
-99.901855 -48.754414 25.298992 117 119 110
-99.695518 -48.718742 25.343473 111 114 105
-99.487404 -48.696445 25.330786 97 102 93
-99.310295 -48.676586 25.321413 117 116 111
-99.100342 -48.693394 25.333315 108 108 102
-98.924873 -48.717194 25.351307 104 107 98
-98.674042 -48.73595 25.310251 119 119 105
-98.499176 -48.708515 25.305761 114 117 103
-98.272697 -48.682758 25.286381 113 116 106
-98.099831 -48.723125 25.277729 98 103 95
-97.992432 -48.746887 25.214146 96 102 96
-97.66877 -48.633957 25.336143 112 116 115
-97.452606 -48.726658 25.318035 139 144 144
-97.290131 -48.718342 25.299059 129 136 129
-97.108078 -48.700294 25.341656 117 124 120
-96.876137 -48.734394 25.310963 147 150 152
-96.679344 -48.718449 25.284754 130 136 134
-96.464584 -48.69017 25.297741 123 130 129
-96.326202 -48.664192 25.312851 122 125 122
-96.145691 -48.677162 25.353735 112 118 120
-95.410667 -48.797985 25.250759 100 107 100
-95.349991 -48.789715 25.263199 107 114 109
-95.008652 -48.741264 25.227982 88 101 100
-94.89473 -48.723259 25.299446 131 134 130
-94.696434 -48.731602 25.282213 105 101 98
-94.487129 -48.706703 25.284079 122 126 121
-94.350441 -48.751163 25.293661 119 123 118
-94.111374 -48.73991 25.29307 144 133 131
-93.920212 -48.685242 25.294865 111 109 102
-93.696571 -48.692993 25.301714 123 121 117
-93.474998 -48.648716 25.29524 106 106 103
-93.322319 -48.66433 25.306017 110 113 110
-93.124405 -48.661816 25.298161 77 83 76
-92.721024 -48.728081 25.309292 125 133 125
-92.472572 -48.708679 25.335363 129 136 130
-92.306099 -48.695114 25.283381 108 116 110
-92.13784 -48.691654 25.293884 118 122 120
-91.88488 -48.709362 25.34227 129 132 129
-91.715256 -48.714733 25.339832 143 145 139
-91.500275 -48.683804 25.327703 149 146 138
-91.325302 -48.678963 25.31039 149 147 144
-99.674934 -48.541866 25.30463 114 117 108
-99.510201 -48.521793 25.338087 101 106 98
-99.319199 -48.51622 25.320898 110 112 109
-99.103096 -48.537277 25.319815 132 130 131
-98.900177 -48.517704 25.306717 101 104 98
-98.468979 -48.510735 25.313393 120 120 110
-98.287949 -48.510788 25.312969 128 128 119
-98.142723 -48.50198 25.295313 113 115 108
-97.664955 -48.537949 25.371778 136 137 136
-97.526634 -48.512169 25.333271 123 129 129
-97.293976 -48.464966 25.282032 103 116 115
-97.085617 -48.541527 25.315638 105 113 106
-96.945229 -48.464497 25.28512 98 106 102
-96.6726 -48.480751 25.338886 90 101 93
-96.492088 -48.480042 25.346853 98 105 99
-96.320107 -48.481663 25.325575 118 121 117
-94.894997 -48.477642 25.234228 111 113 116
-94.658745 -48.514767 25.290928 114 117 115
-94.519279 -48.528152 25.340691 125 125 122
-94.020523 -48.489754 25.242737 129 125 116
-93.888412 -48.494205 25.32299 99 105 96
-93.706757 -48.4907 25.322054 121 121 115
-93.485634 -48.524628 25.329966 117 118 116
-93.283913 -48.494736 25.285141 115 120 118
-93.13179 -48.481709 25.345354 100 102 100
-92.476288 -48.505726 25.290022 119 124 119
-92.291809 -48.483452 25.279528 114 120 116
-92.13839 -48.521824 25.325628 131 135 133
-91.821953 -48.531101 25.312912 130 134 135
-91.678528 -48.48296 25.334478 140 138 127
-91.508308 -48.514103 25.285477 144 142 134
-91.335442 -48.502304 25.305117 143 143 142
-99.879456 -48.298294 25.367859 96 101 86
-99.707199 -48.2677 25.350348 85 93 80
-99.471092 -48.299648 25.358753 79 88 78
-99.295715 -48.300068 25.372162 104 109 101
-99.197701 -48.23175 25.363335 103 108 102
-98.860779 -48.39336 25.396381 107 104 105
-98.433273 -48.297455 25.34157 139 138 130
-98.323372 -48.29641 25.311131 131 127 121
-98.141479 -48.291462 25.267172 136 132 129
-97.951859 -48.344673 25.34341 112 111 106
-97.682228 -48.2934 25.314144 128 124 118
-97.509941 -48.372162 25.266663 113 125 123
-97.241257 -48.392986 25.382133 87 100 98
-96.86972 -48.246353 25.219387 78 92 81
-96.706398 -48.291149 25.294947 78 91 80
-96.503448 -48.284637 25.331022 85 91 85
-96.302704 -48.306107 25.269897 105 113 109
-96.110909 -48.290997 25.315968 107 115 109
-95.875885 -48.246742 25.283297 110 116 114
-95.685692 -48.280544 25.283922 138 139 135
-95.490471 -48.272572 25.327002 124 127 120
-95.347931 -48.335014 25.361446 120 125 120
-95.019775 -48.392048 25.317692 47 57 46
-94.910606 -48.235123 25.249344 64 75 73
-94.658188 -48.273716 25.312773 116 122 120
-94.581528 -48.321526 25.35778 100 98 96
-94.371559 -48.268852 25.392838 119 120 117
-94.032188 -48.330399 25.251663 94 102 94
-93.882149 -48.307545 25.31819 112 116 110
-93.708557 -48.292217 25.352341 128 127 123
-93.526878 -48.279148 25.308397 120 120 116
-93.295654 -48.288212 25.307861 102 108 105
-93.143402 -48.260777 25.376842 98 103 96
-92.675743 -48.273735 25.322306 113 116 107
-92.516777 -48.340511 25.291784 97 103 95
-92.29557 -48.281708 25.285154 137 137 136
-92.107704 -48.303028 25.333315 132 137 136
-91.94677 -48.29554 25.336155 133 135 130
-91.683052 -48.342445 25.308443 141 135 128
-91.504272 -48.284027 25.28474 139 137 133
-91.314285 -48.335888 25.257252 120 123 123
-99.892082 -48.129852 25.228018 59 68 55
-99.711197 -48.124035 25.280659 83 92 78
-99.532806 -48.148621 25.314814 92 99 88
-99.380104 -48.165909 25.343208 102 106 95
-99.049347 -48.084587 25.315321 90 94 82
-98.907402 -48.092262 25.371344 94 98 85
-98.663902 -48.029419 25.370455 111 111 99
-98.489258 -48.05405 25.329641 87 92 82
-98.32972 -48.106091 25.311012 92 98 89
-98.107933 -48.119736 25.280752 74 81 76
-96.870392 -48.080505 25.273911 80 91 82
-96.679901 -48.138859 25.30228 76 86 77
-96.512619 -48.117031 25.300413 85 88 83
-96.328613 -48.110271 25.351101 84 93 87
-96.09269 -48.132561 25.28306 106 115 110
-95.934166 -48.143753 25.276175 118 126 124
-95.719086 -48.135574 25.295893 114 124 119
-95.506538 -48.11108 25.311007 112 121 114
-95.345421 -48.118481 25.309082 137 143 138
-94.854614 -48.132336 25.320316 71 83 83
-94.661354 -48.095791 25.222919 75 83 82
-94.572083 -48.072418 25.280874 132 127 130
-94.26963 -48.080421 25.347649 116 116 114
-94.015045 -48.154877 25.289236 115 120 116
-93.879967 -48.145012 25.308668 104 109 102
-93.705002 -48.092442 25.332621 132 129 124
-93.499588 -48.099804 25.29155 127 125 122
-93.335007 -48.093903 25.297554 118 118 114
-93.128227 -48.064453 25.350908 125 134 127
-92.877953 -48.100552 25.333878 92 101 92
-92.701759 -48.076511 25.268467 121 124 118
-92.508934 -48.075653 25.28451 107 112 102
-92.31134 -48.088364 25.307735 144 142 140
-92.106247 -48.102325 25.302244 123 128 127
-91.912773 -48.094666 25.353186 141 144 142
-91.665123 -48.075733 25.347647 134 130 128
-91.500427 -48.094425 25.291803 130 122 121
-91.372314 -48.100304 25.301361 130 125 125
-99.458618 -47.945377 25.333654 83 89 77
-99.31012 -47.976028 25.387785 100 106 94
-99.086258 -47.932816 25.341291 109 111 101
-98.903206 -47.93425 25.320885 109 109 101
-98.703857 -47.911892 25.348534 102 103 93
-98.514473 -47.900246 25.317554 100 102 90
-98.30304 -47.849728 25.314333 73 82 74
-98.139549 -47.993225 25.353025 87 92 86
-97.842094 -47.94693 25.365179 87 96 91
-97.781181 -47.869118 25.297741 69 79 75
-96.855881 -47.956257 25.376457 82 95 86
-96.72477 -47.891785 25.363411 87 101 98
-96.499565 -47.917545 25.323441 81 91 85
-96.23671 -47.980316 25.302 85 101 96
-95.94976 -47.971851 25.285538 99 110 108
-95.63842 -47.994339 25.251541 136 146 138
-95.482346 -47.905457 25.283436 114 124 119
-95.288391 -47.91156 25.304749 132 138 137
-95.102379 -47.828064 25.279202 84 90 80
-94.848282 -47.914841 25.31179 84 93 88
-94.702499 -47.927101 25.271248 103 112 107
-94.558273 -47.901848 25.295479 113 121 119
-94.296829 -47.885487 25.300972 117 117 114
-94.127106 -47.954414 25.390667 102 105 104
-93.855324 -47.875668 25.307653 135 134 128
-93.674446 -47.899288 25.287991 137 134 131
-93.500488 -47.910885 25.295004 126 125 123
-93.322289 -47.911106 25.270653 109 116 110
-93.109428 -47.880241 25.282562 115 123 118
-92.868675 -47.884056 25.261688 128 132 122
-92.689392 -47.901447 25.287064 137 139 132
-92.493118 -47.876999 25.276567 133 135 126
-92.29187 -47.895851 25.299513 154 152 148
-92.104446 -47.917213 25.274403 117 125 123
-91.937302 -47.924038 25.330198 76 85 82
-91.690659 -47.933937 25.337986 120 118 123
-91.514877 -47.919434 25.283234 98 98 96
-91.357208 -47.915909 25.31621 85 88 88
-98.806648 -47.765358 25.352589 117 109 99
-98.65583 -47.71711 25.309837 104 106 94
-98.506973 -47.722355 25.322147 112 112 104
-98.317207 -47.693249 25.289589 87 91 83
-98.061501 -47.663429 25.309887 133 136 129
-97.856209 -47.735115 25.285065 90 97 102
-97.783791 -47.603523 25.369038 117 128 138
-96.775345 -47.781731 25.38588 113 123 118
-96.209129 -47.732666 25.369633 67 76 83
-95.490555 -47.654743 25.290478 99 109 100
-95.307472 -47.681789 25.306974 96 103 97
-95.140724 -47.71069 25.264904 106 115 104
-94.846031 -47.713139 25.238901 119 127 119
-94.701691 -47.667774 25.257677 128 130 123
-94.509804 -47.677841 25.31793 118 124 121
-94.279488 -47.70813 25.314035 110 113 113
-94.123619 -47.684071 25.284256 133 130 128
-93.871315 -47.685135 25.343519 120 121 122
-93.668259 -47.726776 25.296188 139 141 142
-93.488297 -47.709713 25.324032 137 134 131
-93.294022 -47.66647 25.250057 128 130 120
-93.111191 -47.708488 25.262985 116 121 110
-92.913353 -47.687679 25.290195 141 144 138
-92.71283 -47.712833 25.323196 142 144 141
-92.498154 -47.696613 25.307079 147 145 140
-92.299637 -47.710564 25.311552 129 129 125
-92.083878 -47.742004 25.251326 101 108 104
-91.923271 -47.722237 25.265388 33 54 37
-91.650955 -47.740692 25.309258 54 63 59
-91.497887 -47.669975 25.253052 65 76 67
-98.827194 -47.427429 25.397636 96 103 96
-98.636467 -47.529781 25.293989 99 103 92
-98.481964 -47.499027 25.300625 105 105 97
-98.341492 -47.513527 25.293503 111 111 105
-98.092194 -47.493816 25.249203 94 98 96
-97.855736 -47.471729 25.278967 101 107 115
-97.729782 -47.465809 25.320393 117 124 132
-96.55619 -47.460205 25.368994 56 68 68
-95.698196 -47.462387 25.281586 89 101 93
-95.486649 -47.475578 25.283836 99 107 99
-95.320671 -47.537411 25.283033 89 96 90
-94.859016 -47.491421 25.262651 124 127 117
-94.715141 -47.507187 25.26107 139 141 134
-94.522148 -47.483097 25.286303 98 107 104
-94.328423 -47.458797 25.277653 99 110 107
-94.183769 -47.552467 25.381929 78 88 87
-93.878151 -47.501934 25.322069 95 105 102
-93.75029 -47.552105 25.313553 90 95 98
-93.476898 -47.50951 25.289806 154 152 151
-93.312439 -47.48177 25.299025 154 152 146
-93.112236 -47.544487 25.278072 136 139 129
-92.904221 -47.509975 25.309469 149 151 146
-92.705864 -47.50695 25.319426 145 146 143
-92.520813 -47.476433 25.318932 136 134 130
-92.302177 -47.53334 25.267307 118 120 116
-98.924141 -47.226337 25.354206 124 120 111
-98.653282 -47.377472 25.341156 115 121 112
-98.474541 -47.309357 25.310261 110 109 100
-98.326073 -47.350746 25.275879 102 101 94
-98.03936 -47.341751 25.226793 69 75 72
-97.857704 -47.271069 25.27635 108 115 118
-97.707886 -47.310799 25.33181 96 104 107
-95.680672 -47.27779 25.28121 87 100 93
-95.473755 -47.34552 25.259298 98 107 103
-95.322113 -47.337421 25.260439 120 127 123
-95.097664 -47.299015 25.296797 133 137 133
-94.899475 -47.318069 25.268442 119 127 122
-94.73098 -47.303219 25.252865 118 125 119
-94.481186 -47.323997 25.291355 82 93 86
-94.379608 -47.399128 25.235287 91 106 99
-93.499237 -47.330357 25.267637 109 115 115
-93.331696 -47.32172 25.309654 117 120 117
-93.096802 -47.297817 25.311567 144 144 139
-92.873672 -47.281029 25.306255 108 113 103
-92.695526 -47.292896 25.295525 142 142 137
-92.522827 -47.317616 25.300241 124 126 122
-92.385025 -47.23941 25.271942 45 62 48
-98.666512 -47.056606 25.33691 122 118 112
-98.516457 -47.130253 25.264538 112 108 104
-98.360336 -47.191208 25.275063 66 71 67
-98.067368 -47.055107 25.209005 85 88 85
-97.869904 -47.120876 25.267481 81 88 89
-97.725616 -47.119766 25.300949 78 86 85
-97.515472 -47.030251 25.339287 100 111 112
-95.752846 -47.192501 25.338064 79 95 85
-95.445374 -47.117828 25.337822 90 104 102
-95.275703 -47.134132 25.268808 103 115 112
-95.11451 -47.103542 25.273094 121 130 127
-94.889359 -47.095776 25.261843 121 128 121
-94.714516 -47.164867 25.263559 88 99 90
-93.479813 -47.158966 25.308987 64 76 68
-93.063049 -47.154621 25.337765 94 102 89
-92.894608 -47.161835 25.250919 106 106 96
-92.697037 -47.07259 25.217722 135 138 135
-92.524254 -47.121685 25.290911 86 97 88
-98.159241 -46.87096 25.23357 146 142 139
-97.883209 -46.995094 25.233711 74 83 79
-97.62989 -46.935268 25.397503 97 110 108
-96.256386 -46.803551 25.282684 109 117 104
-96.102844 -46.920414 25.32239 90 90 90
-95.986839 -46.814587 25.31076 112 117 107
-95.277206 -46.908592 25.249886 94 106 104
-95.081612 -46.906933 25.2805 125 133 126
-94.890816 -46.899204 25.344952 119 129 119
-94.754944 -46.976971 25.307388 82 96 90
-92.620041 -46.951622 25.218309 55 72 58
-92.587746 -46.985516 25.242275 31 48 32
-97.691956 -46.765827 25.230413 149 160 166
-96.10968 -46.71751 25.29722 87 95 89
-95.946953 -46.726498 25.308756 113 120 113
-95.283333 -46.669739 25.25621 79 88 86
-95.102554 -46.722752 25.271393 88 98 92
-94.906212 -46.731586 25.301119 87 96 88
-94.735092 -46.791473 25.222095 49 62 52
-96.400589 -46.420326 25.200336 83 90 83
-96.290443 -46.423069 25.307787 77 87 78
-96.117455 -46.587807 25.245878 72 84 78
-95.997719 -46.599815 25.249466 98 108 100
-95.700104 -46.542084 25.276926 73 85 75
-95.569412 -46.425426 25.244877 69 86 76
-95.29187 -46.530952 25.268646 75 85 74
-95.105087 -46.493156 25.292213 96 105 96
-94.889603 -46.43586 25.293465 121 129 121
-94.710121 -46.433277 25.264437 115 123 115
-93.905434 -46.474636 25.288355 129 137 127
-96.716248 -46.396 25.212017 89 99 88
-96.09198 -46.316154 25.280615 72 81 74
-95.983002 -46.243443 25.388718 75 86 78
-95.68988 -46.271347 25.290186 101 113 103
-95.234009 -46.320572 25.241817 85 93 85
-95.092392 -46.301506 25.296362 91 101 93
-94.913376 -46.30703 25.275253 105 114 106
-94.691971 -46.307663 25.281799 114 123 113
-94.529114 -46.272213 25.269598 105 112 104
-94.250618 -46.230114 25.244751 112 120 112
-94.093903 -46.273342 25.253304 120 127 118
-93.932907 -46.317471 25.259956 106 114 107
-97.219215 -46.138256 25.260643 68 77 74
-95.685005 -46.11388 25.20846 79 90 80
-95.52327 -46.111267 25.292345 102 109 100
-95.347458 -46.07811 25.257633 88 97 89
-95.079964 -46.098278 25.304338 100 109 99
-94.911858 -46.079536 25.320467 93 103 94
-94.695679 -46.089039 25.260601 112 121 114
-94.464882 -46.071362 25.320028 109 117 110
-94.303299 -46.080883 25.276512 113 121 118
-94.135323 -46.103397 25.2731 113 122 115
-93.87674 -46.069683 25.28163 111 116 108
-93.762016 -46.040199 25.299221 98 102 93
-95.473099 -45.925865 25.239498 118 130 118
-95.226234 -45.911598 25.223024 119 124 118
-95.091034 -45.967213 25.291985 95 107 95
-94.92791 -45.984421 25.303577 100 113 103
-94.463783 -45.93045 25.236671 117 125 119
-94.302582 -45.891495 25.288055 110 120 116
-94.110016 -45.908329 25.333191 138 148 148
-93.898491 -45.919998 25.244732 114 121 114
-94.512337 -45.793324 25.233791 134 140 135
-94.324799 -45.787849 25.280563 108 120 112
-95.060883 -45.481201 25.281822 64 82 75
-94.985397 -45.510921 25.337898 79 95 92
-93.293152 -54.254139 25.538794 145 139 141
-93.154701 -54.267483 25.485987 143 129 132
-92.840828 -54.249424 25.498217 171 159 155
-92.739281 -54.242245 25.451052 181 167 168
-93.477936 -54.10635 25.505758 149 142 139
-93.291992 -54.159912 25.518522 162 152 150
-93.042038 -54.06963 25.479488 172 153 151
-92.906654 -54.106323 25.4692 177 160 158
-92.707375 -54.098343 25.439325 157 148 143
-92.55938 -54.014019 25.415951 184 176 176
-94.007683 -53.837776 25.582291 138 119 121
-93.907967 -53.830044 25.579889 148 138 138
-93.719078 -53.863869 25.478323 127 132 135
-93.515511 -53.942566 25.474504 131 123 126
-93.394981 -53.824677 25.482519 140 126 134
-93.057976 -53.871742 25.485359 182 167 164
-92.909569 -53.894444 25.498882 184 163 159
-92.715523 -53.871841 25.468792 178 159 155
-92.550041 -53.868435 25.47188 170 162 159
-94.253555 -53.620316 25.468666 141 143 146
-94.126083 -53.67115 25.51812 138 137 137
-93.743622 -53.620445 25.408199 141 143 137
-93.526741 -53.644344 25.442827 135 137 137
-93.272881 -53.655937 25.461893 166 152 154
-93.094986 -53.693935 25.500011 170 159 155
-92.905212 -53.738842 25.558218 179 161 157
-92.693954 -53.704216 25.502661 171 157 153
-92.528374 -53.688911 25.491001 161 150 148
-100.27164 -53.52467 25.505577 142 139 132
-100.08329 -53.497658 25.523338 162 154 154
-94.625595 -53.475979 25.406143 135 134 133
-94.473755 -53.484043 25.507927 141 142 142
-94.294518 -53.480206 25.472672 137 139 136
-94.075005 -53.45216 25.455706 150 147 144
-93.908478 -53.446476 25.468874 139 136 130
-93.698601 -53.481915 25.460087 145 143 135
-93.53154 -53.510815 25.444344 124 127 119
-93.238785 -53.499454 25.48093 146 138 136
-93.127007 -53.510658 25.50614 156 148 143
-92.853249 -53.460117 25.507158 138 133 129
-92.710449 -53.511612 25.483418 144 139 132
-92.524315 -53.507835 25.447941 158 150 146
-92.13504 -53.428757 25.47547 139 139 143
-100.46042 -53.33049 25.401104 126 127 118
-100.25575 -53.352802 25.431108 103 110 100
-100.0962 -53.350094 25.456408 133 135 130
-94.871986 -53.235443 25.513189 124 126 125
-94.691643 -53.256828 25.500607 134 131 131
-94.484344 -53.262142 25.463686 151 150 148
-94.301437 -53.296497 25.498669 138 137 135
-94.128883 -53.332668 25.477608 131 134 130
-93.923225 -53.376953 25.435898 148 145 138
-93.686729 -53.295219 25.468163 141 135 126
-93.508484 -53.306385 25.491486 126 124 119
-93.269714 -53.305943 25.493412 128 126 122
-93.108932 -53.304585 25.529167 118 119 112
-92.862328 -53.29493 25.486568 137 134 126
-92.703674 -53.267246 25.492868 152 147 144
-92.489159 -53.284454 25.449524 143 139 138
-92.298134 -53.363918 25.481813 143 140 144
-92.074951 -53.253391 25.484587 148 150 146
-95.072563 -53.06612 25.456083 151 140 138
-94.883041 -53.088322 25.478687 130 129 130
-94.681824 -53.092785 25.480522 138 137 137
-94.517181 -53.124352 25.505466 138 137 137
-94.32885 -53.133106 25.537367 119 123 120
-93.903648 -53.06496 25.545738 106 103 103
-93.626175 -53.138325 25.468777 136 137 130
-93.475426 -53.102463 25.47789 127 130 124
-93.312347 -53.097153 25.474821 112 117 111
-93.121017 -53.096176 25.493155 108 110 103
-92.879196 -53.154976 25.514053 128 122 122
-92.674103 -53.130341 25.495996 146 141 137
-92.525986 -53.085255 25.46513 154 145 144
-92.265182 -53.095062 25.467558 152 145 148
-92.118523 -53.07473 25.478905 147 145 146
-91.927322 -53.060341 25.453823 149 151 151
-91.632607 -53.077663 25.421932 168 177 180
-96.07563 -52.850616 25.461378 188 176 181
-95.921539 -52.875607 25.462952 169 161 165
-95.703819 -52.884338 25.425604 168 163 163
-95.561356 -52.841717 25.4174 154 152 153
-95.089668 -52.907497 25.481918 138 127 125
-94.907997 -52.890491 25.501616 137 134 134
-94.686066 -52.934475 25.495268 152 151 156
-94.523209 -52.91246 25.481234 142 140 141
-94.308914 -52.904209 25.535183 133 133 132
-94.110748 -52.863762 25.534855 114 114 113
-93.87352 -52.921803 25.521175 109 103 104
-93.708443 -52.951683 25.480431 109 106 107
-93.437798 -52.93866 25.468218 125 122 121
-93.289696 -52.920483 25.486942 110 110 108
-93.134537 -52.917778 25.507076 115 113 110
-92.66378 -52.861622 25.494347 124 114 112
-92.488182 -52.917858 25.494873 137 130 131
-92.296883 -52.898689 25.488419 133 134 134
-92.096146 -52.914387 25.509071 153 152 156
-91.929749 -52.890385 25.478985 161 162 167
-91.733887 -52.898769 25.441046 152 156 161
-100.68521 -52.669304 25.471401 116 117 107
-100.26395 -52.781334 25.403509 139 134 130
-100.0743 -52.745667 25.420795 112 116 111
-96.059235 -52.730755 25.493683 176 164 167
-95.903877 -52.68713 25.478481 160 155 155
-95.686073 -52.712364 25.452559 152 151 151
-95.525703 -52.733456 25.413502 157 157 160
-95.308365 -52.655804 25.471548 146 144 149
-95.076385 -52.714634 25.489613 132 129 130
-94.899101 -52.714684 25.528587 141 138 142
-94.691513 -52.715153 25.500534 135 138 140
-94.487877 -52.780293 25.532694 130 129 128
-94.256844 -52.755035 25.526129 117 116 115
-94.111084 -52.749474 25.489227 103 101 101
-93.88176 -52.681023 25.51239 130 120 121
-93.784996 -52.781124 25.534031 103 99 104
-93.301254 -52.710808 25.436859 121 110 113
-93.084106 -52.695995 25.480555 109 105 103
-92.890816 -52.669231 25.514774 115 111 109
-92.675003 -52.722843 25.48003 127 122 121
-92.490532 -52.756546 25.491962 108 106 103
-92.306351 -52.743183 25.518412 127 129 126
-92.05632 -52.713417 25.495567 145 144 148
-91.904015 -52.698723 25.477917 141 143 150
-91.740303 -52.688469 25.476181 150 155 160
-91.52179 -52.764465 25.433243 164 168 177
-100.62137 -52.487156 25.444084 121 122 112
-100.5658 -52.474197 25.462927 111 113 103
-100.35434 -52.428238 25.442194 136 135 127
-96.010124 -52.508575 25.443176 167 157 151
-95.908958 -52.498539 25.47566 158 151 149
-95.71347 -52.508648 25.443043 155 154 151
-95.515076 -52.465843 25.451229 151 152 152
-95.310989 -52.503574 25.481731 133 133 136
-95.091743 -52.483997 25.489189 147 143 146
-94.925987 -52.51302 25.505125 140 135 139
-94.726898 -52.512924 25.507454 140 141 145
-94.543945 -52.517605 25.570175 112 112 112
-94.249947 -52.496662 25.531206 137 132 133
-94.10862 -52.505421 25.501118 149 146 148
-93.934158 -52.479767 25.573648 88 83 87
-93.666809 -52.484406 25.480177 98 94 93
-93.570007 -52.492989 25.477119 121 110 113
-93.217636 -52.534222 25.442179 99 90 93
-93.100853 -52.55587 25.497644 137 132 128
-92.907425 -52.497669 25.518093 98 96 96
-92.708969 -52.507771 25.520542 97 98 95
-92.50396 -52.502792 25.510485 102 105 99
-92.391502 -52.509445 25.576223 172 167 169
-92.068222 -52.493103 25.492416 136 138 139
-91.903008 -52.500355 25.487707 143 145 149
-91.725533 -52.52211 25.486174 138 145 149
-100.48464 -52.319813 25.444782 103 106 97
-100.26569 -52.278671 25.458679 150 148 141
-100.17499 -52.233704 25.483826 112 111 102
-96.061722 -52.30238 25.449062 161 152 150
-95.900421 -52.29163 25.476782 163 156 155
-95.695679 -52.293659 25.475637 164 158 159
-95.501953 -52.292503 25.474855 151 148 151
-95.313766 -52.276241 25.490467 143 142 146
-95.134315 -52.319019 25.507111 153 147 153
-94.882217 -52.286194 25.456244 124 125 127
-94.735428 -52.34882 25.492233 141 142 147
-94.258492 -52.324322 25.509476 105 99 96
-94.100632 -52.318249 25.515949 119 119 121
-93.961021 -52.355652 25.478636 114 112 116
-93.470581 -52.273411 25.481411 82 84 77
-93.331039 -52.261013 25.508932 80 85 78
-93.067474 -52.284721 25.565208 97 97 95
-92.910515 -52.333084 25.492691 116 110 110
-92.736122 -52.306984 25.478628 119 118 115
-92.503075 -52.31242 25.498455 101 102 101
-92.265915 -52.266533 25.493315 95 101 99
-92.083733 -52.292423 25.49515 131 133 136
-91.911682 -52.31638 25.476049 138 140 143
-91.753342 -52.294952 25.498323 149 158 161
-91.576424 -52.374077 25.486198 65 65 67
-100.25356 -52.168728 25.473118 119 118 113
-100.14212 -52.060673 25.475288 132 131 127
-96.041649 -52.153397 25.510132 165 151 147
-95.89077 -52.103832 25.492918 155 150 149
-95.696388 -52.096478 25.507315 163 157 159
-95.513832 -52.109207 25.486065 147 144 146
-95.306473 -52.105366 25.477371 122 121 124
-95.114937 -52.104202 25.487347 127 126 125
-94.910767 -52.10527 25.486763 104 107 106
-94.661995 -52.06012 25.524668 107 107 105
-94.550262 -52.040737 25.501379 111 108 108
-94.222862 -52.163063 25.473789 131 122 125
-93.986961 -52.199154 25.499657 102 95 98
-93.651123 -52.085522 25.485998 104 96 96
-93.515724 -52.111645 25.52075 96 95 93
-93.289619 -52.086246 25.529818 83 87 81
-93.170044 -52.043674 25.482512 70 72 70
-92.903053 -52.104328 25.512548 111 110 110
-92.674454 -52.08654 25.491402 121 123 126
-92.467453 -52.076687 25.49456 110 116 114
-92.287285 -52.107468 25.492048 102 111 109
-92.087158 -52.109825 25.473572 126 130 131
-91.919373 -52.087025 25.449181 145 148 153
-91.764542 -52.074638 25.455154 119 127 127
-100.29984 -51.854389 25.501619 87 92 82
-100.09474 -51.87767 25.467453 107 111 102
-99.949181 -51.847645 25.428053 118 121 111
-99.776649 -51.849617 25.411814 98 101 90
-95.844391 -51.985657 25.481003 163 162 160
-95.726334 -51.953159 25.492849 153 150 152
-95.470947 -51.919918 25.458429 144 146 150
-95.312454 -51.924767 25.45579 117 118 117
-95.066864 -51.879593 25.550121 107 104 103
-94.88591 -51.869698 25.528828 95 94 92
-94.678345 -51.904373 25.549364 125 119 119
-94.513809 -51.884087 25.54995 124 117 119
-93.675041 -51.861664 25.537741 106 101 101
-93.472099 -51.869434 25.51906 107 105 102
-93.276466 -51.90823 25.5033 92 95 91
-93.11171 -51.887691 25.512638 86 92 88
-92.929543 -51.885807 25.511097 96 103 99
-92.70015 -51.890366 25.489351 93 101 101
-92.503815 -51.908566 25.498993 120 127 123
-92.292618 -51.893257 25.500683 112 118 119
-92.105194 -51.903595 25.504189 111 118 118
-91.902695 -51.918385 25.462452 122 126 126
-91.750771 -51.932156 25.449387 107 114 109
-91.576828 -51.856792 25.429705 147 153 153
-100.46088 -51.658924 25.486771 85 92 82
-100.30412 -51.701332 25.474701 95 101 91
-100.09731 -51.716728 25.484259 95 101 90
-99.873474 -51.705311 25.4676 129 129 123
-99.750145 -51.647537 25.489584 126 128 122
-95.460594 -51.700211 25.411152 75 82 75
-95.272301 -51.698132 25.431683 124 135 129
-95.089584 -51.678139 25.548435 123 132 129
-94.850197 -51.709461 25.539307 113 110 108
-94.707085 -51.682976 25.510422 121 116 116
-94.581413 -51.692848 25.535633 132 123 126
-94.274101 -51.617523 25.527344 106 106 98
-94.098282 -51.699177 25.447706 77 77 76
-93.681084 -51.694351 25.547318 124 118 115
-93.50132 -51.670494 25.529366 114 112 108
-93.309692 -51.685768 25.499971 113 113 111
-93.130554 -51.705441 25.515112 85 92 88
-92.926605 -51.677883 25.493233 106 109 108
-92.681778 -51.684292 25.513201 112 116 115
-92.513321 -51.678398 25.502687 118 125 122
-92.276886 -51.662697 25.493742 133 138 139
-92.115623 -51.687542 25.506397 139 144 147
-91.932968 -51.69677 25.465788 145 147 152
-91.765121 -51.677139 25.45116 124 134 136
-100.65273 -51.436485 25.507307 82 93 80
-100.25742 -51.537315 25.465698 107 116 107
-100.10561 -51.581196 25.506124 90 96 87
-99.846146 -51.496513 25.50873 126 126 119
-99.758011 -51.473255 25.483852 117 118 112
-95.068604 -51.589207 25.463043 134 130 130
-94.890594 -51.559193 25.515131 121 112 116
-94.681686 -51.511261 25.509354 132 126 126
-94.529068 -51.464096 25.489288 119 119 117
-94.274811 -51.461174 25.504307 123 120 119
-94.087852 -51.472179 25.512661 95 95 90
-93.922417 -51.453396 25.487143 115 115 110
-93.673996 -51.503201 25.535662 137 129 127
-93.510521 -51.502895 25.503963 123 119 116
-93.324471 -51.517345 25.490843 100 97 95
-93.07859 -51.511391 25.487865 105 107 108
-92.909485 -51.499386 25.528845 110 113 114
-92.671532 -51.504505 25.506365 114 119 117
-92.509583 -51.508808 25.523794 131 133 134
-92.269981 -51.520809 25.532925 143 143 147
-92.113075 -51.491524 25.505779 143 145 149
-91.924789 -51.476124 25.47452 147 150 151
-91.758499 -51.495392 25.509251 99 107 108
-100.6908 -51.257736 25.460217 77 88 74
-100.59193 -51.352516 25.542244 55 69 54
-99.711296 -51.317581 25.516546 137 134 132
-95.124268 -51.275864 25.587543 74 75 79
-94.890167 -51.388954 25.450491 111 105 105
-94.668785 -51.340565 25.416811 162 158 162
-94.495628 -51.351154 25.520908 135 130 130
-94.299744 -51.308853 25.512947 130 126 125
-94.095512 -51.298729 25.462635 125 124 122
-93.930519 -51.288628 25.523361 116 112 109
-93.700981 -51.288406 25.530302 135 124 121
-93.504242 -51.308983 25.515272 138 129 125
-93.298958 -51.295685 25.507425 110 108 106
-93.101692 -51.284019 25.527243 126 126 126
-92.913254 -51.294006 25.527014 128 130 131
-92.671059 -51.305588 25.542227 128 131 131
-92.504265 -51.266479 25.550669 126 129 126
-92.301727 -51.256592 25.539783 130 133 130
-92.115036 -51.318981 25.512577 139 143 143
-91.928154 -51.319458 25.452007 149 151 154
-100.49215 -51.083885 25.537155 83 91 83
-100.32273 -51.0364 25.506174 98 104 96
-100.05843 -51.054539 25.496876 101 106 100
-99.909676 -51.088783 25.530516 107 110 104
-99.707413 -51.102726 25.516819 138 138 135
-99.582405 -51.079605 25.510962 97 97 95
-95.099167 -51.10413 25.50161 131 124 123
-94.991463 -51.073555 25.510521 119 119 127
-94.651154 -51.117592 25.583248 104 104 94
-94.516319 -51.078072 25.487635 127 125 113
-94.336823 -51.111073 25.528053 141 141 139
-94.032295 -51.1077 25.493334 144 131 129
-93.880577 -51.113533 25.512117 127 118 116
-93.703094 -51.082344 25.531017 142 132 129
-93.507965 -51.112206 25.494293 139 129 127
-93.314621 -51.100586 25.48778 129 124 122
-93.088905 -51.118813 25.479279 110 112 109
-92.901596 -51.10281 25.505205 109 113 110
-92.71698 -51.105999 25.544931 142 143 142
-92.47699 -51.121838 25.511719 128 131 125
-92.301712 -51.104877 25.527958 139 140 136
-92.130646 -51.098701 25.526407 145 148 145
-91.973824 -51.14043 25.469259 132 129 134
-100.78983 -50.911915 25.491856 87 98 87
-100.45702 -50.938805 25.463451 99 104 95
-100.33516 -50.92646 25.475475 123 125 119
-100.08002 -50.900578 25.423943 104 107 101
-99.901062 -50.9389 25.442984 122 124 121
-99.755508 -50.885109 25.423504 111 111 103
-95.118492 -50.86195 25.469189 126 119 113
-94.912605 -50.920895 25.486731 148 141 135
-94.786041 -50.990135 25.561041 151 140 134
-94.442215 -50.954494 25.475954 96 102 91
-94.244965 -50.936108 25.446983 79 85 76
-94.06105 -50.929855 25.46175 123 113 109
-93.867828 -50.925755 25.475988 115 110 105
-93.697823 -50.924088 25.496805 125 119 115
-93.525536 -50.901127 25.466352 144 137 133
-93.300606 -50.905739 25.432905 123 120 117
-93.111656 -50.903881 25.42429 102 101 99
-92.880417 -50.919598 25.49943 142 141 140
-92.720024 -50.892239 25.526011 139 141 138
-92.496414 -50.890522 25.515949 131 135 130
-92.27813 -50.910198 25.508938 144 146 144
-92.101395 -50.90686 25.53488 153 152 150
-91.966385 -50.879593 25.535589 148 149 148
-100.74388 -50.753258 25.470352 99 104 97
-100.05771 -50.778938 25.421148 103 108 97
-99.826744 -50.608246 25.405497 152 145 135
-99.750214 -50.712662 25.442823 135 132 122
-95.17704 -50.63089 25.423574 187 147 143
-93.804871 -50.799927 25.552078 162 163 158
-93.604279 -50.764927 25.462147 163 144 143
-93.494209 -50.725815 25.438051 149 141 135
-93.308693 -50.678261 25.458412 134 132 127
-93.062805 -50.675503 25.473053 132 132 129
-92.895653 -50.725037 25.505665 109 111 105
-92.680962 -50.694233 25.52812 103 106 100
-92.523201 -50.692966 25.527424 117 117 114
-92.282486 -50.710258 25.539709 138 140 135
-92.10601 -50.715302 25.518785 149 149 147
-91.945473 -50.740639 25.552219 145 146 144
-100.71706 -50.530746 25.500286 104 109 101
-100.5416 -50.531464 25.491592 139 140 135
-100.31015 -50.533108 25.481644 165 166 170
-100.06119 -50.546619 25.430281 103 99 92
-93.641289 -50.450047 25.450323 143 145 134
-93.491287 -50.477024 25.494627 145 141 132
-93.264923 -50.443687 25.518044 153 152 148
-93.105637 -50.469795 25.492765 133 133 130
-92.909615 -50.533543 25.486675 108 114 106
-92.711426 -50.517704 25.483624 94 100 92
-92.504639 -50.530735 25.5347 95 98 91
-92.307785 -50.505337 25.488291 111 117 107
-92.098381 -50.517269 25.493877 119 126 119
-91.907272 -50.426147 25.454428 70 82 71
-91.788292 -50.579659 25.426979 105 114 111
-101.06368 -50.205219 25.457468 46 59 49
-100.77549 -50.308071 25.446331 125 124 123
-95.445618 -50.204079 25.430752 143 132 125
-93.817581 -50.260189 25.476828 133 129 123
-93.702179 -50.283844 25.502827 140 138 131
-93.489922 -50.287357 25.499666 151 151 146
-93.295845 -50.318523 25.521936 142 144 137
-93.094971 -50.30809 25.516253 141 142 137
-92.914375 -50.293724 25.516663 137 136 134
-92.713737 -50.266479 25.500193 128 134 130
-92.473 -50.332504 25.456841 95 105 96
-92.32608 -50.314651 25.472761 130 134 126
-92.114464 -50.249935 25.542814 148 150 146
-100.95495 -50.087593 25.442154 76 82 78
-95.678604 -50.0284 25.561924 160 141 137
-95.463737 -50.061676 25.419395 179 161 158
-95.315788 -50.074104 25.456078 166 155 148
-95.124329 -50.048824 25.458536 159 148 143
-94.461571 -50.022835 25.423885 148 145 141
-93.855896 -50.034393 25.457537 126 128 118
-93.682686 -50.088741 25.471407 136 138 132
-93.518661 -50.103622 25.500135 148 150 142
-93.303413 -50.119034 25.541153 139 140 134
-93.080246 -50.078503 25.53928 123 128 121
-92.887428 -50.105309 25.501904 125 129 125
-92.717308 -50.07283 25.470131 136 142 140
-92.491386 -50.082607 25.506083 128 131 125
-92.269089 -50.08717 25.494478 145 146 138
-92.114632 -50.123844 25.514107 163 162 157
-91.907417 -50.061924 25.497332 150 151 145
-91.739914 -50.043449 25.474361 131 135 131
-95.669731 -49.864441 25.496397 165 151 149
-95.487038 -49.890709 25.488064 160 150 147
-95.318771 -49.900352 25.498302 165 154 150
-95.123154 -49.892765 25.483704 169 151 146
-94.896179 -49.872185 25.479034 155 139 135
-94.714157 -49.857231 25.497845 157 138 135
-94.526367 -49.880589 25.47871 128 119 115
-94.284332 -49.853794 25.472673 143 135 128
-94.136902 -49.902527 25.449942 152 145 140
-93.873039 -49.907215 25.456875 139 139 135
-93.703079 -49.899551 25.484825 131 133 129
-93.513496 -49.92189 25.50647 125 127 120
-93.321716 -49.882477 25.525879 129 128 123
-93.075836 -49.893196 25.49404 124 131 123
-92.894188 -49.912949 25.475475 110 117 110
-92.723495 -49.895943 25.483974 125 130 126
-92.489365 -49.863415 25.494406 129 133 128
-92.317459 -49.933594 25.524509 141 139 130
-92.092422 -49.91251 25.536757 158 154 146
-91.892242 -49.903183 25.50095 140 143 137
-91.74411 -49.863209 25.498293 129 134 131
-91.426369 -49.819519 25.432791 170 162 159
-100.86916 -49.689739 25.417736 126 131 125
-98.663086 -49.610703 25.453571 207 177 175
-95.838814 -49.68745 25.502779 135 130 130
-95.683647 -49.69862 25.498617 164 154 152
-95.497696 -49.693977 25.513432 165 159 157
-95.303604 -49.69754 25.519131 157 150 148
-95.088081 -49.699997 25.496012 157 145 142
-94.905777 -49.695599 25.494282 148 138 135
-94.689468 -49.691635 25.508322 149 143 139
-94.519241 -49.671753 25.46784 139 134 127
-94.277756 -49.6819 25.486811 143 137 132
-94.103142 -49.680779 25.485371 148 145 141
-93.912712 -49.694214 25.472509 129 129 123
-93.707191 -49.719143 25.48675 112 116 111
-93.512917 -49.706524 25.486969 104 109 102
-93.309128 -49.701172 25.515337 136 133 128
-93.084625 -49.697289 25.510818 124 129 120
-92.900482 -49.692913 25.462627 114 122 111
-92.679993 -49.728695 25.481787 118 124 118
-92.544861 -49.737659 25.526888 142 143 142
-92.292145 -49.678082 25.544611 131 132 130
-92.093048 -49.669254 25.482998 113 121 112
-91.896332 -49.716164 25.505556 132 135 132
-91.726875 -49.728756 25.471077 126 130 123
-91.487328 -49.679531 25.48727 157 154 149
-91.340416 -49.649143 25.468475 140 145 139
-100.95798 -49.420258 25.403425 90 101 87
-100.55295 -49.518444 25.402302 104 113 97
-99.006256 -49.438641 25.439289 99 99 99
-98.859413 -49.453217 25.454338 118 116 110
-98.676109 -49.468273 25.547571 157 151 147
-98.51149 -49.505871 25.504536 156 150 142
-98.32814 -49.470139 25.501095 158 153 152
-95.843666 -49.508354 25.481796 142 133 131
-95.670334 -49.499443 25.470922 144 140 139
-95.506622 -49.494255 25.518867 160 152 151
-95.311516 -49.503422 25.532871 152 148 146
-95.103363 -49.500523 25.498953 130 127 123
-94.893692 -49.49844 25.50021 150 143 144
-94.702019 -49.505424 25.505457 151 145 143
-94.483894 -49.499962 25.503771 143 138 133
-94.297729 -49.501617 25.494545 130 127 123
-94.104713 -49.505898 25.515646 138 133 131
-93.89151 -49.50449 25.489592 132 130 126
-93.697762 -49.493603 25.517546 127 126 122
-93.508087 -49.537098 25.484957 134 135 129
-93.322266 -49.54871 25.533672 150 150 144
-93.08429 -49.506203 25.504837 119 124 117
-92.889366 -49.498215 25.492887 120 124 115
-92.715981 -49.516266 25.496572 129 133 125
-92.501732 -49.500202 25.534637 127 124 120
-92.286209 -49.480717 25.542429 127 128 124
-92.092735 -49.490398 25.534279 127 131 126
-91.90416 -49.502689 25.503933 131 133 131
-91.684624 -49.462475 25.497711 141 143 140
-91.489906 -49.498196 25.487034 150 151 146
-91.330658 -49.497818 25.482117 141 143 140
-91.180336 -49.479961 25.438585 121 126 125
-100.82115 -49.237305 25.426594 104 105 97
-99.478615 -49.271259 25.50577 154 150 148
-99.276543 -49.299515 25.541193 152 144 140
-99.098145 -49.245403 25.480465 137 131 126
-98.878555 -49.278786 25.468786 134 133 124
-98.69413 -49.292938 25.505625 141 137 131
-98.51355 -49.318924 25.52434 138 137 130
-98.30677 -49.316891 25.445534 124 128 119
-95.855225 -49.25901 25.408524 54 63 58
-95.69072 -49.318615 25.47851 117 115 112
-95.505081 -49.310551 25.499311 128 129 125
-95.305061 -49.32909 25.483824 134 134 130
-95.091179 -49.309856 25.468441 122 123 118
-94.897652 -49.33054 25.498508 142 138 138
-94.696823 -49.323753 25.505774 144 135 133
-94.503906 -49.302837 25.490864 143 138 137
-94.288841 -49.312077 25.482912 125 125 121
-94.108604 -49.283237 25.514887 138 134 133
-93.890953 -49.295471 25.506004 133 130 128
-93.718033 -49.323799 25.49754 139 140 135
-93.556473 -49.339714 25.512369 110 112 104
-93.243774 -49.286446 25.520336 126 130 122
-93.115608 -49.328621 25.498196 126 129 124
-92.861603 -49.358711 25.488037 136 142 134
-92.673546 -49.287239 25.538004 122 123 117
-92.489769 -49.294231 25.506134 106 111 106
-92.297333 -49.308182 25.509962 121 127 122
-92.109474 -49.294884 25.470081 116 123 119
-91.885712 -49.294132 25.488482 133 135 133
-91.71418 -49.30283 25.522327 146 147 146
-91.505722 -49.330425 25.549839 155 155 152
-91.303741 -49.277733 25.500231 149 152 150
-91.169952 -49.251762 25.469925 144 151 150
-90.96537 -49.234432 25.554169 29 48 30
-100.87084 -49.151817 25.412369 111 110 101
-99.646408 -49.133343 25.436922 99 102 97
-99.501549 -49.095539 25.474911 98 98 95
-99.2985 -49.112892 25.504189 135 131 127
-99.109612 -49.101452 25.477362 134 129 125
-98.890862 -49.099056 25.497988 128 128 121
-98.704208 -49.09481 25.506701 134 132 123
-98.503593 -49.104591 25.497097 121 123 114
-98.332069 -49.104275 25.454969 121 124 119
-95.664665 -49.14502 25.468489 75 84 78
-95.50528 -49.119522 25.470249 84 95 88
-95.307098 -49.145248 25.459133 117 119 113
-95.092636 -49.146053 25.423679 108 115 110
-94.898117 -49.114204 25.469692 116 118 119
-94.733849 -49.130745 25.489416 125 129 131
-94.48851 -49.113503 25.445818 121 124 123
-94.289398 -49.09951 25.467398 130 131 128
-94.105164 -49.09988 25.518826 132 130 128
-93.892563 -49.114357 25.516346 138 134 133
-93.711533 -49.089199 25.494705 139 136 132
-93.5214 -49.091179 25.514326 127 121 120
-93.319763 -49.155781 25.463844 110 112 104
-92.949692 -49.03653 25.457951 102 108 101
-92.646019 -49.091736 25.486816 121 128 120
-92.490822 -49.097519 25.492125 124 129 123
-92.288483 -49.112988 25.480705 123 129 126
-92.101006 -49.088539 25.484108 126 132 127
-91.891602 -49.124393 25.508423 137 142 142
-91.691765 -49.082249 25.504869 140 143 141
-91.501076 -49.097698 25.507345 149 151 151
-91.279243 -49.135441 25.490782 133 139 136
-91.156876 -49.138939 25.46323 132 138 134
-100.23307 -48.830036 25.415428 131 131 121
-100.09537 -48.815929 25.509733 112 116 110
-99.872078 -48.841461 25.524149 122 121 115
-99.748688 -48.869949 25.55574 131 130 124
-99.512833 -48.905502 25.442022 92 94 84
-99.294518 -48.919308 25.474703 102 103 96
-99.105194 -48.920395 25.498985 117 119 114
-98.918396 -48.895908 25.491112 97 102 94
-98.708305 -48.888306 25.519722 120 120 112
-98.514099 -48.886856 25.521086 134 133 123
-98.323616 -48.907394 25.470217 123 127 119
-97.64299 -48.819031 25.458891 121 116 120
-97.457596 -48.845898 25.517065 141 141 137
-97.321594 -48.836647 25.53627 152 153 150
-97.074867 -48.851624 25.526815 147 152 150
-96.88176 -48.821781 25.480804 140 140 139
-96.674194 -48.851788 25.493214 142 145 144
-96.494682 -48.874741 25.518799 145 146 144
-96.33828 -48.854275 25.505539 143 143 142
-95.614609 -48.948051 25.430504 92 104 95
-95.415291 -48.962269 25.414747 71 83 73
-95.283806 -48.996445 25.465412 90 102 93
-94.922447 -48.955105 25.440039 78 86 81
-94.717522 -48.94873 25.436554 100 105 99
-94.471153 -48.90794 25.470564 130 127 123
-94.301674 -48.905899 25.494549 136 136 134
-94.113663 -48.914902 25.486618 130 126 122
-93.893021 -48.898869 25.51428 132 129 124
-93.693245 -48.8922 25.525087 137 136 133
-93.510132 -48.892681 25.502825 121 121 117
-93.393402 -48.839622 25.583363 138 138 130
-93.086426 -48.842091 25.578691 137 140 134
-92.960236 -48.871845 25.575451 139 138 132
-92.645912 -48.95322 25.445353 119 127 120
-92.507034 -48.893261 25.449047 129 134 127
-92.323845 -48.914188 25.488564 128 132 126
-92.071136 -48.868088 25.492588 146 145 141
-91.907661 -48.90123 25.459227 128 132 129
-91.709023 -48.882664 25.505531 138 141 138
-91.511589 -48.916416 25.517447 148 147 145
-91.34877 -48.911533 25.473902 129 131 125
-100.07599 -48.753819 25.507814 113 116 109
-99.892418 -48.655235 25.526182 115 117 109
-99.685394 -48.726105 25.510418 123 122 116
-99.520599 -48.702793 25.445124 101 106 97
-99.251381 -48.735733 25.484818 116 116 111
-99.101982 -48.717674 25.481384 132 130 126
-98.898483 -48.714447 25.536755 131 129 123
-98.700958 -48.727699 25.524534 128 127 121
-98.482422 -48.713299 25.528933 150 146 137
-98.346909 -48.685825 25.530617 140 135 129
-98.175171 -48.632122 25.589479 158 149 148
-97.659454 -48.633911 25.480488 125 129 131
-97.489052 -48.716709 25.487854 138 139 140
-97.284546 -48.718056 25.50551 132 136 131
-97.116714 -48.674049 25.502228 124 132 129
-96.880966 -48.67598 25.524599 108 113 110
-96.704788 -48.706108 25.532345 120 124 120
-96.499649 -48.710751 25.50705 112 118 114
-96.321442 -48.684376 25.490021 124 129 126
-96.166122 -48.685081 25.441479 131 135 134
-94.821281 -48.702053 25.563896 191 171 170
-94.645889 -48.696968 25.498703 133 127 125
-94.482262 -48.703804 25.519377 138 137 133
-94.310295 -48.709988 25.505795 139 140 135
-94.102081 -48.701202 25.519766 139 138 134
-93.889381 -48.691433 25.494322 117 121 115
-93.703735 -48.709888 25.507805 125 128 124
-93.531219 -48.709835 25.512009 137 137 134
-93.272087 -48.695709 25.48864 110 114 110
-93.127029 -48.686993 25.533813 134 134 131
-92.980797 -48.749683 25.578423 136 133 126
-92.458138 -48.687298 25.482786 123 126 122
-92.339111 -48.698845 25.496031 105 110 106
-92.073631 -48.70586 25.461355 134 135 135
-91.912529 -48.696114 25.471737 146 144 142
-91.711197 -48.710957 25.473265 132 133 127
-91.506561 -48.726627 25.512407 121 123 115
-91.325996 -48.733841 25.427017 166 163 160
-99.937958 -48.501404 25.466837 121 127 116
-99.704971 -48.509769 25.48727 105 108 99
-99.52108 -48.501038 25.488949 106 111 102
-99.277824 -48.492474 25.454086 113 115 113
-99.091972 -48.483036 25.488091 119 120 114
-98.898033 -48.518482 25.500517 137 134 131
-98.69635 -48.520351 25.528778 149 148 147
-98.435936 -48.493725 25.514729 138 139 129
